-15.942 -15.2059 -3.51976
-14.1719 -16.3396 -4.32061
-14.4207 -16.2595 -4.18859
-13.8805 -16.5407 -4.03595
-13.6321 -16.6269 -4.0925
-13.9986 -16.5566 -3.78234
-16.8003 -15.0688 -2.50438
-13.2902 -16.7874 -3.97461
-13.8611 -16.622 -3.65234
-13.8362 -16.6362 -3.63195
-13.0964 -16.8883 -3.92557
-13.6692 -16.7221 -3.66402
-13.9207 -16.6559 -3.43593
-15.4502 -15.3723 -2.38857
-14.1969 -16.6264 -3.13202
-13.9893 -15.8967 -2.90323
-13.3131 -16.9195 -3.37871
-13.304 -16.9255 -3.34597
-13.3421 -16.9505 -3.25435
-13.1426 -17.0343 -3.31296
-14.1577 -14.5633 -1.84903
-12.9722 -17.1604 -3.01039
-14.1172 -14.6624 -1.80207
-13.3761 -17.0622 -2.70435
-13.7067 -16.9819 -2.51346
-12.5924 -17.3209 -3.06592
-12.5994 -17.3184 -3.03775
-14.0936 -14.6657 -1.58867
-13.3156 -17.1084 -2.57394
-12.7344 -17.3116 -2.84181
-12.6951 -17.3254 -2.81779
-12.7367 -17.2036 -2.5935
-14.1152 -16.0195 -1.6297
-13.7613 -16.1396 -1.77747
-12.449 -17.3034 -2.66217
-13.8979 -14.7721 -1.2623
-16.0354 -15.0305 -6.36192
-19.1045 -13.855 -5.5846
-16.506 -14.3829 -5.65732
-16.228 -14.2341 -5.38707
-15.7529 -15.2813 -5.88815
-16.2527 -14.5354 -5.05427
-13.6883 -16.2283 -5.75659
-15.2199 -15.6477 -5.39397
-16.1104 -14.7869 -4.83659
-16.7356 -14.6259 -4.46335
-15.5433 -15.3159 -4.31159
-14.4858 -16.1753 -4.48402
-14.3693 -16.2699 -4.2134
-14.5035 -16.2464 -4.12389
-14.2518 -16.3397 -4.17157
-14.3052 -16.3241 -4.14643
-16.8558 -14.9187 -3.00846
-15.8486 -15.3065 -3.21869
-14.4455 -16.3652 -3.7915
-14.4445 -16.3837 -3.57152
-12.734 -16.9795 -4.23168
-13.922 -16.597 -3.65993
-13.8959 -16.7239 -3.15421
-13.8795 -16.7288 -3.12204
-13.8494 -16.7515 -3.08073
-13.5553 -16.8749 -3.17375
-13.6489 -16.9226 -2.88903
-14.3639 -15.8454 -2.28046
-14.2939 -14.2017 -1.6769
-13.9108 -16.0531 -2.32413
-14.7646 -13.9765 -1.30798
-14.1407 -14.6462 -1.76436
-14.323 -15.9109 -1.97636
-13.5624 -16.9771 -2.59542
-14.2277 -14.322 -1.43937
-14.2667 -15.9344 -1.79287
-15.864 -15.1621 -6.22319
-16.4558 -14.3802 -5.72574
-13.6346 -16.1773 -6.05761
-16.0592 -14.7342 -5.1773
-15.5431 -15.0817 -4.76003
-15.4792 -15.6613 -4.70157
-15.325 -15.7508 -4.6687
-16.9384 -14.7772 -3.68848
-14.2587 -16.3239 -4.20265
-15.8097 -15.2776 -3.4325
-16.3333 -15.1068 -3.23573
-16.2545 -14.9373 -2.82683
-16.856 -14.9826 -2.69142
-15.754 -15.2707 -2.29825
-14.4856 -15.6975 -2.78943
-14.4135 -15.7465 -2.75247
-14.6487 -15.6781 -2.56669
-13.9658 -15.9807 -2.45307
-13.7889 -16.934 -2.52348
-13.9233 -16.8746 -2.26462
-14.2232 -14.2935 -1.40497
-12.1456 -17.4004 -2.80973
-12.4205 -17.365 -2.49753
-15.244 -15.3379 -6.60684
-15.363 -15.4975 -5.61674
-16.9032 -14.7763 -3.81106
-14.4105 -16.3049 -4.11433
-15.0152 -15.9137 -3.35524
-14.1505 -16.4902 -3.74007
-14.5631 -15.6972 -2.66889
-13.498 -16.9632 -2.93829
-13.8277 -16.9518 -2.37836
-12.4144 -18.2382 -3.28012
-12.2525 -17.3877 -2.65943
-16.3037 -14.5289 -4.7563
-16.9908 -14.3058 -4.43642
-17.717 -14.2534 -4.33579
-15.6609 -15.0354 -4.82417
-16.9441 -14.6298 -4.01681
-16.5054 -15.0633 -3.56123
-14.5905 -15.7471 -3.82657
-14.501 -16.267 -4.05232
-16.2946 -15.2724 -3.13144
-15.5205 -15.6558 -3.31581
-15.8421 -15.1192 -4.71283
-13.9274 -15.2353 -1.43023
-16.0744 -14.7745 -5.26353
-16.1798 -14.611 -5.14209
-15.9169 -14.9319 -4.80102
-15.6665 -15.2983 -4.25964
-16.8338 -14.8707 -3.56844
-16.6009 -15.0522 -3.04535
-17.1461 -14.4313 -3.80583
-16.0684 -15.033 -4.09515
-16.2849 -14.8888 -3.89551
-15.9112 -15.2818 -4.14071
-15.825 -15.4223 -3.99069
-14.818 -15.5177 -4.14949
-16.4176 -15.0192 -2.72038
-13.7892 -16.0567 -2.65927
-14.2918 -15.9275 -1.97434
-16.1621 -14.619 -4.66225
-14.4327 -16.2347 -4.17784
-16.259 -15.1349 -2.91541
-15.9835 -15.291 -2.80858
-15.5879 -15.2425 -4.46301
-19.739 -13.5293 -5.81222
-19.5823 -13.6038 -5.79529
-19.7746 -13.6089 -5.40804
-19.7461 -13.6199 -5.40874
-19.6705 -13.7202 -5.06991
-19.6593 -13.7393 -5.07147
-19.0575 -13.8219 -5.83293
-19.1775 -13.864 -5.42009
-18.7763 -13.932 -5.97672
-18.7454 -13.94 -5.98921
-18.7014 -13.9848 -5.80962
-18.9245 -14.0299 -5.21687
-18.9272 -14.0426 -5.20746
-17.9298 -14.0121 -4.02126
-16.588 -14.3093 -5.73045
-17.2197 -14.2314 -4.33141
-16.9337 -14.6539 -6.29539
-16.3156 -14.3674 -5.75911
-16.7514 -14.767 -6.17926
-16.7145 -14.7928 -6.09793
-16.5825 -14.8303 -6.18102
-17.7204 -14.5659 -3.66234
-16.4746 -14.8926 -6.19928
-16.2345 -14.9037 -6.56889
-17.9326 -14.6096 -3.08509
-16.3303 -14.9141 -6.32712
-16.2322 -14.5293 -4.75632
-16.1406 -15.0143 -6.33847
-15.866 -15.0298 -6.71765
-15.9974 -15.0195 -6.485
-15.8531 -15.0439 -6.71237
-16.1099 -14.6242 -4.72116
-16.1245 -15.0406 -6.16005
-16.2369 -15.0464 -5.99693
-16.0984 -14.7034 -4.8017
-16.1509 -15.0566 -5.98301
-17.1412 -14.7572 -3.17973
-15.5941 -15.147 -6.72274
-15.5736 -15.1675 -6.68663
-15.8673 -15.1624 -6.1575
-15.6708 -15.1782 -6.49673
-16.7502 -14.8792 -3.6192
-16.6257 -14.8459 -3.68727
-16.5831 -14.8459 -3.69881
-16.033 -15.1888 -5.71516
-16.997 -14.8696 -2.98205
-16.9559 -14.8745 -3.01433
-16.6932 -14.8908 -3.44948
-15.5022 -14.8469 -4.99318
-15.6888 -15.2399 -6.11262
-16.8441 -14.9214 -3.04698
-15.7268 -15.2571 -5.99851
-15.3164 -15.2976 -6.6992
-15.7445 -15.2966 -5.81155
-15.6405 -15.3178 -5.92727
-16.3735 -14.9547 -3.21493
-15.0572 -15.3724 -6.78259
-15.1422 -13.8632 -1.08666
-15.4107 -15.3852 -6.09224
-16.8208 -15.0549 -2.53751
-15.1016 -13.88 -1.06579
-15.0788 -13.8844 -1.10995
-16.3424 -15.0942 -3.39773
-16.2223 -14.9471 -2.89093
-15.3586 -15.4299 -6.06532
-16.2878 -15.0978 -3.28625
-16.7314 -15.0957 -2.54588
-14.8901 -15.4496 -6.8513
-16.1068 -15.1122 -3.5981
-15.0918 -15.4455 -6.37033
-16.3746 -15.142 -3.11127
-14.7907 -15.4694 -6.851
-14.7366 -13.9574 -1.44949
-15.4178 -15.4782 -5.6011
-15.2245 -15.496 -5.92396
-14.8856 -15.5297 -6.41206
-13.7552 -13.3701 -0.702354
-14.9648 -15.5447 -6.28333
-15.9625 -15.224 -3.40151
-14.9652 -15.5474 -6.26352
-16.0338 -15.1813 -2.88772
-16.0172 -15.1873 -2.89912
-15.4562 -15.5667 -5.16794
-15.984 -15.1904 -2.88715
-15.8091 -15.2775 -3.46666
-14.3831 -15.6147 -7.01706
-15.4255 -15.6072 -5.0463
-14.6834 -15.6217 -6.38962
-15.2319 -15.6338 -5.42389
-15.3208 -15.6237 -5.20291
-14.6334 -15.6372 -6.42171
-15.9638 -15.3001 -2.81865
-16.0513 -15.1605 -2.12302
-14.5364 -15.661 -6.51592
-14.36 -14.1345 -1.40568
-14.38 -14.1372 -1.35834
-15.8279 -15.3998 -2.93122
-14.943 -15.7145 -5.54001
-15.6759 -15.4534 -2.99609
-15.0907 -15.7569 -5.07743
-14.524 -15.7651 -6.07986
-15.6368 -15.6113 -3.29108
-14.505 -15.794 -6.04239
-15.6134 -15.3213 -2.28735
-14.5029 -15.8099 -6.03422
-15.3619 -15.5545 -3.43306
-15.1598 -15.6133 -3.97567
-15.3274 -15.5744 -3.42853
-15.3238 -15.5783 -3.41869
-13.9929 -15.835 -6.77476
-15.3997 -15.3893 -2.40622
-14.1807 -15.8677 -6.33094
-13.7475 -15.8723 -7.06004
-14.2844 -15.893 -6.01479
-13.6931 -15.8816 -7.13137
-14.2464 -15.894 -6.02724
-14.159 -14.5176 -1.60495
-14.1521 -14.5267 -1.60404
-14.1451 -15.9223 -6.20987
-14.1366 -15.9341 -6.20934
-14.5887 -15.9406 -5.30634
-13.6532 -15.9645 -6.84637
-14.7349 -16.0164 -4.67979
-14.3479 -16.0097 -5.4172
-15.0129 -15.5552 -2.43708
-14.0698 -16.0465 -5.72081
-13.7405 -16.0637 -6.36408
-13.68 -16.0496 -6.41925
-14.6733 -15.6777 -2.55837
-14.1902 -16.1744 -5.01237
-13.63 -16.1743 -6.03442
-14.5139 -16.2365 -4.14991
-14.5053 -16.235 -4.16389
-14.2989 -16.236 -4.56724
-14.157 -16.2217 -4.80777
-14.4345 -15.7531 -2.67277
-14.4432 -15.7568 -2.65839
-13.5868 -16.7476 -7.4283
-14.2822 -16.2792 -4.35951
-14.2649 -15.7849 -2.85876
-14.2531 -15.7842 -2.87452
-14.3026 -16.309 -4.19986
-13.2508 -16.3034 -6.15651
-13.2763 -16.3212 -6.03681
-13.998 -16.3983 -4.37481
-14.2631 -16.456 -3.67943
-13.9505 -16.4984 -4.035
-13.9341 -16.5238 -4.00918
-13.6235 -16.5533 -4.42479
-13.5908 -16.5682 -4.41327
-13.8955 -16.7624 -3.04078
-13.1754 -17.3468 -6.13334
-13.1704 -17.3619 -6.07096
-13.8956 -16.839 -2.7469
-13.1668 -17.3629 -6.05664
-13.1532 -17.3634 -6.05865
-13.8466 -16.8678 -2.72911
-12.7893 -16.9649 -4.19452
-13.1689 -17.0591 -3.17923
-12.8955 -17.6901 -5.36025
-12.9625 -17.1868 -2.89008
-12.4765 -18.1409 -3.48852
-12.4575 -18.1474 -3.48133
-20.0956 -13.4381 -5.59507
-20.039 -13.4519 -5.57274
-19.9146 -13.5636 -5.27604
-19.5383 -13.6197 -5.77713
-18.9903 -13.8979 -5.71508
-18.9438 -13.906 -5.72394
-18.5105 -14.0124 -6.10315
-19.5368 -13.8926 -4.60549
-19.1879 -13.9394 -5.08378
-18.8047 -14.0109 -5.53997
-18.7714 -14.0246 -5.55314
-18.3921 -14.0972 -5.95232
-18.2352 -14.1527 -6.0088
-17.8985 -14.2738 -6.15062
-17.8216 -14.3032 -6.15848
-17.7939 -14.3105 -6.17635
-18.8372 -14.2245 -4.57704
-18.7709 -14.2265 -4.59327
-18.7678 -14.2387 -4.63674
-17.2128 -14.4823 -6.40766
-16.6595 -14.3193 -5.65082
-17.8756 -14.2729 -3.8367
-17.1084 -14.2518 -4.32663
-16.8403 -14.3305 -4.7953
-16.7821 -14.739 -6.20261
-16.729 -14.7845 -6.13415
-17.7505 -14.5152 -3.60968
-17.7293 -14.5488 -3.67772
-17.0574 -14.4243 -4.06121
-16.5805 -14.8507 -6.16529
-16.4851 -14.8937 -6.22669
-16.4697 -14.8975 -6.1717
-16.9122 -14.5786 -4.28803
-16.882 -14.6064 -4.24409
-16.3138 -14.5358 -4.62456
-16.3987 -14.9438 -6.04531
-16.4186 -14.944 -6.00457
-16.1912 -14.556 -4.72205
-16.0664 -14.5807 -4.82897
-16.115 -14.6333 -4.64499
-16.1157 -15.0383 -6.17737
-15.8322 -15.0946 -6.51504
-16.0558 -14.7478 -4.54251
-17.5264 -14.8831 -2.7332
-15.5806 -15.1826 -6.66904
-15.6022 -15.1842 -6.58113
-15.8042 -15.1887 -6.16034
-15.6736 -15.198 -6.36517
-17.0472 -14.8435 -2.97429
-15.3726 -15.2282 -6.77683
-16.9747 -14.8702 -2.99667
-15.9312 -15.2164 -5.81011
-16.894 -14.8977 -3.03922
-15.6034 -15.2479 -6.28922
-16.2704 -14.9302 -3.92816
-15.2634 -15.3057 -6.70449
-15.8755 -15.2779 -5.62977
-15.5562 -15.2912 -6.15166
-17.367 -15.078 -2.37586
-15.3412 -15.3605 -6.26717
-16.911 -15.022 -2.49799
-15.4624 -15.388 -5.9624
-16.8439 -15.0487 -2.52058
-16.756 -15.0773 -2.56417
-15.5185 -15.4557 -5.61132
-15.5147 -15.4569 -5.5221
-16.3542 -15.1727 -3.03727
-16.3284 -15.0595 -2.64037
-16.1177 -15.0092 -2.83659
-15.438 -15.4747 -5.63508
-14.7329 -13.9922 -1.31642
-15.9901 -15.2187 -3.3775
-15.6478 -15.3506 -4.2463
-14.7648 -14.0264 -1.0908
-15.8687 -15.2557 -3.43749
-14.8728 -15.5733 -6.2709
-15.8232 -15.268 -3.4706
-15.4913 -15.5653 -5.08888
-15.9649 -15.2817 -3.15322
-15.3279 -15.6307 -5.14778
-16.0707 -15.1536 -2.12695
-15.0548 -15.6484 -5.58832
-15.902 -15.3672 -2.91541
-15.8771 -15.3758 -2.92622
-15.7764 -15.3902 -3.09556
-15.7917 -15.3962 -3.06174
-15.137 -15.6904 -5.22623
-15.1119 -15.6925 -5.24799
-14.7142 -15.7145 -5.98945
-15.6888 -15.4455 -3.00175
-15.8118 -15.28 -2.0926
-14.6265 -15.7752 -5.8914
-15.6304 -15.6096 -3.3171
-15.6005 -15.6298 -3.29448
-14.1467 -14.2041 -1.1359
-15.3178 -15.5724 -3.48182
-14.4647 -15.8436 -5.96251
-14.0031 -15.8268 -6.78552
-13.8844 -15.8299 -6.99591
-14.1961 -14.4441 -1.66748
-15.2746 -15.6297 -3.51572
-14.1926 -15.8723 -6.30992
-14.113 -14.2443 -1.01123
-13.7282 -15.8632 -7.13624
-14.1785 -14.4911 -1.68793
-14.17 -14.4745 -1.56516
-14.1483 -14.5398 -1.61178
-14.4745 -15.9372 -5.46864
-15.0052 -15.5545 -2.45381
-15.0209 -15.5584 -2.42163
-15.0383 -15.5654 -2.3594
-13.6863 -16.0422 -6.43067
-13.4675 -16.0574 -6.81284
-14.5081 -16.11 -4.6675
-14.6073 -15.6445 -2.79393
-13.6749 -16.1262 -6.09633
-14.5116 -15.688 -2.81193
-14.4206 -16.1763 -4.542
-14.5185 -15.9037 -3.31865
-13.7823 -16.1987 -5.66623
-13.8393 -14.9459 -1.46278
-14.1816 -16.3059 -4.45997
-14.0703 -15.8279 -3.01298
-14.0423 -15.8489 -3.00254
-14.1019 -15.8674 -2.80827
-14.1995 -16.3919 -4.04379
-14.0567 -16.3891 -4.31827
-14.0295 -15.8935 -2.82295
-14.3677 -16.4284 -3.63435
-14.0068 -15.8971 -2.8624
-13.9122 -16.4586 -4.37689
-14.1744 -15.9546 -2.18827
-13.9844 -16.1335 -2.86371
-13.9617 -16.0529 -2.19129
-13.9553 -16.6202 -3.51445
-13.4102 -16.6085 -4.57361
-14.0131 -16.6796 -3.14152
-14.016 -16.6827 -3.12418
-13.5637 -16.6587 -4.17615
-13.9752 -16.6917 -3.20951
-13.6844 -16.6612 -3.81673
-13.9762 -16.7065 -3.14147
-13.9 -16.7681 -3.02475
-13.5952 -16.7626 -3.44329
-13.3663 -16.7513 -3.97434
-13.7178 -16.8363 -3.08893
-13.8286 -16.8531 -2.81147
-13.7132 -16.841 -3.0726
-13.7223 -16.8939 -2.84548
-13.6448 -16.8834 -3.00259
-13.0636 -16.8588 -4.17657
-12.8551 -16.832 -4.62855
-13.3361 -16.9196 -3.36695
-12.8147 -16.861 -4.59124
-13.3198 -16.9806 -3.13472
-13.3419 -17.0202 -2.8978
-12.7725 -16.9711 -4.18847
-13.3135 -17.0422 -2.85239
-12.1677 -17.398 -2.86504
-19.5488 -13.634 -5.72398
-19.7684 -13.6781 -5.10041
-19.0368 -13.8178 -5.85775
-19.1608 -13.9503 -5.0993
-18.9805 -14.02 -5.15232
-18.9376 -14.036 -5.17776
-19.2382 -14.0522 -4.41685
-17.9814 -14.0557 -4.09027
-16.9636 -14.0982 -5.20843
-16.5597 -14.1839 -5.92126
-17.5045 -14.1042 -4.42417
-16.7037 -14.198 -5.32085
-16.654 -14.2017 -5.33848
-16.6735 -14.2961 -5.70625
-16.674 -14.3049 -5.66505
-16.6361 -14.3259 -5.67243
-17.2577 -14.2612 -4.19901
-16.3625 -14.2433 -5.20095
-17.0758 -14.2825 -4.38342
-16.2113 -14.5396 -4.74421
-16.2257 -14.5485 -4.71561
-16.1755 -14.5682 -4.72104
-16.1856 -14.5778 -4.69147
-16.7186 -14.7577 -4.06201
-15.8568 -15.1 -6.4511
-16.0981 -14.7646 -4.78052
-17.1354 -14.7581 -3.2021
-15.9232 -15.1199 -6.21172
-15.8937 -15.1462 -6.17681
-16.9047 -14.8331 -3.2866
-17.0505 -14.8717 -2.93757
-17.3886 -14.9628 -2.68779
-17.3646 -14.9947 -2.62145
-17.3752 -15.0109 -2.54779
-16.9533 -14.9196 -2.84173
-15.3512 -15.3275 -6.43097
-15.1644 -15.3417 -6.75557
-15.6468 -15.3205 -5.90237
-16.7565 -14.9978 -2.8255
-16.7696 -15.0298 -2.76909
-16.7758 -15.0282 -2.71622
-15.7049 -15.3804 -5.54317
-16.3674 -15.0945 -3.41804
-16.172 -14.9229 -2.82692
-16.7161 -15.117 -2.55252
-15.9507 -15.1229 -3.72442
-16.7306 -15.1262 -2.39761
-15.9185 -15.144 -3.72677
-15.783 -15.3153 -4.22043
-15.3783 -15.5087 -5.54025
-14.7929 -15.5409 -6.60603
-14.9998 -15.5575 -6.19376
-14.9929 -15.5844 -6.03989
-15.9506 -15.2226 -2.85208
-15.4923 -15.6189 -4.96011
-14.3018 -15.626 -7.08665
-16.088 -15.1461 -2.13861
-15.8011 -15.3567 -3.18865
-14.5535 -15.691 -6.40601
-14.264 -15.7152 -6.81592
-14.814 -15.7145 -5.77804
-14.395 -15.7797 -6.28571
-13.8645 -15.7772 -7.259
-15.6512 -15.6026 -3.26142
-14.788 -15.8134 -5.5731
-15.6647 -15.3156 -2.16034
-15.4229 -15.605 -3.55628
-14.4754 -15.8099 -6.06071
-15.6772 -15.3458 -2.04129
-15.5557 -15.3563 -2.25444
-14.0268 -15.8209 -6.73031
-14.5446 -15.855 -5.71918
-14.3108 -15.8682 -6.06409
-14.1794 -15.8927 -6.23483
-14.1979 -15.9017 -6.11721
-15.4345 -15.7551 -3.08078
-15.1875 -15.4914 -2.36044
-14.1943 -15.9744 -5.84172
-15.1372 -15.5077 -2.39113
-14.1457 -14.9064 -1.97706
-14.0997 -16.1722 -5.24142
-14.2766 -16.1995 -4.70443
-14.5104 -15.917 -3.26228
-14.4886 -15.857 -3.09847
-14.2576 -15.7763 -2.89786
-13.9387 -16.3251 -4.82975
-14.4427 -16.3852 -3.61396
-14.0263 -15.4281 -1.49633
-13.8427 -16.3901 -4.72475
-14.039 -15.8998 -2.79835
-13.7633 -16.4286 -4.78114
-14.2494 -15.9721 -2.00448
-14.1962 -16.5039 -3.68971
-14.0991 -16.2469 -3.0419
-14.114 -16.5551 -3.50755
-14.1009 -16.03 -2.0001
-14.0614 -16.0347 -1.65446
-13.8195 -16.6142 -3.7465
-13.7051 -16.6636 -3.78306
-13.6899 -16.6716 -3.79677
-13.9654 -16.7058 -3.18276
-13.8188 -16.7516 -3.32423
-13.7884 -16.7467 -3.35015
-13.7523 -16.1508 -1.74836
-13.8576 -16.7734 -3.0505
-13.8623 -16.8701 -2.60327
-13.5093 -16.8598 -3.39528
-13.0696 -16.7983 -4.38202
-13.6592 -16.9156 -2.86162
-13.5504 -16.921 -2.97178
-13.6779 -16.9827 -2.52817
-13.0687 -16.9215 -3.87246
-13.2867 -16.9701 -3.29115
-13.6091 -17.0214 -2.47585
-13.1236 -16.9855 -3.49132
-13.5066 -17.0427 -2.52296
-13.0394 -17.1056 -2.47981
-13.0308 -17.1191 -2.44133
-13.0024 -17.1199 -2.47683
-12.6732 -17.9294 -4.5904
-12.6745 -17.2916 -3.01205
-12.5259 -17.3598 -3.00417
-12.4844 -18.1282 -3.54243
-19.718 -13.6177 -5.38004
-18.7324 -13.9157 -6.00781
-19.3742 -13.8787 -4.99357
-18.7518 -13.9713 -5.7472
-17.5757 -13.8483 -5.41917
-18.0105 -14.1399 -6.05031
-17.9199 -13.8155 -4.63698
-17.4576 -13.859 -4.75339
-18.7993 -14.2843 -4.39571
-17.815 -14.1338 -4.55275
-16.6026 -14.3286 -5.69436
-17.1924 -14.22 -4.35925
-17.0957 -14.3551 -4.1661
-16.9323 -14.609 -4.12906
-16.3898 -14.9549 -6.02784
-16.2462 -14.6045 -4.60899
-16.1884 -14.6557 -4.61601
-16.148 -14.6778 -4.63251
-16.0942 -14.7434 -4.66653
-15.8009 -15.121 -6.48304
-17.0158 -14.7549 -3.27163
-16.113 -14.8048 -4.72086
-17.4761 -14.8773 -2.94589
-16.0101 -15.2374 -5.53122
-15.9134 -15.2674 -5.61767
-15.5078 -15.2928 -6.28379
-16.9486 -14.9514 -2.71962
-16.4526 -15.0778 -3.48456
-15.4062 -15.4123 -5.88907
-16.8442 -15.0898 -2.35008
-16.0597 -15.1211 -3.62112
-16.6331 -15.1002 -2.56686
-16.6384 -15.122 -2.54366
-15.9042 -15.1638 -3.73753
-15.4375 -15.4751 -5.62309
-14.9491 -15.5009 -6.4988
-14.9842 -15.531 -6.26999
-15.0282 -15.5384 -6.17645
-15.4323 -15.5316 -5.36194
-15.3519 -15.5385 -5.52991
-15.4121 -15.5495 -5.35988
-14.7202 -15.5705 -6.63087
-15.2952 -15.5662 -5.55638
-14.436 -15.6032 -6.9614
-15.879 -15.2898 -3.26383
-15.1551 -15.6531 -5.44023
-15.8556 -15.2271 -2.20796
-15.3399 -15.7341 -4.67904
-15.7413 -15.4616 -2.82818
-14.6134 -15.7576 -5.92428
-15.6985 -15.4787 -2.82886
-15.5761 -15.341 -2.2578
-15.299 -15.5834 -3.46986
-14.1686 -15.8384 -6.47049
-14.2423 -15.8853 -6.0726
-14.5685 -15.5045 -4.14938
-14.1804 -15.9104 -6.14584
-13.8642 -15.9603 -6.63217
-14.804 -15.9621 -4.68328
-14.111 -14.5879 -1.49606
-14.0876 -14.6965 -1.75563
-14.9719 -15.8781 -3.39016
-14.89 -15.5741 -2.57826
-14.0377 -14.7746 -1.64131
-14.6929 -16.0847 -4.42298
-14.7889 -15.9362 -3.52495
-14.7143 -15.6284 -2.67888
-13.8571 -16.1008 -5.93664
-14.5467 -15.8801 -3.38208
-13.8993 -14.7719 -1.26218
-14.4504 -15.7036 -2.82353
-14.4295 -15.7403 -2.72357
-14.115 -16.3391 -4.42612
-13.7735 -16.3244 -5.12787
-14.316 -15.9372 -1.98529
-13.9451 -16.4557 -4.35109
-14.2747 -15.9266 -1.75741
-13.8488 -16.0896 -2.18964
-13.8556 -16.7621 -3.08128
-13.1601 -16.7929 -4.30077
-13.3033 -17.0733 -2.72741
-13.0746 -17.0575 -3.31278
-13.0184 -17.1172 -2.45986
-12.5382 -17.3418 -3.04043
-12.1891 -17.3874 -2.84662
-19.6777 -13.7019 -5.1287
-18.4741 -14.07 -5.92397
-17.4523 -13.7993 -4.91229
-17.7531 -14.2945 -6.21883
-18.8244 -14.2146 -4.53264
-17.0062 -14.0855 -5.17321
-16.8163 -14.1371 -5.31899
-16.8598 -14.1563 -5.24976
-17.2435 -14.2565 -4.26974
-16.8087 -14.7056 -6.34042
-17.1072 -14.3159 -4.13818
-16.2144 -14.5408 -5.05636
-16.2131 -14.585 -4.657
-16.8629 -14.7469 -3.90145
-16.7348 -14.8757 -3.65655
-16.6733 -14.9197 -3.40143
-15.5443 -14.9159 -5.14166
-15.3191 -15.2714 -6.65965
-16.9498 -14.9343 -2.76354
-15.0993 -15.3637 -6.75001
-16.8126 -15.0412 -2.66357
-16.6488 -15.1051 -2.50861
-14.7551 -15.485 -6.8722
-15.2961 -15.4688 -5.885
-15.4272 -15.5025 -5.55545
-16.1095 -15.1621 -2.88567
-15.9462 -15.2228 -3.38868
-15.5934 -15.3319 -4.31539
-15.7748 -15.3929 -3.08581
-15.7226 -15.324 -2.04857
-15.104 -15.8142 -4.7897
-14.1769 -15.8214 -6.49952
-15.59 -15.3577 -2.17717
-15.2794 -15.6848 -3.57821
-14.0792 -14.6901 -1.56953
-13.6842 -16.0837 -6.36016
-13.8681 -16.1109 -5.86175
-14.3153 -15.2779 -2.07134
-14.4232 -16.2537 -4.19324
-14.1466 -16.3389 -4.39555
-13.9865 -16.3505 -4.62374
-14.1121 -16.3805 -4.30913
-14.1314 -16.3882 -4.25848
-13.9959 -16.3733 -4.48948
-14.2748 -15.9664 -1.96766
-14.1966 -15.9847 -1.61411
-13.3386 -16.5867 -4.8736
-13.8999 -16.7265 -3.15437
-13.5852 -16.7985 -3.43145
-13.6193 -16.8628 -3.0743
-13.5812 -17.0105 -2.51684
-13.0554 -17.134 -3.10292
-12.7551 -17.1621 -3.4503
-12.9448 -17.1414 -2.49554
-12.6963 -17.3241 -2.81442
-12.1599 -17.3972 -2.76658
-19.2751 -13.76 -5.79378
-17.0442 -14.037 -5.23105
-16.7789 -14.1795 -5.2897
-17.373 -14.1745 -4.3272
-16.7521 -14.7178 -6.38885
-16.4054 -14.4858 -4.67812
-16.3438 -14.5512 -4.60571
-17.5897 -14.7948 -3.11499
-16.5252 -14.949 -3.7366
-15.5248 -15.496 -5.37438
-15.9151 -15.2898 -3.18057
-15.9487 -15.2909 -2.86534
-15.2186 -15.6421 -5.39553
-16.0103 -15.1545 -2.21411
-14.2628 -14.2869 -1.64162
-15.7241 -15.3041 -2.13082
-14.2045 -14.3582 -1.44728
-14.1974 -14.3654 -1.40997
-14.0588 -14.7109 -1.57705
-14.1809 -16.0604 -5.51251
-14.4649 -16.1638 -4.55508
-14.1843 -16.2792 -4.55554
-14.2341 -15.4529 -1.7539
-13.9405 -16.3386 -4.74314
-13.8969 -15.9976 -2.48543
-13.7949 -16.6798 -3.57168
-13.8893 -16.7724 -3.02729
-13.8322 -16.9092 -2.52923
-13.5952 -16.9378 -2.9102
-13.6592 -16.978 -2.56399
-12.847 -17.2682 -2.79318
-12.5981 -17.3239 -3.03511
-12.3813 -17.3308 -2.67799
-19.7057 -13.716 -4.98598
-17.5192 -13.8944 -5.43892
-17.3142 -13.8977 -5.05084
-16.5476 -14.1974 -5.11097
-16.4659 -14.2287 -5.16131
-16.4135 -14.4895 -4.74313
-16.3421 -14.5871 -4.59999
-17.6007 -14.7589 -3.12396
-16.6689 -14.9508 -3.89495
-16.8383 -15.0013 -2.68548
-16.307 -15.1134 -3.26062
-14.6966 -15.5152 -6.97525
-14.4191 -15.7222 -6.40054
-15.1973 -15.7814 -3.40549
-15.217 -15.485 -2.33551
-14.5592 -16.2409 -4.09308
-14.3381 -15.9581 -3.34707
-13.9263 -16.2758 -5.03196
-13.3678 -16.5746 -4.84863
-12.1271 -17.447 -2.6498
-17.5998 -14.0703 -4.64432
-17.1098 -14.2597 -4.4628
-17.8453 -14.3408 -3.85735
-16.7255 -14.5615 -4.39586
-15.2866 -15.3327 -6.53639
-15.195 -15.4771 -2.41407
-14.4479 -15.8993 -3.41281
-14.3043 -15.7535 -2.89681
-14.0045 -15.8828 -2.92015
-14.1776 -15.7854 -1.53906
-14.2854 -16.5014 -3.36216
-16.5702 -14.2739 -5.81569
-16.0177 -14.7594 -4.21315
-14.8558 -15.5148 -6.5686
-17.1634 -14.2985 -4.02962
-14.3196 -14.12 -1.63072
-15.3944 -15.7428 -3.36753
-14.5405 -15.5056 -4.18728
-12.0853 -17.4258 -2.71526
-17.2033 -14.2663 -4.2485
-16.148 -14.443 -5.05105
-16.758 -14.7355 -4.14983
-15.5216 -15.1291 -4.75743
-16.3827 -15.126 -3.13727
-15.6735 -15.3066 -4.26371
-16.6286 -14.7353 -3.76534
-13.6564 -16.7316 -3.45687
-18.1189 -14.0315 -3.97883
-15.001 -15.4905 -3.93853
-15.0805 -13.8853 -1.107
-14.7375 -13.9571 -1.44845
-14.3596 -14.1326 -1.40408
-14.2165 -14.3562 -1.51251
-14.1747 -14.4682 -1.57595
-14.1742 -14.4733 -1.58535
-14.1526 -14.5249 -1.60327
-17.9327 -14.6082 -3.08278
-19.001 -14.2754 -3.99828
-19.741 -13.6928 -5.09984
-20.0201 -13.4742 -5.5004
-19.6698 -13.7263 -5.08496
-19.7585 -13.6037 -5.40503
-17.8768 -14.2698 -3.83797
-18.8453 -14.2269 -4.58038
-17.7203 -14.5654 -3.66079
-15.9873 -15.1896 -2.15443
-15.8118 -15.2785 -2.09348
-17.2472 -14.1926 -4.30221
-16.7133 -14.8913 -3.37748
-18.78 -14.023 -5.55391
-16.7141 -14.8819 -3.44094
-16.3749 -14.9532 -3.21508
-16.3535 -14.9752 -3.20609
-16.0971 -15.1747 -2.85977
-16.3169 -15.0078 -3.20289
-16.7536 -14.8781 -3.61648
-15.9614 -15.2122 -2.88384
-18.6326 -14.0067 -5.84906
-18.6735 -13.9591 -5.98631
-16.2864 -15.0962 -3.2869
-16.3421 -15.0835 -3.37428
-14.2872 -15.3344 -1.96075
-15.828 -15.3998 -2.92936
-14.2584 -15.9361 -1.6874
-16.3101 -14.5177 -4.70852
-16.2957 -14.5308 -4.69512
-16.2346 -14.5272 -4.75558
-14.8474 -15.577 -2.64356
-17.8998 -14.2708 -6.14598
-14.0567 -16.0345 -1.66285
-14.6761 -15.679 -2.5596
-16.0641 -14.5959 -4.82348
-15.3644 -15.5546 -3.43524
-15.3417 -15.5731 -3.41044
-15.3537 -15.5577 -3.45173
-14.4446 -15.7553 -2.65716
-15.82 -15.2517 -4.28515
-14.0671 -15.99 -2.23105
-15.5559 -15.512 -3.86831
-15.4982 -14.8455 -4.99258
-16.7491 -14.7735 -6.15128
-16.7602 -14.755 -6.1885
-14.5493 -15.9044 -3.41549
-16.4753 -14.8897 -6.19715
-16.4284 -14.8963 -6.24067
-16.2417 -15.045 -5.9975
-16.1257 -15.0401 -6.1604
-16.1378 -15.0016 -6.34816
-16.1326 -15.0113 -6.3341
-15.4563 -15.565 -5.16704
-16.1311 -15.011 -6.35675
-16.0571 -15.0414 -6.3479
-14.211 -16.5991 -3.11453
-14.582 -16.2955 -3.7837
-13.8691 -16.8897 -2.53346
-14.07 -16.7043 -2.9307
-15.7532 -15.2378 -6.01712
-13.8749 -16.8509 -2.71987
-13.879 -16.8485 -2.7401
-13.814 -16.8962 -2.64038
-15.6316 -15.2891 -6.02669
-13.9491 -16.7504 -2.98822
-15.5511 -15.3468 -5.97097
-14.2649 -16.4554 -3.67854
-14.5149 -16.2356 -4.15271
-14.506 -16.2328 -4.16375
-15.8785 -15.0395 -6.70653
-15.8738 -15.0299 -6.72067
-15.8526 -15.0425 -6.71209
-15.1097 -15.6768 -5.36408
-13.9637 -16.6159 -3.50009
-15.4417 -15.3142 -6.30778
-15.5767 -15.1769 -6.66506
-15.5759 -15.1679 -6.68241
-13.3524 -17.0861 -2.61027
-14.2852 -16.2796 -4.35927
-13.5834 -16.7603 -3.46818
-13.9114 -16.5179 -4.05837
-13.5481 -16.8449 -3.38726
-13.6064 -16.7303 -3.56053
-14.9646 -15.5436 -6.28277
-14.9355 -15.5162 -6.39902
-14.717 -15.7155 -5.99006
-15.1105 -15.3413 -6.83675
-14.7775 -15.5511 -6.59965
-13.5986 -16.5653 -4.42509
-14.2118 -15.9653 -5.85712
-14.5383 -15.6617 -6.51532
-13.3173 -16.747 -4.14567
-14.172 -15.8827 -6.29691
-12.6605 -17.2322 -3.28484
-13.9532 -15.8346 -6.80952
-13.6799 -16.0498 -6.41882
-12.4577 -18.1459 -3.48065
-13.5289 -16.85 -6.95744
-14.766 -14.026 -1.09141
-14.6657 -13.9846 -1.46528
-14.5022 -14.0774 -1.33776
-14.1996 -14.4229 -1.62435
-14.1138 -14.5834 -1.51925
-20.2391 -13.3295 -5.70605
-20.2397 -13.3113 -5.73725
-17.3775 -15.0764 -2.35045
-17.5358 -14.8823 -2.73561
-16.9369 -15.0154 -2.4895
-19.4559 -13.7829 -5.2429
-16.8769 -15.0369 -2.51294
-16.8591 -15.0471 -2.50288
-16.8922 -14.993 -2.63219
-17.6888 -14.626 -3.49647
-19.1994 -13.9428 -5.08714
-16.7679 -15.0807 -2.56217
-16.7358 -15.0927 -2.55124
-16.7224 -15.0898 -2.57693
-15.8324 -15.2594 -2.10987
-16.1848 -14.9725 -2.69244
-17.4587 -14.1181 -4.42446
-17.1649 -14.2846 -4.23877
-17.2192 -14.2288 -4.33306
-16.1117 -15.0104 -2.81267
-18.805 -14.0084 -5.54264
-16.8973 -14.6858 -3.90977
-16.3554 -15.1732 -3.03652
-18.6908 -13.9927 -5.82632
-17.2104 -13.9597 -5.1514
-15.9043 -15.3653 -2.91648
-15.1762 -15.4981 -2.35356
-15.8413 -15.4094 -2.90396
-15.8626 -15.3515 -3.05455
-15.7901 -15.4082 -2.9575
-15.0401 -15.5634 -2.36177
-15.9799 -15.2129 -3.40969
-16.3519 -14.9041 -4.00776
-15.9631 -15.2243 -3.40032
-14.4296 -15.6633 -2.0014
-15.9238 -15.2224 -3.52762
-15.7987 -15.2728 -3.48068
-16.1968 -14.6186 -4.59941
-17.9136 -14.2562 -6.14125
-15.8437 -15.1977 -3.71241
-16.1409 -14.6225 -4.71134
-16.0547 -14.6035 -4.83552
-14.2594 -15.9405 -2.08344
-14.2393 -15.9503 -2.09051
-13.8612 -16.1028 -1.73731
-14.1618 -15.9814 -2.12934
-15.3472 -15.5715 -3.49304
-14.1566 -15.9585 -2.22744
-14.5158 -15.6886 -2.80897
-15.2755 -15.6297 -3.51509
-13.9619 -16.0533 -2.1903
-15.6824 -15.3752 -4.2107
-14.112 -15.855 -2.81694
-16.7814 -14.7371 -6.20348
-14.0306 -15.8931 -2.8231
-16.7871 -14.7353 -6.23906
-14.0147 -15.9008 -2.84335
-16.6851 -14.8075 -6.13028
-14.0091 -15.8965 -2.86018
-14.0246 -15.8595 -3.00993
-15.8744 -15.2769 -5.63277
-15.2027 -15.8427 -4.48231
-16.2525 -14.9482 -6.34386
-15.9557 -15.1458 -6.01203
-15.8397 -15.2444 -5.85092
-14.4278 -16.4209 -3.4494
-15.925 -15.1373 -6.14635
-15.0877 -15.8422 -4.69496
-15.1094 -15.8153 -4.78935
-14.5763 -16.2744 -3.83744
-14.4082 -16.4139 -3.59365
-13.8498 -16.8663 -2.73025
-13.8428 -16.858 -2.78453
-14.0158 -16.678 -3.14167
-15.8249 -15.1035 -6.53738
-15.2209 -15.6417 -5.42051
-13.9519 -16.703 -3.19589
-14.0257 -16.6185 -3.40627
-13.5009 -17.0472 -2.48177
-15.6912 -15.1451 -6.54884
-14.5003 -16.1703 -4.38793
-13.9534 -16.6195 -3.51037
-14.2253 -16.3792 -4.03127
-13.7242 -16.8385 -3.0867
-13.8822 -16.6921 -3.40474
-13.6465 -16.8838 -3.00408
-13.0317 -17.1068 -2.49433
-13.3129 -17.0525 -2.83341
-13.3161 -17.0426 -2.85242
-13.5945 -16.7603 -3.4466
-14.18 -16.2927 -4.50834
-15.2884 -15.3091 -6.64348
-13.999 -16.3972 -4.3753
-13.3209 -16.9803 -3.13484
-13.8332 -16.549 -4.09264
-14.9614 -15.5476 -6.26107
-14.9797 -15.528 -6.2983
-14.9177 -15.5653 -6.26241
-14.0146 -16.3512 -4.58557
-13.912 -16.4566 -4.376
-13.3106 -16.9622 -3.30464
-14.2034 -16.1599 -5.04459
-13.2814 -16.9639 -3.29815
-14.2293 -16.1393 -5.14002
-12.9244 -17.2412 -2.76619
-13.1958 -17.0411 -3.25256
-15.062 -15.3298 -6.93265
-13.5906 -16.5686 -4.41033
-13.5807 -16.5669 -4.44751
-14.282 -15.8805 -6.03879
-14.2689 -15.877 -6.05971
-12.6683 -17.3254 -2.9108
-12.7671 -17.168 -3.40627
-13.3204 -16.6264 -4.70248
-13.2809 -16.6442 -4.69352
-13.2586 -16.6536 -4.70685
-13.7403 -16.1925 -5.74494
-12.9091 -16.8988 -4.27765
-12.7345 -16.9943 -4.16672
-12.6818 -17.0111 -4.19295
-13.4056 -16.1519 -6.51181
-13.7187 -15.8447 -7.2144
-12.3515 -18.1323 -3.42608
-16.3372 -15.0137 -1.6962
-14.114 -14.617 -1.63124
-14.1049 -14.6269 -1.62068
-17.5029 -14.8956 -2.73853
-17.9543 -14.0716 -4.02643
-17.3718 -14.9806 -2.65915
-17.3931 -14.9657 -2.68601
-17.4029 -14.9464 -2.71563
-16.8139 -15.0953 -2.36926
-19.8613 -13.4694 -5.79287
-17.1357 -14.7515 -3.19678
-17.1552 -14.5607 -3.54978
-16.7722 -15.0288 -2.76865
-18.9472 -14.0411 -5.17571
-17.2954 -14.2712 -4.16255
-16.2871 -15.082 -2.66557
-17.2267 -14.2027 -4.29923
-16.1519 -14.9869 -2.87143
-17.0583 -14.4499 -4.01179
-17.0594 -14.4223 -4.06493
-16.1656 -15.0035 -2.92902
-15.5781 -15.3431 -2.26191
-18.7958 -13.958 -5.71905
-16.8918 -14.6975 -3.88444
-15.9433 -15.2742 -2.84464
-16.3589 -15.2009 -3.15787
-16.7223 -14.7289 -4.06475
-15.9027 -15.3908 -2.81734
-15.2829 -15.4228 -2.45076
-16.8121 -14.3347 -4.81207
-16.5206 -14.808 -4.11284
-18.3076 -14.1292 -6.00541
-15.0734 -15.529 -2.41028
-14.4161 -15.7683 -1.88743
-14.4501 -15.71 -2.0301
-14.3124 -15.892 -1.73991
-15.9363 -15.125 -3.68805
-14.9419 -15.5392 -2.62159
-16.6998 -14.1886 -5.32944
-17.942 -14.2365 -6.14184
-14.3553 -15.8856 -2.13343
-15.9943 -14.8086 -4.49928
-14.2463 -15.9679 -2.0106
-16.6778 -14.2941 -5.70283
-14.4993 -15.7328 -2.62673
-15.8972 -15.2774 -4.15335
-15.4311 -15.5995 -3.5794
-15.4136 -15.6243 -3.60451
-15.9297 -14.8546 -4.97176
-15.0261 -15.9069 -3.23605
-16.3565 -14.9324 -6.22691
-15.4455 -15.702 -4.68467
-15.4046 -15.641 -4.99119
-14.4423 -16.3849 -3.61391
-15.0421 -15.8434 -4.84706
-13.7892 -16.8834 -2.66087
-14.8322 -15.9678 -4.63357
-13.684 -16.985 -2.52605
-13.9146 -16.7638 -2.98857
-13.627 -17.0129 -2.46632
-13.5195 -17.0439 -2.47688
-14.0692 -16.588 -3.48738
-14.9425 -15.7863 -5.2379
-14.3256 -16.2975 -4.18324
-15.5146 -15.2123 -6.6015
-13.4319 -16.9569 -3.0223
-13.9141 -16.5595 -3.9147
-14.1963 -16.2865 -4.49886
-14.1707 -16.3041 -4.49165
-14.7958 -15.7343 -5.72556
-13.7066 -16.6617 -3.78277
-14.0335 -16.3386 -4.564
-14.2184 -16.143 -5.1523
-13.041 -17.1445 -2.9719
-13.1267 -17.0709 -3.14052
-12.9793 -17.1847 -2.88146
-13.0782 -17.0574 -3.31198
-14.7565 -15.5755 -6.59093
-14.1929 -15.967 -5.84162
-14.054 -16.1028 -5.58182
-12.6755 -17.2919 -3.01248
-13.0524 -16.9405 -3.81593
-13.0796 -16.9191 -3.88618
-13.0302 -16.9394 -3.82185
-14.0378 -16.0106 -5.90509
-12.3452 -17.3408 -2.70307
-13.9852 -16.0411 -5.90136
-13.0693 -16.8671 -4.17881
-13.291 -16.6445 -4.66054
-12.1726 -17.4302 -2.61454
-13.2737 -16.6486 -4.66824
-12.2061 -17.3832 -2.76379
-13.846 -16.0872 -5.96755
-12.0989 -17.462 -2.64339
-13.4732 -16.4158 -5.27362
-14.3297 -15.6161 -7.07593
-12.517 -17.2316 -3.54689
-12.7307 -16.9888 -4.1933
-13.4193 -16.2934 -5.89858
-13.6682 -16.0453 -6.43925
-13.0002 -16.6328 -5.20017
-17.6279 -14.8313 -2.87458
-16.8415 -15.0918 -2.35031
-14.1582 -14.5829 -1.84435
-16.8508 -15.052 -2.49222
-14.1004 -14.6827 -1.73344
-16.7028 -15.1385 -2.40898
-18.8797 -14.2076 -4.58993
-18.9467 -13.8673 -5.85415
-16.114 -15.1325 -2.86662
-17.5666 -13.8427 -5.4539
-16.3099 -15.08 -3.29658
-16.6734 -14.7491 -4.09236
-16.1879 -14.8576 -3.83254
-16.5106 -14.8265 -4.08503
-15.6943 -15.4792 -2.82825
-15.729 -15.4324 -2.95555
-18.3661 -14.0782 -6.15077
-15.8532 -15.2803 -3.26465
-15.7757 -15.2908 -3.47342
-16.0394 -14.8433 -4.45649
-14.2464 -15.9727 -1.98511
-14.6859 -15.6342 -2.74194
-16.1103 -14.7989 -4.71624
-14.5711 -15.6948 -2.64952
-16.5947 -14.325 -5.69058
-14.4994 -15.7241 -2.65252
-16.5678 -14.1766 -5.88875
-15.2576 -15.7344 -3.4117
-16.3731 -14.4559 -5.68539
-16.3091 -14.423 -5.76624
-16.2406 -14.5048 -5.72051
-16.4056 -14.9599 -6.03194
-16.0099 -15.2383 -5.53143
-15.2495 -15.8401 -4.45242
-15.5443 -15.5184 -5.3189
-14.3533 -16.4959 -3.36531
-15.7489 -15.2485 -6.00676
-15.73 -15.2433 -6.04049
-15.4369 -15.4691 -5.61712
-15.0237 -15.8445 -4.85978
-15.1854 -15.6916 -5.17093
-13.7668 -16.8944 -2.62424
-14.7881 -15.9448 -4.81766
-14.93 -15.8139 -5.19406
-14.923 -15.8059 -5.21764
-13.8935 -16.6855 -3.38886
-14.4786 -16.1438 -4.60471
-14.7935 -15.7834 -5.58054
-14.1615 -16.3288 -4.41828
-14.1208 -16.3382 -4.42636
-14.7482 -15.7737 -5.68953
-13.6474 -16.7061 -3.69806
-14.4826 -15.9774 -5.28424
-13.6245 -16.705 -3.71214
-13.2976 -16.926 -3.39214
-13.5878 -16.6789 -3.99257
-13.6785 -16.5404 -4.38861
-14.7165 -15.5655 -6.62735
-13.7574 -16.4211 -4.78186
-12.7654 -17.264 -2.97863
-12.3241 -17.3333 -2.70195
-12.5975 -17.3222 -3.06231
-14.2054 -15.8634 -6.32796
-13.8886 -16.0915 -5.90216
-13.8494 -16.1008 -5.93757
-13.7198 -15.9746 -6.69847
-13.8505 -15.8238 -7.11262
-13.0841 -16.5332 -5.71198
-12.3814 -18.0738 -3.54889
-14.2902 -14.2314 -1.67402
-13.9018 -14.7708 -1.2636
-19.7272 -13.6215 -5.38386
-17.9329 -14.1388 -3.96785
-17.9134 -14.079 -4.12587
-17.6074 -14.6877 -3.2176
-17.5958 -14.7139 -3.23534
-15.8369 -15.2713 -2.10011
-17.0728 -14.3765 -4.037
-16.9493 -14.5712 -4.21694
-16.3903 -15.0924 -3.38975
-18.5246 -14.0411 -5.86576
-15.2613 -15.4692 -2.33828
-15.9427 -15.2669 -3.2419
-17.2185 -14.0119 -5.70464
-15.5364 -15.7021 -3.03995
-14.3069 -15.9358 -2.00821
-14.4459 -15.688 -2.41102
-16.8848 -14.1587 -5.8473
-16.5108 -14.3701 -5.74348
-13.8448 -16.0921 -2.22634
-17.0351 -14.6289 -6.29516
-13.5262 -16.1595 -2.02892
-14.5167 -15.5383 -4.09975
-15.7421 -15.2939 -5.77185
-14.8534 -15.8984 -4.89898
-13.9039 -16.7254 -3.15888
-13.661 -16.9199 -2.85574
-14.4623 -16.1639 -4.55803
-14.0117 -16.5103 -3.86499
-13.3437 -17.0878 -2.63592
-13.5156 -16.9144 -3.0688
-14.5743 -15.7812 -5.93517
-14.5408 -15.7998 -5.93009
-14.3301 -15.8853 -6.00704
-12.6997 -17.3289 -2.81506
-14.2554 -15.9099 -5.9759
-14.6264 -15.517 -6.99586
-12.5953 -17.3269 -3.03683
-13.9367 -16.0728 -5.88738
-13.2961 -16.6541 -4.61833
-12.1992 -17.3994 -2.85373
-13.5017 -16.3633 -5.4391
-11.9831 -17.7507 -2.71173
-14.2019 -14.3525 -1.44978
-17.5923 -14.7595 -3.16021
-17.8438 -14.3203 -3.83787
-14.1282 -14.6249 -1.81302
-14.1093 -14.6947 -1.89713
-17.841 -14.1038 -4.40896
-16.4054 -14.9669 -3.30772
-16.5046 -14.9617 -3.68535
-14.1105 -16.0136 -1.63161
-14.0751 -16.0396 -2.01415
-15.3505 -15.7475 -3.35538
-15.547 -15.5338 -3.77403
-15.7786 -15.2831 -5.74306
-14.9412 -15.9343 -4.53852
-13.6567 -16.9485 -2.63627
-14.8205 -15.8999 -4.85015
-14.2386 -16.338 -4.15905
-14.2951 -16.2692 -4.37358
-13.8001 -16.6638 -3.55881
-13.0667 -17.1909 -2.7611
-13.3058 -16.9837 -3.254
-14.6073 -15.7709 -5.91434
-13.2008 -17.0229 -3.24278
-13.0868 -17.0739 -3.18735
-13.4885 -16.6752 -4.14561
-14.0159 -16.1852 -5.25846
-13.7524 -16.4067 -4.83016
-12.6748 -17.3343 -2.86765
-12.6033 -17.3484 -2.91007
-13.0452 -16.848 -4.18046
-12.1261 -17.4117 -2.76264
-16.7891 -15.0965 -2.44432
-16.4819 -14.9408 -3.34932
-16.9001 -14.7618 -3.81146
-16.5107 -14.941 -3.59189
-16.4966 -14.9816 -3.60297
-16.1706 -14.5614 -4.8058
-16.8039 -14.2708 -5.76471
-14.4457 -15.7555 -2.63999
-14.4889 -15.6992 -2.78494
-14.1193 -15.8252 -2.94622
-16.7842 -14.7262 -6.26197
-14.0497 -15.8475 -2.98648
-16.0825 -15.1381 -5.73689
-15.4977 -15.6699 -4.70923
-15.7693 -15.2734 -5.8284
-14.2362 -16.5276 -3.38096
-14.5415 -16.2218 -4.09839
-13.9549 -16.7181 -3.10439
-13.9494 -16.5577 -3.83269
-14.2622 -16.2495 -4.57762
-13.2708 -17.084 -2.7652
-15.2461 -15.389 -6.47907
-13.2712 -16.9944 -3.27748
-13.084 -17.045 -3.32993
-12.3812 -17.369 -2.53373
-12.373 -18.1133 -3.58568
-17.7386 -14.1879 -4.05717
-14.2102 -15.388 -1.74026
-15.2059 -15.4723 -2.42473
-14.3138 -15.744 -2.88376
-14.4717 -15.6495 -4.21624
-13.0987 -16.8293 -4.19498
-17.0078 -14.5242 -4.28908
-17.5427 -13.8934 -5.48099
-15.8654 -15.1882 -3.8076
-16.1221 -14.8133 -4.80738
-15.3495 -15.6235 -3.51941
-14.0757 -15.8575 -2.88422
-14.5188 -15.7305 -3.81875
-14.9786 -15.3528 -6.95122
-12.3636 -17.3329 -2.71631
-17.1795 -14.3056 -4.03476
-15.8022 -15.3259 -3.83089
-13.9952 -16.694 -3.12085
-12.17 -17.4142 -2.69749
-12.3899 -18.0119 -3.14695
-17.0716 -14.5785 -3.67051
-17.1318 -14.4505 -4.11672
-16.2504 -15.2412 -3.19894
-14.3882 -15.8627 -2.19707
-15.9059 -14.9617 -4.79523
-15.8512 -14.9472 -4.92189
-15.6317 -15.0654 -4.77417
-15.4947 -15.1974 -4.57624
-13.6767 -16.7511 -3.46035
-16.2993 -14.5117 -4.94381
-16.4794 -14.7963 -3.66074
-15.6174 -15.3939 -4.92386
-14.9642 -15.4542 -3.96493
-15.1954 -13.8202 -1.14673
-12.7997 -16.535 -2.1135
-15.8168 -15.2812 -2.09344
-14.1111 -15.9846 -2.18949
-14.175 -15.9533 -2.18842
-14.0681 -15.9887 -2.22941
-15.58 -15.3587 -2.20344
-15.6155 -15.32 -2.28734
-13.8971 -16.9156 -2.33752
-15.4968 -15.3555 -2.36457
-15.4145 -15.3773 -2.40835
-15.0316 -15.5452 -2.43761
-16.7762 -15.1131 -2.37931
-15.0527 -15.5128 -2.53919
-16.8904 -15.041 -2.47599
-16.8261 -15.0514 -2.53626
-13.4221 -17.0703 -2.56688
-17.4645 -14.8434 -2.59845
-14.4345 -15.753 -2.67091
-13.812 -16.8953 -2.63887
-17.36 -14.9952 -2.63912
-13.2274 -17.1376 -2.67481
-13.8489 -16.868 -2.73008
-13.9133 -16.8101 -2.74952
-14.1056 -15.8673 -2.80905
-15.9325 -15.2376 -2.84463
-16.2133 -14.9505 -2.87932
-14.2687 -15.7774 -2.87633
-15.8897 -15.3755 -2.90792
-14.016 -15.8826 -2.91682
-13.9533 -16.7433 -3.00518
-16.3718 -15.1577 -3.11686
-16.3181 -15.0194 -3.21177
-15.725 -15.3711 -3.23652
-16.289 -15.0742 -3.25789
-15.6308 -15.623 -3.28349
-16.4969 -14.8822 -3.3364
-13.1408 -17.0543 -3.18389
-15.5838 -15.638 -3.28911
-16.342 -15.0939 -3.39373
-17.7737 -14.4272 -3.45725
-16.3994 -15.0868 -3.44922
-15.3424 -15.5736 -3.40984
-15.3241 -15.5771 -3.41756
-15.3546 -15.5634 -3.42021
-16.7273 -14.9111 -3.49158
-15.3653 -15.5547 -3.4344
-15.3482 -15.561 -3.43957
-16.6588 -14.9205 -3.51307
-13.8594 -16.7152 -3.35735
-12.6268 -17.2347 -3.32571
-13.4352 -16.8888 -3.42664
-13.9404 -16.6251 -3.46665
-15.4059 -15.6262 -3.59142
-14.0289 -16.592 -3.52285
-16.5923 -14.8503 -3.69527
-13.5942 -16.7484 -3.5025
-13.5998 -16.7422 -3.51983
-14.3437 -16.432 -3.64457
-14.2489 -16.4616 -3.68431
-14.5231 -16.3208 -3.78839
-17.2206 -14.2772 -4.2135
-17.1755 -14.2672 -4.21986
-17.3569 -14.1695 -4.26937
-17.2434 -14.1897 -4.30002
-17.1527 -14.2351 -4.3157
-13.9365 -16.5256 -4.00806
-18.776 -14.2339 -4.57223
-18.8469 -14.2268 -4.58101
-13.8788 -16.5403 -4.06461
-15.859 -15.2175 -4.28497
-15.8212 -15.2527 -4.28392
-13.3586 -16.7473 -4.04326
-14.4994 -16.2322 -4.1925
-13.5094 -16.6701 -4.1115
-13.4526 -16.6923 -4.11172
-13.6101 -16.6349 -4.14676
-13.5332 -16.6591 -4.1448
-13.1147 -16.8624 -4.16797
-13.1398 -16.8325 -4.17969
-13.1346 -16.8197 -4.20229
-14.0475 -16.3893 -4.34352
-13.9115 -16.456 -4.37421
-16.2981 -14.529 -4.69528
-13.5936 -16.5674 -4.41273
-16.2389 -14.5262 -4.75203
-13.6256 -16.5539 -4.42443
-14.4241 -16.1738 -4.53733
-13.2357 -16.7354 -4.38019
-13.7571 -16.4952 -4.45749
-14.5096 -16.1186 -4.57758
-14.7667 -15.9965 -4.61639
-20.0677 -13.4572 -5.42655
-19.771 -13.6051 -5.40307
-20.0068 -13.4986 -5.45048
-19.9796 -13.5091 -5.46299
-19.9335 -13.5014 -5.50079
-15.3539 -15.6518 -5.00769
-13.2941 -16.6408 -4.67605
-12.8564 -16.8326 -4.6312
-19.4312 -13.6734 -5.75338
-18.9759 -13.8991 -5.6879
-12.782 -16.9209 -4.68584
-15.3396 -15.6285 -5.12417
-14.1296 -16.2238 -4.91869
-15.4161 -15.1394 -5.15103
-13.9565 -16.2974 -4.92587
-13.9724 -16.2921 -4.93128
-19.0516 -13.8205 -5.82972
-15.3233 -15.624 -5.20137
-18.7039 -13.982 -5.8068
-14.4835 -16.0546 -5.07762
-15.3512 -15.6052 -5.24012
-16.2732 -14.2128 -5.37453
-15.3449 -15.5866 -5.27715
-18.5248 -14.0568 -5.88938
-12.8939 -16.7608 -4.87839
-18.7333 -13.9344 -5.98177
-12.8805 -16.7629 -4.88375
-13.1753 -16.61 -4.98778
-14.6131 -15.9466 -5.27729
-14.5895 -15.9357 -5.28787
-14.9879 -15.7275 -5.37395
-17.0504 -14.2224 -5.77025
-15.8611 -15.2827 -5.64236
-13.0885 -16.6189 -5.09213
-15.5189 -15.4487 -5.62573
-15.4437 -15.4693 -5.65346
-14.2788 -16.0286 -5.45216
-15.9172 -15.2218 -5.81104
-15.8025 -15.2717 -5.84829
-14.5979 -15.8419 -5.65841
-16.7474 -14.7707 -6.14906
-13.1309 -16.5416 -5.37298
-17.3408 -14.3114 -6.34071
-14.507 -15.8806 -5.71389
-15.7301 -15.2587 -5.99865
-16.494 -14.8762 -6.19874
-17.199 -14.4956 -6.41921
-15.4113 -15.4043 -6.02487
-15.6822 -15.2467 -6.102
-14.0716 -16.0449 -5.71915
-15.8688 -15.1614 -6.15494
-15.8041 -15.1958 -6.14396
-13.754 -16.2166 -5.65995
-16.0066 -15.0868 -6.21057
-14.9914 -15.5816 -6.02524
-16.1354 -15.0111 -6.33596
-14.7192 -15.715 -5.98915
-16.1378 -14.9984 -6.34555
-16.6766 -14.7246 -6.47939
-16.656 -14.7325 -6.49438
-16.8454 -14.6332 -6.54723
-14.5198 -15.8011 -5.99369
-14.5146 -15.7961 -6.04258
-14.2827 -15.8783 -6.03975
-13.8799 -16.0868 -5.94291
-14.2686 -15.8813 -6.04871
-14.9351 -15.5671 -6.23873
-13.2072 -16.404 -5.813
-15.8343 -15.0901 -6.53679
-14.5292 -15.7478 -6.2323
-14.9365 -15.5169 -6.39846
-13.6155 -16.1803 -6.03857
-14.1411 -15.9243 -6.18585
-15.5483 -15.2013 -6.60129
-15.8728 -15.0287 -6.71862
-15.8136 -15.0644 -6.76347
-14.1988 -15.8623 -6.32047
-15.5948 -15.1493 -6.71729
-14.1843 -15.8693 -6.3286
-15.6015 -15.139 -6.73544
-14.8567 -15.5167 -6.54717
-14.2237 -15.8398 -6.36938
-15.0734 -15.3695 -6.79422
-15.1091 -15.3392 -6.83493
-14.7885 -15.4626 -6.86551
-13.8251 -15.9487 -6.63317
-13.9957 -15.8351 -6.77428
-13.9669 -15.8346 -6.7979
-13.9433 -15.845 -6.79949
-13.4624 -16.8779 -7.02235
-14.1432 -14.204 -1.10232
-14.1481 -14.1999 -1.13384
-14.0963 -14.3143 -1.15681
-14.7441 -14.0271 -1.13693
-14.7335 -13.991 -1.31586
-14.4132 -14.0967 -1.47417
-14.2044 -14.3715 -1.51398
-12.6283 -15.3305 -1.71002
-14.1624 -14.4834 -1.57829
-14.1482 -14.5272 -1.59078
-14.2593 -15.9345 -1.68676
-16.5614 -15.0162 -1.80534
-14.2322 -15.9485 -2.08736
-14.1357 -15.9906 -2.12189
-13.386 -16.9943 -2.11662
-13.9583 -16.053 -2.20697
-16.0942 -15.1223 -2.19265
-16.0446 -15.1377 -2.22105
-15.5772 -15.3375 -2.26881
-14.1945 -15.9076 -2.33443
-15.1924 -15.4898 -2.36039
-15.1038 -15.5196 -2.39207
-15.0731 -15.5313 -2.40595
-15.0132 -15.5549 -2.43534
-15.3928 -15.3893 -2.42245
-14.0212 -16.8483 -2.42632
-15.0126 -15.5359 -2.5031
-13.0329 -17.1063 -2.49277
-12.931 -17.146 -2.50203
-13.4975 -17.0476 -2.48212
-16.9073 -15.0412 -2.46337
-16.9398 -15.0152 -2.48669
-14.6888 -15.668 -2.56765
-16.8216 -15.0352 -2.64422
-16.2844 -15.0806 -2.66698
-13.7923 -16.8858 -2.65527
-14.0509 -16.7637 -2.69758
-13.8834 -16.845 -2.75116
-13.8437 -16.859 -2.78236
-14.0267 -15.8875 -2.84467
-16.2379 -14.9332 -2.85067
-12.8525 -17.2671 -2.79723
-13.8 -16.8682 -2.80781
-14.0251 -15.8874 -2.86317
-15.923 -15.3682 -2.87777
-14.2445 -15.7821 -2.89053
-16.0133 -15.1895 -2.89548
-13.3134 -17.0418 -2.85093
-15.8351 -15.4083 -2.90032
-15.907 -15.3632 -2.91295
-15.8809 -15.3746 -2.92171
-17.0441 -14.8657 -2.93826
-17.0589 -14.8476 -2.9377
-15.8474 -15.3881 -2.93482
-16.1532 -15.114 -2.95057
-15.691 -15.4695 -2.96433
-17.6753 -14.7775 -2.99235
-15.7825 -15.3927 -2.983
-16.8908 -14.9199 -3.00009
-12.8012 -17.253 -2.91986
-13.3236 -17.0217 -2.95784
-13.279 -17.0309 -2.97556
-16.3728 -15.1747 -3.07993
-13.6095 -16.8828 -3.03097
-12.7019 -17.284 -3.02321
-13.426 -16.9532 -3.0438
-13.2618 -17.0337 -3.04652
-17.0746 -14.7935 -3.19173
-13.1926 -17.0695 -3.07041
-13.1219 -17.1059 -3.088
-13.0915 -17.0976 -3.09722
-15.4036 -15.7425 -3.20187
-16.8847 -14.8407 -3.26742
-15.6461 -15.6216 -3.26807
-13.9791 -16.6896 -3.20749
-16.5223 -15.0179 -3.34068
-12.9244 -17.1592 -3.18667
-17.7807 -14.4075 -3.45997
-15.9431 -15.2267 -3.4142
-12.6668 -17.2575 -3.26774
-15.315 -15.6063 -3.40566
-15.8409 -15.275 -3.43945
-12.6612 -17.2264 -3.27085
-13.2923 -16.9568 -3.31237
-13.1204 -17.0336 -3.31978
-14.4415 -15.9206 -3.40776
-12.8298 -17.1508 -3.33007
-17.7634 -14.5197 -3.60906
-15.9219 -15.2183 -3.52866
-16.0971 -15.1147 -3.59027
-13.5956 -16.7633 -3.44441
-14.0707 -16.5865 -3.48616
-13.9656 -16.615 -3.49895
-13.9565 -16.619 -3.51133
-13.2964 -16.9143 -3.47356
-14.0586 -16.5799 -3.53253
-13.9489 -16.6216 -3.54702
-14.4111 -16.4129 -3.59425
-15.5971 -15.5327 -3.68909
-15.9192 -15.1417 -3.7271
-14.3683 -16.4285 -3.63201
-13.6365 -16.7215 -3.66922
-19.1011 -14.2164 -4.13714
-15.1131 -15.6905 -3.82828
-13.9455 -16.5559 -3.84756
-17.1547 -14.2818 -4.23234
-17.0889 -14.5132 -4.2529
-17.22 -14.2318 -4.32809
-13.2531 -16.8158 -3.957
-17.1909 -14.2185 -4.36728
-13.5977 -16.6542 -4.01925
-17.4595 -14.1179 -4.4256
-15.6604 -15.356 -4.24599
-17.1125 -14.2389 -4.40481
-19.3736 -13.9447 -4.70174
-18.7521 -14.2297 -4.63281
-13.7992 -16.5548 -4.12467
-14.2991 -16.3361 -4.19
-13.527 -16.6594 -4.12337
-14.4117 -16.241 -4.23251
-13.9839 -16.4352 -4.22233
-14.1537 -16.3627 -4.25744
-15.9896 -14.8057 -4.49669
-16.0277 -14.7442 -4.51414
-12.6963 -17.0167 -4.12697
-15.2192 -15.8314 -4.47575
-15.2005 -15.8439 -4.47839
-16.2005 -14.621 -4.60114
-14.1632 -16.3445 -4.36162
-12.7712 -16.9748 -4.18823
-12.7782 -16.9694 -4.20128
-12.8034 -16.9545 -4.20652
-12.6835 -17.0102 -4.19374
-14.0013 -16.3971 -4.37338
-17.0346 -14.2451 -4.74903
-16.0994 -14.6573 -4.64511
-19.1941 -13.94 -5.08216
-16.1021 -14.6473 -4.65467
-14.4987 -16.1524 -4.49212
-16.8332 -14.3319 -4.79612
-16.1032 -14.6219 -4.7181
-16.8385 -14.315 -4.82714
-16.1696 -14.5631 -4.74234
-13.5791 -16.573 -4.41916
-19.4568 -13.7835 -5.24497
-16.1711 -14.5743 -4.76594
-12.7741 -16.9404 -4.32337
-14.8618 -15.9648 -4.62148
-15.3696 -15.7167 -4.69328
-13.7484 -16.4964 -4.46874
-15.3078 -15.7416 -4.72294
-13.6724 -16.5184 -4.50471
-16.6393 -14.3811 -4.90985
-14.0338 -16.3406 -4.56171
-13.6918 -16.513 -4.5152
-14.2317 -16.2689 -4.60025
-14.5133 -16.1105 -4.66666
-13.5188 -16.5758 -4.51897
-16.4204 -14.4578 -5.00111
-20.2283 -13.34 -5.65785
-15.4887 -15.6204 -4.93946
-13.2289 -16.6953 -4.64144
-16.9593 -14.0928 -5.20339
-18.7754 -14.0216 -5.55187
-13.2735 -16.6501 -4.65751
-15.1278 -15.7449 -5.05567
-19.2751 -13.7099 -5.9062
-14.9355 -15.8163 -5.17523
-18.6312 -14.005 -5.84515
-15.1405 -15.6937 -5.22752
-14.4191 -16.0593 -5.10881
-18.4892 -14.0706 -5.8811
-18.502 -14.0489 -5.90057
-13.3846 -16.5241 -4.95372
-18.4878 -14.056 -5.9177
-14.2694 -16.1181 -5.14496
-12.9298 -16.7425 -4.91726
-17.9204 -14.2641 -6.11928
-17.9409 -14.2366 -6.13617
-14.4495 -15.9602 -5.435
-14.4235 -15.9623 -5.44286
-13.4267 -16.4428 -5.23797
-15.0597 -15.6471 -5.58728
-14.4798 -15.9385 -5.46675
-17.7751 -14.3012 -6.16689
-14.7878 -15.7908 -5.56547
-15.9348 -15.2117 -5.80825
-17.5259 -14.2753 -6.24817
-16.7267 -14.7855 -6.12866
-16.6846 -14.8072 -6.1273
-16.1535 -15.058 -6.01627
-15.6663 -15.3097 -5.91588
-15.6278 -15.3268 -5.92534
-13.1124 -16.5452 -5.38071
-14.4864 -15.8907 -5.70711
-15.7594 -15.2301 -6.03145
-14.7579 -15.7353 -5.80861
-13.1156 -16.5249 -5.44204
-15.6687 -15.2613 -6.05726
-15.9246 -15.1389 -6.14573
-14.5672 -15.8042 -5.89834
-15.6826 -15.2265 -6.19768
-14.9575 -15.5964 -6.04736
-15.1282 -15.5058 -6.13711
-16.0159 -15.0287 -6.41084
-13.5685 -16.2597 -5.79926
-14.7378 -15.6866 -6.09891
-14.4948 -15.7997 -6.04445
-14.3212 -15.8666 -6.05765
-13.7472 -16.1368 -5.95398
-15.8374 -15.094 -6.51756
-13.4208 -16.2917 -5.89493
-15.1747 -15.4102 -6.44888
-15.6052 -15.1817 -6.57763
-15.8708 -15.0344 -6.67187
-13.22 -16.3679 -5.94475
-14.1555 -15.924 -6.20993
-15.1032 -15.4362 -6.46801
-14.1848 -15.8909 -6.23114
-14.1128 -15.9268 -6.21572
-15.406 -15.2555 -6.57764
-14.9721 -15.4625 -6.47912
-15.5889 -15.1607 -6.67955
-14.1935 -15.8693 -6.30754
-15.307 -15.2952 -6.65041
-14.3757 -15.7588 -6.4087
-14.0072 -15.9374 -6.30149
-14.84 -15.5236 -6.55505
-14.5841 -15.6365 -6.55335
-14.2193 -15.8096 -6.48632
-14.5865 -15.6188 -6.64617
-15.2387 -15.2672 -6.85771
-13.8111 -15.9954 -6.44165
-13.6902 -16.0423 -6.43037
-14.1172 -15.8048 -6.62445
-14.334 -15.7018 -6.80151
-13.5769 -16.0622 -6.56998
-13.5432 -16.0685 -6.60815
-14.0035 -15.8254 -6.7834
-13.5171 -15.9778 -7.04699
-14.291 -14.1566 -1.04123
-14.173 -14.1956 -1.09149
-14.1951 -14.39 -1.50307
-14.2114 -14.3647 -1.50408
-14.2248 -14.3451 -1.51121
-14.1396 -14.6256 -1.61319
-14.334 -15.9458 -1.77167
-14.1042 -16.0293 -1.99924
-14.0506 -16.0149 -2.17536
-13.9626 -16.0535 -2.18911
-16.0799 -15.1328 -2.17576
-13.6107 -16.9102 -2.25634
-15.452 -15.3944 -2.34037
-15.6808 -15.2843 -2.33437
-15.426 -15.3953 -2.3644
-15.4495 -15.3785 -2.3668
-13.0437 -17.1051 -2.47956
-13.692 -16.9909 -2.46227
-13.5116 -17.0395 -2.54312
-13.5906 -17.021 -2.56111
-16.6962 -15.1018 -2.5632
-16.828 -15.0433 -2.563
-14.4974 -15.7277 -2.64291
-12.0973 -17.4622 -2.64564
-12.4087 -17.3178 -2.68823
-13.1939 -17.1484 -2.66947
-17.3877 -14.9619 -2.68131
-13.5905 -16.9642 -2.69254
-14.0712 -16.7506 -2.70954
-15.7531 -15.4657 -2.78934
-16.7585 -15.0154 -2.80153
-15.7313 -15.4857 -2.80448
-12.8394 -17.2717 -2.78524
-12.8753 -17.2521 -2.78805
