-13.4859 -17.8636 -3.04815
-13.2207 -18.005 -3.12158
-14.371 -17.4756 -2.9806
-14.3527 -17.4666 -2.99327
-17.111 -15.3271 -2.55
-16.7707 -15.7102 -2.65117
-15.1496 -17.0664 -2.9473
-15.1622 -17.059 -2.95986
-15.2007 -17.0432 -2.96356
-15.4413 -16.8998 -2.92655
-16.1988 -15.8215 -2.79512
-16.1446 -15.8436 -2.81255
-15.3549 -16.9781 -3.02047
-16.3022 -15.7103 -2.85439
-15.1449 -17.074 -3.08862
-14.8848 -17.2222 -3.12612
-16.2325 -15.7368 -2.88066
-16.3105 -15.7053 -2.89784
-16.0602 -15.8375 -2.93821
-16.2934 -15.7282 -2.92065
-16.268 -15.732 -2.93776
-14.5624 -17.3876 -3.23437
-16.0846 -15.8672 -3.01496
-14.4124 -17.4429 -3.28542
-14.4259 -17.4486 -3.30447
-15.6449 -16.8479 -3.20099
-16.0904 -15.8315 -3.06152
-14.264 -17.5346 -3.34684
-15.5152 -16.1573 -3.13632
-14.2188 -17.5332 -3.35765
-15.6064 -16.8716 -3.22894
-15.4948 -16.4961 -3.19508
-14.9364 -17.2014 -3.44445
-13.3072 -17.9938 -3.58309
-14.8481 -17.2606 -3.46031
-14.8967 -17.223 -3.4858
-14.8436 -17.2598 -3.5437
-14.6815 -17.3274 -3.57309
-14.6112 -17.3754 -3.6021
-15.3146 -17.0273 -3.55498
-14.387 -17.4941 -3.65711
-15.6033 -16.8876 -3.57553
-16.0189 -16.6839 -3.58992
-14.1052 -17.622 -3.73571
-14.584 -17.3845 -3.71223
-13.9733 -17.6806 -3.79571
-15.7239 -16.8484 -3.73074
-13.7573 -17.8072 -3.83446
-14.6293 -17.3785 -3.7989
-20.0477 -14.719 -3.54464
-14.4817 -17.4574 -3.83671
-16.0335 -16.684 -3.77991
-15.8578 -16.7769 -3.79196
-13.7904 -17.7639 -3.91383
-13.642 -17.8418 -3.96379
-16.2024 -15.9862 -3.80488
-14.7607 -17.3121 -3.9661
-14.8797 -17.2622 -4.00268
-14.2809 -17.5718 -4.02606
-16.464 -16.5031 -3.97892
-14.2725 -17.5875 -4.04078
-16.8839 -15.6813 -3.87901
-14.2953 -17.5727 -4.04347
-15.8926 -16.7651 -4.03193
-16.3489 -15.9284 -3.92686
-19.0357 -15.2379 -4.10386
-15.7729 -16.8504 -4.20778
-16.9595 -15.5878 -4.08878
-18.3027 -15.6108 -4.1981
-13.7054 -17.8256 -4.25901
-16.6095 -15.7256 -4.15276
-18.7753 -15.3844 -4.30805
-14.6729 -17.384 -4.33844
-13.5605 -17.9132 -4.33818
-20.19 -14.703 -4.41058
-16.9183 -16.3126 -4.40115
-16.9675 -16.2887 -4.40863
-17.0107 -16.2593 -4.41256
-18.1531 -15.7083 -4.45056
-13.9394 -17.7509 -4.41205
-14.7207 -17.3714 -4.45204
-17.3156 -16.0945 -4.52245
-14.8885 -17.3189 -4.50953
-16.5145 -16.524 -4.54475
-17.3884 -15.9338 -4.54683
-17.4544 -15.9053 -4.5777
-15.5155 -16.9911 -4.56318
-17.711 -15.7791 -4.59067
-17.5464 -15.8781 -4.60268
-18.095 -15.7677 -4.6548
-15.4539 -17.032 -4.61945
-15.4803 -17.0177 -4.63005
-15.4167 -17.0433 -4.63565
-15.4385 -17.0273 -4.64141
-16.8296 -16.3764 -4.72647
-15.1839 -17.1613 -4.72957
-15.2191 -17.1487 -4.75483
-14.1584 -17.6626 -4.78329
-15.1419 -17.1994 -4.91113
-14.5857 -17.4747 -4.91375
-14.5657 -17.4862 -4.9369
-12.044 -18.1948 -0.285788
-12.1353 -18.172 -0.249796
-12.2439 -18.1026 -0.203007
-12.1284 -18.1628 -0.270489
-12.2165 -18.1242 -0.229628
-12.0456 -18.6459 -0.353976
-12.0504 -18.2372 -0.477216
-13.3501 -17.5323 0.13519
-12.4288 -18.0354 -0.344337
-12.4604 -18.0202 -0.33421
-12.392 -18.0568 -0.370058
-12.2098 -18.1508 -0.462995
-12.3187 -18.0918 -0.409218
-12.3967 -18.061 -0.383389
-13.714 -15.3351 0.231584
-13.7194 -15.3363 0.21888
-13.7454 -17.396 0.0518742
-12.7114 -18.0733 -0.503745
-12.3969 -18.2347 -0.668572
-12.8939 -17.9859 -0.452251
-12.3934 -18.238 -0.68259
-13.5389 -17.6521 -0.176781
-12.6373 -18.1193 -0.583652
-13.945 -15.4765 0.00417197
-14.0521 -14.7971 0.0383023
-13.9072 -17.4682 -0.0523881
-13.9605 -15.1105 -0.0207593
-14.0078 -14.9471 -0.00605917
-13.1564 -17.8722 -0.398858
-14.0295 -14.8988 -0.00391829
-14 -15.0045 -0.0198945
-14.6482 -14.3242 0.245902
-13.6447 -17.6375 -0.220212
-13.492 -17.7042 -0.306357
-14.1037 -14.6757 -0.0387948
-12.6195 -18.1371 -0.717511
-13.9432 -15.2229 -0.138008
-14.0405 -15.5183 -0.169333
-14.3359 -16.1229 -0.126906
-14.0981 -14.7988 -0.202448
-14.0618 -14.9766 -0.228936
-14.0254 -15.4477 -0.272423
-14.322 -16.4038 -0.193475
-12.4638 -18.2312 -0.991414
-13.842 -16.6467 -0.435425
-14.3293 -16.0646 -0.237597
-14.3876 -16.1953 -0.22689
-14.3399 -16.3917 -0.260719
-13.2537 -17.8354 -0.74098
-13.6007 -17.6888 -0.607607
-13.0478 -17.9499 -0.832683
-12.8788 -18.0288 -0.899912
-12.9778 -17.9846 -0.860438
-13.9205 -17.501 -0.497614
-12.9457 -17.9893 -0.88687
-13.3792 -17.7747 -0.809369
-13.1058 -17.9295 -1.00793
-12.6905 -18.1294 -1.17472
-13.392 -17.7778 -0.926084
-14.0474 -17.4417 -0.702624
-14.4822 -16.3758 -0.515786
-13.9717 -17.4814 -0.730983
-13.5896 -17.6786 -0.885209
-13.7194 -17.608 -0.835274
-14.0496 -17.4409 -0.716681
-12.9892 -17.9804 -1.10914
-13.8665 -17.55 -0.800608
-13.7599 -17.5997 -0.843287
-12.9541 -17.9996 -1.13393
-13.9639 -17.4982 -0.770878
-14.5648 -16.3392 -0.558302
-14.9542 -16.1351 -0.421183
-14.0209 -16.6228 -0.81081
-13.3401 -17.8085 -1.09766
-14.2241 -16.527 -0.757967
-13.3915 -17.7925 -1.12901
-14.0219 -17.4669 -0.911215
-14.8077 -16.2374 -0.632509
-14.2545 -16.522 -0.827349
-13.0988 -17.9568 -1.2712
-14.2236 -16.5276 -0.854165
-13.106 -17.9595 -1.28159
-13.0312 -17.9756 -1.31073
-13.2214 -17.8996 -1.24886
-14.1262 -17.4397 -0.943353
-16.393 -15.4306 -0.137783
-14.2477 -16.5074 -0.866359
-13.2763 -17.8867 -1.2362
-14.2637 -16.5125 -0.876452
-14.0502 -16.9457 -0.992484
-13.8481 -17.575 -1.11386
-15.5522 -15.9852 -0.534671
-14.0519 -17.4842 -1.16014
-14.0636 -17.4832 -1.17063
-14.3517 -17.3393 -1.15689
-13.9482 -17.5617 -1.31457
-14.2588 -17.3778 -1.25043
-13.1426 -17.947 -1.59427
-13.4588 -17.774 -1.51202
-15.8765 -15.9617 -0.781003
-13.3229 -17.8642 -1.58339
-13.1521 -17.9354 -1.64587
-13.1147 -17.9513 -1.65706
-14.462 -16.7799 -1.27935
-15.4976 -16.4559 -1.02432
-15.4673 -16.469 -1.04979
-15.9889 -15.7675 -0.878126
-15.8993 -15.8851 -0.935091
-15.9133 -15.8873 -0.967628
-15.9981 -15.7773 -0.946909
-14.5404 -16.7827 -1.37949
-15.9585 -15.8607 -0.978887
-14.0372 -17.5302 -1.56552
-13.8546 -17.6097 -1.61895
-13.9945 -17.5444 -1.58949
-13.7809 -17.6576 -1.65344
-13.869 -17.6099 -1.62945
-13.9316 -17.5851 -1.61156
-16.0702 -15.651 -0.981578
-16.0449 -15.7009 -0.994895
-13.4496 -17.8123 -1.77436
-12.7766 -19.1665 -2.02563
-13.5458 -17.7584 -1.80859
-13.4974 -17.7802 -1.82107
-13.6589 -17.7075 -1.7906
-15.5754 -16.4168 -1.26969
-13.1746 -17.9474 -1.93496
-16.2528 -15.706 -1.10537
-13.6764 -17.701 -1.83267
-15.334 -16.4547 -1.39663
-16.2756 -15.7421 -1.14121
-14.0498 -17.5314 -1.7918
-13.6262 -17.7483 -1.90195
-14.1234 -17.49 -1.77603
-13.9062 -17.6077 -1.84636
-13.9734 -17.5726 -1.8305
-16.3097 -15.9081 -1.20075
-13.3761 -17.8558 -1.99225
-13.9917 -17.5619 -1.83961
-13.9085 -17.6073 -1.87524
-15.2499 -16.5885 -1.51665
-16.3288 -15.8766 -1.23923
-15.2901 -16.5627 -1.56582
-13.3925 -17.8507 -2.05759
-15.6884 -16.3977 -1.48732
-13.2116 -17.9442 -2.13038
-14.0314 -17.5421 -2.01874
-14.2407 -17.4495 -2.02425
-14.4848 -17.319 -1.98079
-15.5759 -16.445 -1.70996
-15.5002 -16.4947 -1.73662
-14.2361 -17.4436 -2.04863
-14.4981 -17.316 -1.99733
-15.476 -16.5081 -1.77735
-17.5762 -15.3759 -1.30725
-13.9331 -17.6215 -2.16334
-13.5521 -17.7999 -2.28052
-14.1913 -17.4874 -2.14655
-15.8762 -16.0899 -1.75476
-13.2592 -17.9543 -2.38829
-16.0015 -16.0129 -1.757
-15.4591 -16.5362 -1.90712
-14.2209 -17.4712 -2.23195
-14.2148 -17.479 -2.25016
-14.2615 -17.4504 -2.31189
-16.7883 -15.5091 -1.76303
-16.7634 -15.5559 -1.77728
-14.2723 -17.4397 -2.32764
-14.6832 -17.2425 -2.24788
-14.6992 -17.2464 -2.26286
-14.65 -17.2764 -2.27502
-14.4639 -17.3766 -2.33076
-14.554 -17.305 -2.3332
-14.3289 -17.4442 -2.38055
-14.294 -17.4679 -2.39615
-14.2795 -17.4854 -2.4118
-14.2825 -17.4645 -2.44009
-13.9811 -17.6261 -2.50087
-13.444 -17.8831 -2.64778
-15.2508 -16.9768 -2.33726
-17.7284 -15.2848 -1.85625
-15.1764 -16.9954 -2.37719
-15.2899 -16.9621 -2.36932
-13.346 -17.9173 -2.70949
-15.6359 -16.4296 -2.27611
-14.9904 -17.105 -2.4881
-13.3385 -17.9149 -2.77135
-14.6249 -17.3035 -2.56855
-14.8541 -17.1862 -2.52632
-14.8963 -17.1434 -2.51653
-14.6248 -17.3102 -2.59122
-14.5859 -17.327 -2.60184
-13.1334 -18.0441 -2.89653
-15.4407 -16.344 -2.4709
-16.9394 -15.6261 -2.27767
-15.5996 -16.8233 -2.55346
-15.6374 -16.7865 -2.55422
-13.9208 -17.67 -2.82193
-13.6363 -17.8097 -2.94645
-13.5925 -17.8254 -2.95835
-16.0241 -15.9557 -2.62936
-13.1245 -18.0727 -3.12003
-14.4625 -17.4149 -2.96171
-16.7109 -15.7218 -2.63692
-16.0637 -15.9082 -2.70561
-15.4848 -16.894 -2.87952
-17.2064 -15.2661 -2.58867
-15.5097 -16.8919 -2.89709
-16.1079 -15.9847 -2.75546
-17.2231 -15.2478 -2.61234
-16.0615 -15.8799 -2.76247
-17.085 -15.3345 -2.64361
-14.229 -17.5239 -3.08783
-13.7794 -17.7633 -3.14908
-17.6183 -15.219 -2.6228
-13.6554 -17.809 -3.22001
-16.2582 -15.7468 -2.85492
-14.9614 -17.1704 -3.10688
-16.1849 -15.7713 -2.88503
-16.1181 -15.81 -2.89895
-16.0779 -15.8468 -2.90836
-16.0517 -15.8367 -2.92391
-15.5661 -16.7061 -3.0772
-16.2006 -15.7557 -2.95378
-16.3299 -15.7113 -2.93804
-15.435 -16.4553 -3.07876
-16.0834 -15.8412 -2.99666
-16.0964 -15.8137 -3.00176
-13.1506 -19.0144 -3.53505
-16.1533 -15.8285 -3.07305
-16.1717 -15.8705 -3.08978
-15.6257 -16.8487 -3.23638
-15.5642 -16.9043 -3.24915
-15.5912 -16.8712 -3.25394
-15.6547 -16.8296 -3.24787
-15.5185 -16.9136 -3.26825
-17.8695 -14.9801 -2.96178
-15.5492 -16.8892 -3.28041
-14.0016 -17.6595 -3.43284
-15.5145 -16.902 -3.30252
-15.9424 -16.1153 -3.22791
-17.4405 -15.0212 -3.09044
-15.8708 -16.7335 -3.36884
-13.5002 -17.8999 -3.57707
-14.8642 -17.2731 -3.47941
-13.8595 -17.7292 -3.55706
-14.7683 -17.2999 -3.53649
-15.3438 -17.0164 -3.50921
-14.6887 -17.3206 -3.59292
-15.221 -17.0721 -3.60178
-14.1219 -17.6214 -3.71415
-13.8576 -17.7428 -3.80132
-13.7612 -17.7957 -3.84419
-16.6794 -15.5498 -3.60037
-14.5732 -17.4225 -3.83533
-16.5201 -15.5534 -3.61095
-14.387 -17.4922 -3.85511
-14.6896 -17.3481 -3.86089
-14.4015 -17.4919 -3.88922
-19.7587 -14.8772 -3.67485
-13.6849 -17.8244 -3.94008
-14.4028 -17.478 -3.92686
-14.3922 -17.4977 -3.95719
-16.5153 -15.8543 -3.83919
-16.677 -15.8114 -3.85933
-16.3099 -15.992 -3.90416
-16.5845 -15.8212 -3.89131
-14.5881 -17.3977 -4.03662
-14.4112 -17.4884 -4.052
-16.7072 -15.7603 -3.90982
-16.2741 -16.5801 -4.01815
-19.4152 -15.0609 -4.05551
-20.3282 -14.6416 -4.05117
-15.0016 -17.2306 -4.14941
-13.8553 -17.7728 -4.1922
-18.9153 -15.329 -4.18295
-18.9756 -15.1836 -4.18911
-15.5314 -16.9577 -4.2607
-20.2444 -14.6686 -4.25426
-14.7754 -17.3312 -4.32281
-17.8063 -15.8503 -4.32927
-13.5845 -17.9081 -4.32583
-16.262 -16.6542 -4.35626
-17.049 -16.2407 -4.39739
-19.5142 -15.0331 -4.42182
-15.0977 -17.1833 -4.39688
-19.4346 -15.0797 -4.43784
-17.5765 -15.8781 -4.42538
-19.364 -15.1175 -4.4621
-17.5914 -15.857 -4.44552
-17.6523 -15.8363 -4.47893
-16.7939 -16.3693 -4.50368
-16.3468 -16.5866 -4.50752
-17.4104 -15.9404 -4.50306
-15.7438 -16.8891 -4.53954
-13.876 -17.7814 -4.53485
-15.5477 -16.9796 -4.57648
-17.0204 -16.2793 -4.63168
-17.3193 -16.0616 -4.64172
-15.4064 -17.0497 -4.60549
-14.5006 -17.4744 -4.58181
-16.7832 -16.3983 -4.70151
-16.686 -16.4297 -4.7036
-15.367 -17.0806 -4.67439
-14.8648 -17.3215 -4.66242
-14.8569 -17.3159 -4.68904
-14.2175 -17.6212 -4.78119
-14.5933 -17.459 -4.85492
-15.0159 -17.2551 -4.93262
-14.8612 -17.345 -4.9843
-14.4231 -17.5538 -4.9729
-14.5173 -17.5011 -4.99061
-12.1714 -18.1641 -0.478914
-12.0917 -18.2308 -0.541997
-12.4501 -18.0305 -0.377709
-13.0134 -17.7609 -0.191943
-14.1911 -16.4024 0.198649
-14.2515 -16.3024 0.229653
-14.2835 -16.3006 0.219833
-14.0588 -14.7027 0.108597
-12.877 -17.9893 -0.437248
-13.2693 -17.7887 -0.273962
-14.0644 -14.7334 0.0953307
-13.9028 -15.2243 0.0157181
-12.9417 -17.9708 -0.4519
-13.3688 -17.7358 -0.269149
-12.5769 -18.1682 -0.622873
-12.6876 -18.1091 -0.577975
-13.5381 -17.6803 -0.285301
-14.2525 -16.4158 0.0125825
-12.6482 -18.116 -0.694521
-14.1004 -14.7985 -0.0936689
-13.9847 -15.1675 -0.167178
-14.1351 -14.6771 -0.171935
-14.2598 -16.4509 -0.181761
-14.0945 -16.5254 -0.353559
-13.8908 -17.522 -0.498814
-13.0087 -17.9557 -0.858793
-13.6817 -17.6325 -0.599562
-13.4236 -17.7509 -0.794102
-13.5344 -17.7033 -0.84916
-12.652 -18.147 -1.17894
-12.7719 -18.1088 -1.16196
-13.8679 -16.7181 -0.732939
-14.0032 -17.4825 -0.734451
-13.8948 -17.5281 -0.807034
-14.3943 -16.4164 -0.617922
-13.3271 -17.8075 -1.07403
-13.8887 -17.5266 -0.882383
-13.3561 -17.8076 -1.13665
-13.2209 -17.8955 -1.23285
-14.0005 -17.5067 -0.969617
-13.2903 -17.8726 -1.2137
-14.0489 -17.4868 -0.962203
-13.1593 -17.9332 -1.26824
-13.9489 -17.5283 -0.998429
-13.9687 -17.5084 -1.00598
-14.1981 -17.4033 -0.930277
-14.9129 -16.1722 -0.655103
-14.1174 -17.4293 -0.962987
-14.3122 -16.4767 -0.882049
-14.0384 -16.6266 -0.993248
-14.0314 -16.6279 -1.01519
-13.5534 -17.7159 -1.21922
-15.2356 -16.1719 -0.679084
-14.0344 -16.8411 -1.07346
-14.0654 -16.8467 -1.0858
-13.9434 -17.5414 -1.18074
-13.4723 -17.7881 -1.4646
-16.6817 -15.6395 -0.481219
-13.1642 -17.9281 -1.61383
-13.5633 -17.7197 -1.50294
-13.9426 -17.5407 -1.40299
-14.5186 -16.7858 -1.23986
-14.3873 -16.8117 -1.28089
-12.874 -18.0753 -1.75555
-16.3275 -15.7186 -0.72331
-13.962 -17.5378 -1.46326
-13.8307 -17.6037 -1.51991
-13.8849 -17.5751 -1.50868
-15.8014 -16.0954 -0.937982
-15.8734 -15.9554 -0.945418
-14.5189 -17.268 -1.37634
-14.4749 -16.8032 -1.36399
-14.2127 -17.4462 -1.50431
-16.0593 -15.5974 -0.932831
-13.8081 -17.6336 -1.62593
-14.9849 -16.6888 -1.30652
-16.1322 -15.6795 -1.02944
-13.6113 -17.7297 -1.79968
-13.4665 -17.8006 -1.87647
-16.2163 -15.8054 -1.13669
-15.1053 -16.6795 -1.45273
-12.9833 -18.0508 -2.0953
-13.5044 -17.7894 -2.03677
-15.3256 -16.5545 -1.58503
-16.2628 -15.7916 -1.37219
-16.9529 -15.5493 -1.39265
-14.2226 -17.4603 -2.06808
-16.0729 -15.9994 -1.71935
-15.9186 -16.0558 -1.78413
-17.7423 -15.4042 -1.4248
-14.5694 -16.5691 -2.11267
-14.2178 -17.482 -2.30886
-16.2489 -15.7803 -1.96757
-14.4975 -17.347 -2.37102
-13.8951 -17.6522 -2.52996
-13.452 -17.8681 -2.62375
-13.4282 -17.8875 -2.63498
-16.016 -15.9241 -2.12458
-13.5114 -17.8509 -2.6602
-15.2741 -16.977 -2.35393
-15.8465 -16.3528 -2.22257
-13.3672 -17.9013 -2.71491
-15.8675 -16.3405 -2.29029
-14.5772 -17.3297 -2.5839
-14.3173 -17.4735 -2.72044
-14.2718 -17.4921 -2.75969
-13.9265 -17.6653 -2.8816
-14.8592 -17.193 -2.77256
-13.3887 -17.9105 -3.02144
-14.6292 -17.35 -2.9223
-14.3889 -17.4595 -2.98683
-16.8086 -15.6689 -2.63396
-16.0776 -15.9307 -2.82328
-16.1084 -15.8817 -2.81986
-13.6069 -17.8308 -3.21357
-16.1431 -15.9857 -2.85841
-13.6968 -17.7884 -3.21685
-13.5771 -17.8281 -3.24425
-16.1341 -15.9921 -2.89522
-16.1594 -15.7861 -2.87746
-16.0933 -15.9145 -2.91707
-17.48 -15.2023 -2.77771
-19.0111 -15.1707 -2.72591
-14.1994 -17.5369 -3.25106
-16.1133 -15.8484 -2.96974
-13.2147 -18.0717 -3.45913
-15.2837 -17.0101 -3.28769
-16.1787 -15.9666 -3.13787
-15.3286 -17.0203 -3.32271
-13.9485 -17.6552 -3.46185
-17.5275 -14.9897 -3.06403
-14.8495 -17.2813 -3.50027
-13.7338 -17.7846 -3.71233
-16.0886 -16.6545 -3.57404
-14.9652 -17.2074 -3.6947
-14.9156 -17.2454 -3.71115
-13.9675 -17.6964 -3.7655
-13.9885 -17.6766 -3.77808
-16.1313 -16.5841 -3.65819
-14.8221 -17.2626 -3.76003
-14.7584 -17.3201 -3.77778
-16.0315 -15.8888 -3.64002
-16.9132 -15.3988 -3.59144
-16.1516 -16.6531 -3.79
-16.3821 -15.5785 -3.64337
-16.0212 -16.7011 -3.80136
-19.472 -15.0032 -3.74256
-14.4362 -17.4764 -3.94953
-15.6311 -16.8939 -3.91123
-14.3762 -17.5079 -3.98069
-16.3701 -15.9269 -3.8706
-19.161 -15.1775 -3.88002
-16.3077 -15.9458 -3.89862
-16.3857 -15.8966 -3.93098
-18.7427 -15.4156 -4.04668
-19.4934 -15.016 -4.07027
-16.7122 -16.3946 -4.21377
-18.2696 -15.6194 -4.22999
-17.9517 -15.8264 -4.32693
-18.4549 -15.5786 -4.39166
-17.7141 -15.8333 -4.42629
-15.0706 -17.2055 -4.4194
-17.444 -15.9099 -4.46403
-15.8839 -16.8326 -4.47928
-17.642 -15.8112 -4.51757
-18.2384 -15.6952 -4.57007
-13.9391 -17.7564 -4.50929
-15.6999 -16.9057 -4.5536
-14.8498 -17.3183 -4.53659
-16.9614 -16.3159 -4.62373
-16.8706 -16.3489 -4.68323
-15.3527 -17.1091 -4.66813
-15.3161 -17.1024 -4.69274
-15.343 -17.0821 -4.71376
-15.1983 -17.1548 -4.88326
-12.0575 -18.1939 -0.267577
-12.1627 -18.1556 -0.269447
-12.2989 -18.0829 -0.216829
-12.0482 -18.6117 -0.347516
-12.3393 -19.501 -0.322421
-12.176 -18.1702 -0.501931
-12.3429 -18.2106 -0.564007
-14.1725 -16.4037 0.22451
-13.9507 -14.9582 0.127288
-14.2575 -16.3621 0.222476
-13.9392 -15.146 0.024296
-12.8118 -18.0438 -0.492754
-13.1287 -17.86 -0.359966
-13.2062 -17.8173 -0.333129
-13.5748 -17.6566 -0.306998
-13.5464 -17.6677 -0.34728
-14.0004 -15.1319 -0.141509
-14.3622 -16.1339 -0.227399
-12.7199 -18.0975 -0.933887
-13.9082 -17.4953 -0.545818
-13.9325 -17.4879 -0.565614
-13.5757 -17.7088 -0.866648
-12.6146 -18.1599 -1.21817
-13.168 -17.9013 -1.01654
-12.6166 -18.1641 -1.2391
-13.5333 -17.7036 -0.90707
-13.8992 -17.5324 -0.916804
-14.012 -17.4873 -0.940507
-14.1769 -17.3997 -0.913426
-14.7671 -16.2585 -0.678353
-13.3818 -17.8352 -1.19202
-13.8501 -17.5526 -1.04719
-15.3958 -15.9553 -0.481266
-15.6625 -15.8076 -0.426577
-14.0221 -16.8803 -1.00872
-14.1717 -17.1944 -0.991068
-14.2717 -17.3559 -1.0868
-13.8705 -17.5723 -1.22912
-15.3821 -16.2943 -0.760045
-14.114 -17.4395 -1.23058
-13.8792 -17.5673 -1.30545
-13.7112 -17.6695 -1.38819
-13.7014 -17.6826 -1.41378
-13.3614 -17.8604 -1.5239
-13.3494 -17.8419 -1.5597
-13.18 -17.9085 -1.62513
-14.3356 -16.829 -1.28353
-15.9898 -15.7427 -0.929691
-14.1562 -17.4431 -1.49831
-15.9993 -15.7091 -0.945065
-16.0644 -15.7137 -1.01661
-16.0654 -15.8229 -1.04862
-15.2014 -16.624 -1.3969
-15.2115 -16.6331 -1.42421
-15.2311 -16.5709 -1.41589
-15.3731 -16.5124 -1.556
-13.6804 -17.7495 -2.21378
-13.7591 -17.7095 -2.19518
-17.5753 -15.3742 -1.41023
-13.382 -17.8895 -2.3679
-14.5548 -16.6057 -2.13731
-14.6143 -16.6936 -2.19927
-14.5899 -17.2977 -2.26222
-14.52 -17.3601 -2.29328
-14.5973 -17.3033 -2.28915
-14.542 -17.3377 -2.31858
-17.7108 -15.2282 -1.6918
-15.7887 -16.0213 -2.1147
-15.7582 -16.0901 -2.13379
-15.8696 -16.3092 -2.1562
-13.8021 -17.7027 -2.59053
-15.8899 -16.358 -2.26085
-14.8986 -17.1704 -2.47341
-15.0148 -17.0755 -2.45677
-14.9432 -17.1262 -2.4784
-14.382 -17.432 -2.69148
-16.4244 -15.8544 -2.31485
-13.9956 -17.6101 -2.77509
-14.2566 -17.4936 -2.78665
-15.0733 -17.1021 -2.73995
-17.1296 -15.442 -2.476
-17.1133 -15.3065 -2.53464
-14.3097 -17.4802 -3.00573
-16.0938 -15.931 -2.78567
-16.0836 -15.8628 -2.78441
-17.5981 -15.2037 -2.66163
-13.7061 -17.7859 -3.19854
-16.1304 -15.9906 -3.00193
-16.1196 -15.9152 -2.99899
-15.4716 -16.3677 -3.27737
-17.6111 -14.9667 -3.09847
-13.5562 -18.6042 -3.84994
-14.0917 -17.6253 -3.74254
-14.0248 -17.6545 -3.76065
-16.8809 -15.4583 -3.54776
-16.9276 -15.394 -3.55526
-15.6362 -16.8824 -3.76994
-15.9487 -16.2187 -3.70345
-14.9423 -17.2663 -3.99757
-14.7654 -17.3299 -4.04945
-15.2014 -17.1296 -4.08307
-16.4175 -15.8796 -3.95573
-14.7153 -17.3517 -4.12784
-14.3248 -17.5443 -4.14854
-15.9698 -16.7539 -4.30821
-15.4936 -16.9951 -4.33273
-19.6829 -14.9724 -4.39135
-16.1427 -16.6593 -4.37764
-17.4681 -15.8801 -4.44534
-15.7765 -16.8675 -4.48818
-16.4466 -16.5284 -4.50777
-17.5974 -15.885 -4.53102
-17.5895 -15.8913 -4.56373
-17.6958 -15.8144 -4.56728
-17.4539 -15.9567 -4.62784
-16.9236 -16.2974 -4.65137
-15.2644 -17.1358 -4.71978
-15.3055 -17.1138 -4.74037
-15.1002 -17.2123 -4.74261
-12.1443 -18.1769 -0.301849
-12.4077 -18.0413 -0.234427
-13.4476 -16.8035 0.183668
-12.2204 -18.1343 -0.426133
-12.3582 -18.0625 -0.371855
-12.0812 -18.2417 -0.504489
-12.9705 -17.7814 -0.191419
-13.8907 -17.4477 -0.030259
-13.8805 -17.4709 -0.0736101
-13.9079 -17.499 -0.174998
-13.651 -17.5984 -0.428658
-14.0086 -15.1307 -0.247034
-14.0938 -14.8415 -0.206365
-13.2256 -17.8217 -0.680324
-14.4052 -16.1766 -0.354973
-14.3817 -16.2805 -0.376397
-14.3443 -16.142 -0.456053
-14.3706 -16.2576 -0.458376
-14.2946 -16.3216 -0.489923
-14.3851 -16.2428 -0.495764
-12.5707 -18.194 -1.20365
-13.2014 -17.8656 -0.971013
-13.4476 -17.7472 -0.87835
-13.2516 -17.869 -0.987994
-14.5376 -16.3786 -0.817054
-16.0606 -15.5774 -0.321516
-13.5768 -17.7222 -1.40284
-13.5155 -17.7595 -1.43564
-14.0043 -17.5027 -1.29694
-13.2355 -17.8983 -1.59719
-15.9444 -15.888 -0.85864
-15.9394 -15.827 -0.905837
-16.0472 -15.6902 -0.978035
-16.1128 -15.6006 -0.954652
-15.1531 -16.65 -1.46735
-13.7234 -17.7029 -1.88552
-13.3172 -17.8902 -2.04642
-16.3189 -15.8074 -1.40126
-16.379 -15.8236 -1.42908
-14.2975 -17.416 -1.98898
-16.4282 -15.9116 -1.58174
-13.8336 -17.6958 -2.20153
-16.4564 -15.8384 -1.58342
-16.3788 -15.8414 -1.6456
-17.5028 -15.397 -1.45999
-15.5562 -16.4851 -1.97292
-14.2507 -17.4757 -2.377
-16.4324 -15.8604 -1.91
-14.4011 -17.4264 -2.36995
-14.4863 -17.3687 -2.34832
-15.8885 -16.3348 -2.18976
-17.7863 -15.2249 -2.09194
-15.3655 -16.9316 -2.58867
-15.5063 -16.8949 -2.59663
-15.4077 -16.9254 -2.62585
-13.8835 -17.6771 -2.92166
-14.9594 -17.1412 -2.76477
-17.1087 -15.4334 -2.40699
-16.0398 -16.0473 -2.57298
-13.4618 -17.8469 -2.9944
-17.1054 -15.4283 -2.44105
-17.13 -15.4533 -2.51323
-14.5832 -17.3677 -2.94518
-16.1133 -15.8213 -2.73114
-16.1485 -15.8703 -2.85271
-14.9992 -17.15 -3.07974
-15.6261 -16.3017 -3.035
-16.1113 -16.0187 -3.0747
-14.2872 -17.5087 -3.34801
-16.1947 -15.9445 -3.18071
-16.0048 -16.2408 -3.25603
-16.3903 -15.7056 -3.18117
-15.9491 -16.1206 -3.25988
-16.2732 -15.7648 -3.21967
-14.8152 -17.2993 -3.5404
-14.7468 -17.3018 -3.55092
-14.8644 -17.2258 -3.54601
-16.152 -15.7463 -3.6228
-16.0676 -15.6767 -3.63274
-16.113 -15.7379 -3.66925
-14.6103 -17.4089 -3.88419
-16.1099 -15.6735 -3.68011
-14.2917 -17.5284 -4.00232
-17.2888 -15.4291 -3.93075
-13.6325 -17.8812 -4.3094
-14.0499 -17.698 -4.47376
-15.2023 -17.1676 -4.76332
-14.7226 -17.3942 -4.85762
-12.0969 -18.1975 -0.268201
-12.2322 -18.1168 -0.260059
-12.1842 -18.1435 -0.4059
-12.2903 -18.106 -0.383438
-13.2819 -17.8172 -0.689819
-13.9475 -17.4718 -0.440762
-13.6161 -17.6792 -0.814803
-13.3504 -17.8179 -0.947282
-13.262 -17.8718 -1.24901
-15.2666 -16.297 -0.683104
-13.719 -17.6477 -1.33264
-13.6531 -17.6784 -1.38874
-15.7689 -16.0896 -0.834528
-14.1721 -17.4566 -1.53234
-13.0881 -17.9737 -1.90904
-15.4934 -16.4688 -1.28787
-14.5753 -16.7531 -1.73939
-14.3022 -17.409 -2.01861
-14.5382 -16.6756 -1.96038
-16.0231 -15.9939 -1.82428
-16.7258 -15.6782 -1.79579
-15.8746 -16.2905 -2.11813
-13.7214 -17.7255 -2.55803
-16.8871 -15.6487 -2.09663
-16.7202 -15.6956 -2.26555
-17.9624 -15.2085 -2.11682
-15.5777 -16.2783 -2.88904
-16.2974 -15.7313 -2.9693
-16.0845 -16.0646 -3.31898
-16.1388 -16.5576 -3.74677
-15.8667 -16.7273 -3.79483
-16.0508 -15.8653 -3.69196
-17.2556 -16.1265 -4.51668
-15.609 -16.9347 -4.7695
-14.8253 -17.3741 -4.8887
-14.8055 -17.3541 -4.95221
-12.3368 -18.0807 -0.282441
-13.5195 -16.7044 -0.0142028
-12.9288 -17.9771 -0.440942
-13.4159 -17.7405 -0.310666
-13.2086 -17.8398 -0.409031
-13.8969 -17.4858 -0.291983
-13.8393 -17.529 -0.520198
-14.1341 -16.5211 -0.376332
-13.7987 -17.6008 -0.571202
-14.027 -17.307 -0.542589
-14.5599 -16.3585 -0.848616
-13.3535 -17.851 -1.47565
-15.7383 -16.169 -0.9031
-13.1695 -17.9341 -1.89947
-15.9823 -16.0609 -1.10986
-13.6203 -17.7312 -1.8934
-15.0528 -16.6903 -1.54638
-14.6411 -16.754 -1.87397
-14.4178 -17.3368 -1.98593
-14.4245 -17.3424 -2.04518
-16.524 -15.7763 -1.89237
-16.904 -15.5407 -1.84208
-14.6146 -17.261 -2.34376
-13.4464 -17.8636 -2.67823
-15.0461 -17.0874 -2.39647
-15.1288 -17.0567 -2.43139
-18.0394 -14.9825 -2.08092
-17.1267 -15.4428 -2.55601
-17.0145 -15.4332 -2.7095
-17.5283 -15.9445 -4.40196
-12.4587 -18.7444 -0.617081
-13.2725 -17.7948 -0.333514
-14.4694 -16.3852 -0.638888
-14.5974 -16.3673 -0.693228
-14.6885 -16.3071 -0.724797
-13.8588 -17.5786 -1.05578
-13.52 -17.7443 -1.17792
-13.685 -17.6531 -1.14338
-14.82 -16.2694 -0.754078
-14.3036 -16.5103 -0.921579
-15.305 -16.2948 -0.731025
-14.0937 -17.4914 -1.25242
-14.0636 -17.5032 -1.31922
-17.3378 -15.497 -0.631815
-13.5957 -17.7379 -1.95155
-14.5124 -16.8456 -1.87245
-17.4629 -15.4277 -1.57812
-16.7833 -15.6103 -1.70624
-14.8452 -16.6102 -2.18181
-16.3737 -15.8607 -2.29466
-16.5199 -15.7235 -2.35512
-16.9967 -15.4436 -2.30803
-15.9944 -16.0672 -3.76093
-13.533 -17.7253 -1.37056
-14.5496 -17.1428 -1.76838
-16.3461 -15.7668 -1.3712
-15.8939 -16.2 -2.05555
-16.2378 -15.963 -3.30519
-12.5039 -18.0019 -0.246714
-16.699 -15.565 -0.946604
-14.5584 -17.0743 -1.84388
-15.8361 -16.3927 -2.00569
-15.8089 -16.2785 -2.17178
-16.211 -15.8069 -2.87728
-17.5987 -15.11 -3.01741
-16.9497 -15.3728 -3.65806
-15.8969 -16.4714 -3.84552
-14.2865 -16.371 -0.231071
-14.3464 -16.3136 -0.533821
-16.1962 -15.8494 -0.739959
-16.4514 -15.6233 -0.79409
-15.6614 -16.6415 -2.89583
-16.0246 -16.6708 -3.7622
-16.2987 -15.5978 -3.62314
-12.4585 -18.1563 -0.471551
-14.0015 -16.2904 0.133173
-12.5233 -18.9597 -0.609601
-13.8397 -17.0827 -0.615494
-14.1962 -16.6705 -0.632096
-13.6587 -17.664 -0.995982
-16.1645 -15.8127 -1.01611
-16.2327 -16.1455 -3.59948
-15.764 -16.6744 -1.88262
-15.0089 -17.2698 -4.7958
-14.9449 -17.2831 -4.68587
-15.4144 -17.0532 -4.60789
-16.3299 -16.5841 -4.50582
-17.6272 -15.8231 -4.43796
-17.5695 -15.8748 -4.42583
-15.244 -17.1331 -4.40722
-16.2486 -16.6456 -4.35486
-20.2367 -14.667 -4.25308
-14.7799 -17.3375 -4.32415
-13.5584 -17.9226 -4.32069
-14.5171 -17.4408 -4.17933
-16.4532 -16.5012 -3.97893
-14.5601 -17.4194 -4.05508
-14.4963 -17.4229 -3.97476
-16.0042 -16.6976 -3.87933
-14.3783 -17.4926 -3.95629
-15.2539 -17.078 -3.89131
-15.8653 -16.7702 -3.82781
-20.0615 -14.7096 -3.53779
-14.7041 -17.3421 -3.84104
-14.4449 -17.4799 -3.84947
-15.7204 -16.8532 -3.73143
-14.6391 -17.3711 -3.79756
-14.7015 -17.3461 -3.78703
-15.3479 -17.0144 -3.65842
-14.7599 -17.3115 -3.53548
-15.5922 -16.8743 -3.25052
-15.628 -16.85 -3.23634
-14.9279 -17.1943 -3.09646
-13.9009 -17.692 -3.13595
-14.4594 -17.4147 -2.96142
-13.4818 -17.8682 -3.04874
-13.1669 -18.0116 -3.09179
-15.5546 -16.8468 -2.57166
-14.2086 -17.5312 -2.73971
-15.6351 -16.4409 -2.27817
-15.1802 -17.0088 -2.37876
-13.6654 -17.7653 -2.62257
-13.4456 -17.886 -2.64821
-13.9768 -17.6253 -2.50058
-16.7828 -15.5068 -1.76158
-14.6459 -17.2781 -2.27565
-17.7206 -15.3909 -1.42435
-14.5521 -16.6051 -2.10993
-13.2257 -17.9493 -2.37361
-15.4235 -16.5336 -1.76328
-13.931 -17.6268 -2.16473
-13.7012 -17.7186 -2.183
-14.0281 -17.5414 -2.01978
-16.338 -15.9483 -1.18739
-13.7178 -17.7035 -1.91167
-13.6339 -17.7654 -1.92623
-14.2631 -17.4321 -1.72805
-13.6621 -17.7027 -1.78946
-16.0466 -15.7068 -0.996434
-16.0646 -15.6479 -0.982256
-13.5451 -17.7558 -1.80875
-15.9688 -15.8671 -0.975423
-16.0045 -15.7878 -0.946411
-14.537 -16.7826 -1.3799
-13.9289 -17.5849 -1.61083
-13.7758 -17.6557 -1.65461
-14.5314 -16.7626 -1.36156
-13.8133 -17.6313 -1.62952
-15.8834 -15.9958 -0.911924
-15.4308 -16.4984 -1.03696
-14.4983 -16.7607 -1.27859
-14.4574 -16.7815 -1.28126
-15.5509 -15.9886 -0.535402
-13.9295 -17.5421 -1.16566
-15.9185 -15.6684 -0.375607
-16.0141 -15.6079 -0.271498
-13.9949 -16.9179 -1.00832
-13.4651 -17.7779 -1.16436
-13.22 -17.9027 -1.24846
-13.4268 -17.8024 -1.16943
-12.9189 -18.0276 -1.35398
-13.0395 -17.9854 -1.30777
-14.4092 -16.4193 -0.675361
-14.5655 -16.3402 -0.55586
-14.4783 -16.3767 -0.517369
-13.9762 -17.497 -0.765527
-13.9818 -17.4818 -0.729125
-13.9444 -17.5105 -0.745616
-12.9383 -18.0011 -1.00938
-13.6988 -17.6361 -0.572735
-13.0467 -17.9542 -0.833138
-12.8786 -18.0286 -0.900419
-13.1307 -17.9267 -0.780349
-14.0861 -14.8913 -0.21373
-14.1386 -14.6771 -0.171115
-14.1052 -14.6768 -0.0374666
-13.8022 -17.5707 -0.224877
-13.6587 -17.6019 -0.286778
-14.0292 -14.9026 -0.00288355
-13.9625 -15.1242 -0.0369425
-13.963 -15.1143 -0.019891
-13.1537 -17.8639 -0.435723
-13.2173 -17.8335 -0.387594
-13.4149 -17.7233 -0.26661
-12.8343 -18.0328 -0.519181
-12.3879 -18.7947 -0.642074
-13.7159 -15.3362 0.217595
-12.3911 -18.0647 -0.371846
-12.3163 -18.0916 -0.409659
-12.209 -18.1438 -0.463154
-12.0499 -18.2381 -0.477312
-12.2132 -18.1252 -0.230815
-15.0114 -17.2502 -4.93104
-14.4797 -17.5106 -4.67045
-17.4876 -15.8894 -4.49961
-17.6952 -15.8284 -4.42729
-16.395 -16.5559 -4.0048
-14.4108 -17.4939 -4.05363
-14.1074 -17.6174 -3.71488
-15.1787 -17.1145 -3.60002
-15.3338 -17.0172 -3.32139
-13.9738 -17.6691 -3.46174
-14.8488 -17.2972 -3.13503
-14.5804 -17.3328 -2.58461
-15.7078 -16.4148 -2.24604
-16.1135 -15.9538 -2.10505
-15.2453 -16.9775 -2.33961
-16.8763 -15.6507 -1.9259
-13.7297 -17.7412 -2.60842
-13.89 -17.6541 -2.53154
-16.8012 -15.4912 -1.80125
-14.4156 -17.4088 -2.35166
-14.6978 -17.2297 -2.27809
-13.2551 -17.952 -2.39117
-15.3887 -16.5364 -1.59192
-15.3239 -16.5564 -1.5843
-13.2688 -17.9081 -2.07772
-15.2276 -16.5881 -1.45332
-13.6821 -17.6988 -1.83118
-13.5041 -17.7805 -1.8804
-16.0441 -15.6523 -0.945352
-16.0058 -15.8263 -0.96954
-14.4237 -16.7867 -1.34387
-15.6767 -16.15 -0.83157
-14.4382 -16.6902 -1.13585
-15.4191 -16.1831 -0.791781
-13.7942 -17.6136 -1.30764
-15.5589 -15.998 -0.550975
-14.01 -16.8341 -1.04131
-13.9966 -16.8165 -1.02705
-14.1055 -17.4411 -0.952044
-13.2796 -17.887 -1.23334
-13.2927 -17.8731 -1.21244
-13.3569 -17.8083 -1.13776
-14.8559 -16.0604 -0.345465
-14.0027 -17.4852 -0.735554
-12.8691 -18.0569 -1.11485
-12.8005 -18.0774 -1.13481
-13.6813 -17.6288 -0.599707
-14.3537 -16.1315 -0.23078
-12.9792 -17.9863 -0.859497
-14.074 -14.9354 -0.220837
-14.0631 -14.9874 -0.228861
-13.5464 -17.661 -0.346394
-13.6673 -17.6144 -0.224157
-13.9182 -15.1973 0.00712347
-13.9399 -15.1475 0.0226665
-13.124 -17.8848 -0.394841
-13.9651 -14.9651 0.128487
-12.5888 -18.145 -0.606656
-12.4753 -18.1959 -0.655646
-12.715 -18.0917 -0.538801
-12.5398 -18.1648 -0.621125
-13.7172 -15.3315 0.233465
-17.5503 -15.889 -4.52747
-17.499 -15.8802 -4.44849
-18.1793 -15.6789 -4.43574
-14.2551 -17.6111 -4.37559
-14.4104 -17.488 -4.01601
-16.8766 -15.4639 -3.55
-15.4178 -17.0074 -3.80001
-16.1867 -15.8893 -2.7169
-14.1574 -17.567 -3.06795
-14.1336 -17.5575 -2.76492
-14.9492 -17.1276 -2.47895
-15.0136 -17.0888 -2.43195
-13.447 -17.8585 -2.70191
-14.0251 -17.5622 -2.15038
-15.2295 -16.5684 -1.41981
-16.0717 -15.8317 -1.04778
-15.988 -15.7372 -0.929296
-15.3104 -16.4252 -0.798598
-13.8613 -17.5572 -1.04185
-13.6307 -17.6706 -0.858267
-13.9159 -17.4949 -0.544719
-13.9036 -16.6083 -0.414884
-13.5362 -17.6816 -0.289307
-13.2 -17.8179 -0.333488
-13.1306 -17.8584 -0.36126
-14.0489 -16.4889 0.150579
-13.7406 -15.2577 0.24946
-12.082 -18.2404 -0.502392
-15.8051 -16.8989 -4.50187
-14.3013 -17.5401 -4.00876
-15.6177 -16.2996 -3.29701
-16.1605 -15.87 -2.77697
-15.5904 -16.3071 -2.85892
-13.6065 -17.8512 -3.21817
-14.3128 -17.4775 -3.00671
-17.0925 -15.4325 -2.44342
-17.1314 -15.4356 -2.40596
-14.378 -17.4128 -2.37088
-16.4457 -15.8347 -1.58398
-14.174 -17.4848 -1.74199
-15.9564 -15.6831 -0.953587
-14.2861 -17.376 -1.24373
-13.581 -17.728 -1.40374
-14.4005 -16.1344 -0.480588
-13.5088 -17.691 -0.611858
-14.0071 -15.1278 -0.249403
-13.6476 -17.6089 -0.428631
-14.0038 -14.6143 0.272501
-13.7626 -15.4721 0.212537
-16.1427 -15.697 -3.6871
-14.618 -17.3735 -3.9207
-16.4297 -15.7259 -2.63133
-17.1419 -15.4529 -2.51442
-16.6472 -15.6467 -1.86291
-16.7342 -15.6553 -1.7903
-14.2571 -17.4809 -2.37914
-16.066 -15.7015 -0.976227
-16.5801 -15.5479 -0.3837
-13.3881 -17.8347 -1.48833
-14.373 -16.2405 -0.500674
-13.3955 -17.7749 -0.676853
-13.2931 -17.8143 -0.689662
-13.8113 -15.5765 0.220933
-13.2842 -17.6253 -0.0884606
-13.8614 -14.8382 0.327667
-14.3586 -13.9975 0.739772
-12.1899 -18.1343 -0.318893
-12.0916 -18.1823 -0.270319
-17.6815 -15.271 -2.74919
-16.5125 -15.5999 -2.84713
-14.0063 -17.6429 -2.82721
-16.5623 -15.7719 -2.21711
-13.4755 -17.8708 -2.67354
-13.7159 -17.7187 -2.56183
-16.519 -15.7917 -1.77934
-16.0126 -16.0545 -1.83886
-13.306 -17.9352 -2.39391
-16.1577 -15.6641 -0.99722
-15.2636 -16.3081 -0.68437
-14.3801 -16.3083 -0.375676
-14.1884 -16.454 -0.449824
-13.782 -17.6022 -0.573928
-12.7343 -18.0992 -0.546272
-14.4317 -17.3569 -2.04504
-13.6906 -17.6563 -1.14093
-13.3127 -17.8631 -1.18295
-12.3425 -18.0979 -0.324947
-12.1739 -18.1428 -0.318093
-13.8557 -17.564 -1.0539
-14.7399 -17.26 -2.28129
-13.636 -17.6651 -1.01932
-12.5518 -19.0035 -0.58777
-14.8814 -16.8865 -2.33678
-19.3847 -15.0623 -4.05233
-18.8786 -15.327 -4.17447
-17.6538 -15.8853 -4.43191
-17.2702 -16.1434 -4.52035
-15.1337 -17.1889 -4.74988
-15.2862 -17.111 -4.68222
-19.4774 -14.9804 -3.48819
-16.9665 -15.4519 -3.50945
-15.1001 -17.1896 -4.40091
-15.563 -16.922 -3.80704
-14.5165 -17.449 -4.16881
-14.5867 -17.404 -4.03806
-15.9638 -16.1144 -3.16942
-16.1836 -15.7539 -2.96387
-14.8211 -17.294 -3.85832
-14.2612 -17.5846 -4.05048
-15.6121 -16.869 -3.47234
-15.3291 -17.0223 -3.54275
-14.5901 -17.4116 -3.80874
-16.0766 -15.9421 -2.72579
-15.627 -16.844 -3.2332
-15.571 -16.8711 -3.25351
-15.5017 -16.9164 -3.27001
-15.5675 -16.8909 -3.24711
-14.6787 -17.3342 -3.57598
-14.7981 -17.2884 -3.52305
-14.8132 -17.2849 -3.50604
-14.7399 -17.3205 -3.52614
-14.8919 -17.2311 -3.44584
-14.7034 -17.331 -3.52292
-14.265 -17.5261 -3.68728
-14.8907 -17.278 -3.45818
-14.1369 -17.6102 -3.72242
-13.8007 -17.7761 -3.83456
-14.9556 -17.1797 -3.10801
-15.1241 -17.0852 -3.00947
-14.772 -17.2698 -3.15931
-14.6977 -17.3167 -3.17134
-14.2778 -17.5292 -3.31037
-16.5085 -15.7438 -1.95814
-13.5971 -17.8537 -3.56331
-16.7652 -15.5514 -1.77464
-13.238 -18.0211 -3.37016
-14.8539 -17.1957 -2.52859
-17.5972 -15.4246 -0.985011
-14.6024 -17.2962 -2.56949
-15.4963 -16.4939 -1.74218
-16.277 -15.6798 -1.10733
-14.6551 -17.2715 -2.25777
-16.0996 -15.6787 -1.04429
-16.0715 -15.741 -1.04561
-15.4306 -16.5162 -1.5785
-14.2618 -17.4489 -2.30905
-14.2371 -17.4575 -2.2494
-13.079 -18.0544 -2.86271
-14.1944 -17.4928 -2.15031
-15.1116 -16.6804 -1.45172
-15.6282 -16.1768 -1.00395
-13.6368 -17.7435 -2.21903
-13.6605 -17.7425 -2.19651
-14.533 -17.294 -1.61881
-13.931 -17.5844 -1.81562
-13.3642 -17.8636 -2.08048
-14.9543 -16.1627 -0.656272
-13.266 -17.9147 -2.0668
-13.8025 -17.6376 -1.64994
-14.14 -14.6645 -0.169748
-14.1146 -14.7958 -0.193643
-14.2543 -17.3911 -1.19283
-14.0854 -14.9 -0.214254
-14.5688 -16.3391 -0.5574
-14.1063 -14.6702 -0.0355638
-14.0974 -14.7762 -0.0834122
-12.9803 -18.0493 -1.95676
-14.0399 -14.8946 -0.0664372
-14.1346 -17.423 -0.958473
-13.9423 -15.2162 -0.138312
-13.9625 -15.0318 0.0720823
-13.9355 -17.517 -0.770071
-13.9694 -17.4863 -0.73112
-13.9344 -17.5142 -0.756027
-13.0883 -17.9627 -1.2885
-13.2581 -17.8483 -0.991325
-13.5582 -16.7591 -0.0334522
-13.4959 -17.6979 -0.304319
-12.3413 -18.0728 -0.39408
-19.42 -15.0763 -4.43561
-18.6988 -15.4412 -4.41487
-20.3013 -14.6292 -4.04474
-18.0112 -15.7312 -4.46492
-17.5665 -15.836 -4.44216
-19.3882 -15.053 -4.00812
-20.022 -14.7103 -3.54096
-16.5577 -15.8319 -3.85731
-14.9176 -17.2978 -4.53332
-17.4851 -15.0122 -3.23264
-17.5591 -14.9384 -3.19045
-16.2001 -15.6641 -3.54767
-16.2906 -15.6215 -3.51395
-16.3836 -15.5732 -3.48248
-17.3445 -15.0761 -3.13507
-14.5735 -17.4286 -4.29068
-15.9471 -16.7359 -3.81326
-13.9472 -17.7525 -4.48751
-17.3879 -15.2742 -2.85192
-15.0473 -17.1857 -3.97085
-14.7432 -17.3274 -3.85719
-14.3279 -17.5335 -4.01121
-14.6818 -17.3488 -3.86006
-16.1354 -15.8015 -2.8878
-16.1011 -15.8421 -2.90011
-16.1304 -15.9931 -2.89546
-16.069 -15.896 -2.78452
-15.6098 -16.8537 -3.21456
-15.568 -16.7048 -3.07339
-13.9555 -17.6919 -3.76432
-15.0323 -17.1401 -3.05149
-14.9551 -17.1866 -3.08729
-14.7345 -17.2968 -3.16816
-14.4507 -17.4195 -3.24689
-13.948 -17.6741 -3.46338
-16.7807 -15.4989 -1.76394
-15.8127 -15.9581 -2.09876
-15.387 -16.9318 -2.60315
-15.84 -16.3695 -2.2307
-14.0066 -17.63 -3.0993
-13.5986 -17.8242 -3.2173
-14.8348 -17.1991 -2.55347
-15.8861 -16.0904 -1.75282
-14.5732 -17.3297 -2.58652
-16.2974 -15.7983 -1.40202
-14.1245 -17.5581 -2.76673
-14.6816 -17.2568 -2.2686
-14.6366 -17.2872 -2.28277
-16.1663 -15.6239 -1.04979
-14.4446 -17.3701 -2.31749
-14.1008 -17.5314 -2.46768
-14.2192 -17.5123 -2.41656
-14.0911 -17.5646 -2.46959
-15.3224 -16.5565 -1.59038
-13.6692 -17.7577 -2.62094
-14.4726 -17.3241 -2.0718
-13.416 -17.9046 -2.68169
-15.2067 -16.6282 -1.48706
-15.2313 -16.5919 -1.4554
-15.9043 -16.0027 -0.913646
-15.862 -16.0404 -0.892051
-15.6583 -16.1528 -0.84577
-14.4233 -16.7684 -1.30962
-14.4606 -16.7716 -1.22637
-15.1224 -16.0586 -0.425184
-13.1042 -17.999 -2.10115
-14.2005 -16.5417 -0.920911
-14.0724 -16.847 -1.08388
-14.3647 -17.3499 -1.15707
-14.5679 -16.3279 -0.613027
-14.1071 -14.7174 -0.0542464
-13.9875 -15.1864 -0.262794
-14.2342 -15.8813 -0.256565
-13.7261 -15.388 0.21264
-13.7666 -16.6807 -0.155015
-12.9531 -18.0046 -1.13652
-13.1034 -17.929 -1.01256
-12.7926 -18.0889 -1.15178
-13.6966 -17.5983 -0.271074
-13.6239 -17.63 -0.32686
-13.5365 -17.6708 -0.28335
-12.311 -18.0863 -0.228959
-17.6386 -15.805 -4.4479
-17.4152 -15.9282 -4.49669
-16.8619 -16.3594 -4.69164
-17.4602 -15.8932 -4.45556
-16.9335 -16.3134 -4.65499
-17.1349 -16.2353 -4.58916
-19.1608 -15.1713 -3.87275
-15.086 -17.2122 -4.74977
-15.8289 -16.8521 -4.53545
-15.8773 -16.8183 -4.49892
-15.778 -16.8768 -4.52803
-16.9426 -15.3179 -3.69346
-15.9607 -16.7522 -4.30765
-14.4715 -17.479 -4.67989
-14.3952 -17.5286 -4.41913
-14.7353 -17.3677 -4.13235
-16.1821 -15.8308 -3.21324
-14.9518 -17.2373 -4.00945
-14.2879 -17.563 -4.01945
-15.0963 -17.1302 -3.68167
-14.7573 -17.3124 -3.77079
-14.5433 -17.4378 -3.84541
-17.0664 -15.3861 -2.44518
-14.8941 -17.2263 -3.48773
-15.2964 -17.0182 -3.31448
-14.8647 -17.2793 -3.48484
-14.2238 -17.5594 -3.38764
-16.8285 -15.6112 -1.84259
-15.7564 -16.0299 -2.15829
-15.8931 -16.346 -2.2583
-14.9543 -17.147 -2.76478
-14.654 -17.3216 -2.9012
-14.1765 -17.5558 -3.06785
-16.2766 -15.8291 -1.37434
-13.9523 -17.6446 -2.80354
-13.9716 -17.6016 -2.77377
-15.8137 -16.1035 -1.34327
-14.1814 -17.5175 -2.4441
-13.735 -17.7309 -2.60455
-16.0032 -15.7415 -0.954973
-13.9712 -17.5918 -2.16054
-15.5273 -16.4077 -1.00148
-13.2695 -17.936 -2.36695
-14.3959 -16.8154 -1.35807
-15.4788 -15.8856 -0.453438
-14.169 -17.4555 -1.52242
-13.6798 -17.6786 -1.82467
-14.9285 -16.1631 -0.647343
-14.2303 -17.4571 -1.47881
-14.4109 -16.4232 -0.71277
-14.0039 -17.5162 -1.29063
-13.6933 -17.6739 -1.41759
-13.9915 -15.1382 -0.146006
-13.4146 -17.8196 -1.51204
-14.2064 -17.4044 -0.901762
-13.9578 -14.9508 0.133919
-14.1146 -15.9023 0.0955021
-13.6225 -17.6595 -0.841033
-13.8622 -17.343 0.0153285
-12.7273 -18.1026 -0.935494
-12.5172 -18.2042 -0.988412
-12.2197 -18.1447 -0.440157
-12.3049 -18.0819 -0.20785
-12.137 -18.1627 -0.251103
-17.2561 -16.1136 -4.47287
-16.4187 -16.5309 -4.55571
-15.8557 -16.8936 -4.50514
-17.4124 -15.1082 -3.26501
-16.0685 -15.8548 -3.66823
-15.0914 -17.1954 -4.12647
-14.3902 -17.4762 -4.19364
-15.5295 -16.9513 -3.80408
-16.0413 -16.1406 -3.3361
-13.7817 -17.8141 -4.19427
-15.532 -16.2031 -3.10038
-17.7312 -15.2263 -1.69974
-14.642 -17.2934 -2.24536
-16.1142 -15.6563 -1.00114
-14.4688 -16.7915 -1.80975
-15.2371 -16.5676 -1.41281
-13.3963 -17.8666 -2.35876
-14.4042 -16.1762 -0.355872
-13.3282 -17.8072 -1.06588
-13.8791 -17.5244 -0.5068
-13.7158 -17.619 -0.587607
-13.8719 -17.3451 -0.0138649
-13.9218 -17.4556 -0.0155571
-12.4444 -18.0301 -0.378831
-12.1382 -18.1579 -0.249349
-12.0238 -18.2224 -0.333669
-16.1316 -15.7082 -3.65739
-16.0799 -15.7867 -3.61919
-15.7996 -16.8063 -3.86441
-14.5072 -17.4581 -4.20814
-16.0908 -16.0901 -3.32887
-17.6248 -15.2487 -2.74727
-16.1342 -15.8847 -3.21153
-15.7715 -16.8302 -3.71091
-16.1762 -15.9792 -3.2187
-16.179 -15.9628 -3.16725
-16.45 -15.6526 -2.93002
-15.514 -16.9414 -3.49726
-16.1398 -15.8145 -2.72147
-17.0823 -15.4625 -2.39973
-16.894 -15.6182 -2.06956
-16.2886 -15.8185 -1.94592
-14.2464 -17.5165 -2.74069
-16.0743 -15.6681 -0.872849
-14.1502 -17.4866 -2.08833
-15.9744 -15.6191 -0.36348
-14.3684 -16.4622 -0.895442
-14.0792 -17.3613 -0.571949
-12.0878 -18.2062 -0.327437
-12.0903 -18.1865 -0.284109
-12.0677 -18.1939 -0.266801
-12.347 -20.0412 -0.28087
-17.9455 -15.8682 -4.3462
-16.4561 -15.7329 -2.60992
-17.8712 -15.1973 -2.13682
-15.596 -16.822 -3.19263
-15.8771 -16.2759 -2.06833
-13.5827 -17.8451 -3.25534
-15.1083 -16.6947 -1.51597
-13.6835 -17.6911 -1.70396
-14.2492 -17.3895 -1.25972
-13.8621 -17.5621 -1.10197
-14.0894 -16.1229 0.264018
-13.4129 -17.7478 -0.435087
-13.4209 -17.731 -0.307232
-17.3565 -15.9373 -4.49124
-16.0702 -16.0895 -3.34702
-16.3093 -15.7187 -2.91452
-14.5939 -16.7597 -1.90035
-14.4298 -17.3367 -1.97979
-13.8843 -17.5619 -1.0294
-12.4347 -18.4782 -0.641072
-12.3343 -18.1022 -0.407094
-17.1063 -16.2223 -4.59503
-17.5104 -15.9978 -4.44516
-16.7293 -15.7895 -2.16155
-17.4884 -15.2937 -1.78042
-15.8803 -16.2441 -2.05274
-14.4469 -17.3288 -2.10629
-12.2384 -18.1246 -0.338707
-16.8868 -15.6019 -2.09978
-16.79 -15.6995 -1.9178
-16.27 -15.7925 -1.07425
-13.4845 -17.7355 -1.38173
-12.1958 -18.5037 -0.565276
-17.0849 -15.3517 -3.59139
-13.951 -17.6314 -2.96663
-15.3541 -16.5126 -1.52075
-12.3087 -19.1287 -0.461687
-15.587 -16.5493 -2.90275
-13.9807 -17.3232 -0.469069
-16.1071 -16.2255 -2.03332
-19.4104 -15.0599 -4.05025
-19.3263 -15.0988 -4.02588
-19.2985 -15.1291 -4.02686
-17.7939 -15.7784 -4.49227
-19.4609 -14.9901 -3.49539
-17.6844 -15.8367 -4.41787
-17.4538 -15.9169 -4.49997
-16.9409 -15.5818 -4.08619
-16.8235 -16.374 -4.72933
-16.4986 -16.5201 -4.54461
-15.3134 -17.1125 -4.70536
-17.8212 -15.0957 -2.22936
-14.9129 -17.3084 -4.83182
-14.9035 -17.3142 -4.81285
-14.8171 -17.3663 -4.87444
-16.1822 -15.7588 -2.96359
-14.5154 -17.4957 -4.94896
-16.1907 -15.8017 -2.81575
-16.9412 -15.6042 -2.41607
-16.1333 -15.9994 -2.89576
-15.9233 -16.7275 -3.62931
-15.3964 -16.9873 -3.63994
-13.7663 -17.8484 -4.85573
-15.4603 -16.9543 -3.49299
-14.3724 -17.548 -4.3441
-14.3372 -17.549 -4.22529
-14.4079 -17.4888 -3.879
-15.9138 -16.0701 -1.49733
-15.786 -16.1365 -1.50144
-16.0709 -15.7815 -1.0495
-14.1009 -17.6144 -3.48547
-14.2562 -17.5316 -3.33371
-15.3954 -16.5286 -1.58927
-14.6112 -17.3108 -2.59915
-15.3005 -16.5603 -1.56938
-15.593 -16.4166 -1.27529
-14.2757 -17.4842 -2.87607
-16.2017 -15.5199 -0.0524732
-15.2327 -16.6017 -1.45871
-14.1477 -14.6547 -0.160607
-15.6382 -15.8059 -0.250026
-15.2376 -16.6089 -1.18657
-13.5429 -18.6085 -3.86841
-14.9468 -16.7134 -1.37193
-15.4783 -15.8854 -0.324475
-13.9864 -15.1743 -0.262334
-15.1141 -16.0627 -0.373361
-13.9997 -15.0117 -0.0262631
-14.1931 -17.4881 -2.1509
-14.1896 -17.4858 -2.12842
-13.4497 -17.8738 -2.84048
-13.9573 -15.032 0.066848
-14.0166 -17.5795 -2.15051
-14.4076 -16.4379 -0.825349
-14.3733 -16.4488 -0.710451
-14.0023 -16.6371 -0.788151
-13.6487 -17.7495 -1.91318
-13.6414 -17.7234 -1.87133
-14.261 -16.4547 -0.286093
-13.8693 -16.6476 -0.421835
-13.1674 -17.9625 -2.07399
-13.9891 -17.5005 -0.913047
-13.0285 -17.966 -0.82663
-12.7926 -19.139 -2.01097
-12.4181 -18.0326 -0.181102
-19.3993 -15.0566 -4.00339
-16.4672 -15.8658 -3.90088
-16.6484 -15.6077 -3.10025
-17.0491 -15.3677 -2.6875
-17.0817 -15.3373 -2.64246
-15.0409 -17.2503 -4.79372
-16.1006 -15.8453 -2.99392
-16.1091 -16.0634 -3.06661
-15.6268 -16.8652 -3.46076
-15.1641 -17.1064 -3.72505
-15.4025 -16.9769 -3.51187
-16.2786 -15.9055 -2.09092
-16.973 -15.5491 -1.37803
-16.8031 -15.6017 -0.998224
-15.0363 -17.0798 -3.02904
-15.8699 -16.1057 -1.65278
-14.7108 -17.3346 -3.17717
-14.2801 -17.5219 -3.35839
-16.0167 -15.801 -0.952297
-14.9901 -17.0998 -2.47118
-14.1714 -17.5519 -3.07231
-15.3145 -16.5562 -1.59108
-14.0811 -17.5931 -3.0794
-15.6887 -16.1358 -0.842361
-15.8646 -15.7002 -0.318625
-14.469 -17.3607 -2.35929
-14.0404 -14.7626 0.0872843
-13.5614 -17.8544 -2.98657
-14.2078 -17.4709 -2.24819
-14.2509 -17.3906 -1.19204
-14.2437 -16.452 -0.188938
-13.9244 -17.5791 -1.29727
-13.7148 -17.679 -1.41406
-13.8876 -16.6418 -0.311587
-14.0256 -16.0995 0.403774
-13.9613 -17.4931 -0.730293
-13.355 -17.8258 -1.16781
-13.7038 -17.4234 0.0383418
-13.5573 -17.6701 -0.264785
-13.0732 -17.9382 -0.833402
-18.9081 -15.2758 -4.30085
-19.0398 -15.2588 -3.93796
-17.0739 -16.2305 -4.63758
-17.642 -14.9831 -3.13885
-17.0158 -16.2573 -4.4103
-16.5368 -16.4732 -4.29799
-15.7738 -16.8786 -4.52754
-15.2201 -17.1512 -4.85003
-15.9653 -16.7359 -3.80903
-16.1128 -15.9785 -2.9979
-14.3012 -17.5785 -4.02167
-16.4496 -15.8401 -1.5886
-15.9439 -16.0496 -1.73116
-14.0368 -17.6494 -3.75897
-16.164 -15.7135 -1.09357
-16.3226 -15.9371 -1.20779
-15.8531 -16.067 -1.2542
-14.8441 -17.1474 -2.55072
-15.2096 -16.6342 -1.50269
-15.4452 -16.4855 -1.08223
-14.0459 -14.9047 -0.0794679
-15.1228 -16.0631 -0.420301
-14.3941 -16.4307 -0.72263
-13.9784 -17.5593 -1.60649
-14.0018 -17.5206 -1.28787
-13.876 -17.5864 -1.30374
-13.8501 -17.558 -0.501367
-12.6189 -18.9762 -1.15176
-12.4497 -18.0308 -0.371794
-12.3871 -18.0513 -0.357178
-17.475 -15.0623 -3.24064
-14.5246 -17.4908 -4.67229
-13.9956 -17.7243 -4.4917
-16.5213 -15.7854 -1.79311
-16.3466 -16.0047 -1.27622
-16.0347 -15.7862 -0.966099
-14.6065 -17.3494 -2.94403
-15.1174 -16.6866 -1.45086
-15.2202 -16.6427 -1.23962
-15.554 -15.8423 -0.335765
-14.2051 -16.539 -0.886245
-13.341 -17.9079 -2.39294
-13.3214 -17.9384 -2.39085
-13.5974 -17.6959 -1.15486
-13.8918 -17.4736 -0.0825067
-12.4226 -18.042 -0.362699
-12.0905 -18.191 -0.337295
-17.7815 -15.8218 -4.40755
-17.1941 -16.1408 -4.66411
-16.3424 -15.6476 -2.95641
-15.6557 -16.3033 -2.90941
-15.5301 -16.3395 -2.92805
-14.683 -17.3899 -4.12916
-15.8745 -16.119 -1.86839
-14.2123 -16.4281 -0.0820029
-14.1437 -16.2772 0.25264
-12.2025 -18.1451 -0.451838
-12.0963 -18.1902 -0.283828
-18.4062 -15.5481 -4.36469
-14.9835 -17.2546 -4.42926
-15.5076 -16.3977 -2.91929
-15.8776 -16.2788 -2.05069
-16.2176 -15.9861 -1.44844
-15.2079 -16.658 -1.50617
-15.1314 -16.688 -1.50693
-12.1746 -18.1535 -0.316485
-14.4711 -17.4483 -4.24472
-15.2805 -16.5494 -1.34896
-12.3319 -18.0881 -0.292275
-16.4792 -15.795 -1.73925
-14.5424 -16.7175 -1.79987
-14.6374 -17.228 -1.86617
-17.0353 -15.403 -2.15175
-14.0137 -17.2768 -0.579494
-13.9438 -17.5154 -0.909147
-20.162 -14.7366 -4.45751
-19.0344 -15.2543 -4.11464
-19.0088 -15.2439 -4.06644
-17.426 -15.9166 -4.50754
-17.3931 -15.9437 -4.51743
-17.1747 -15.3137 -2.49079
-16.2293 -15.8351 -3.25194
-16.179 -16.6874 -4.69038
-16.0855 -15.8261 -3.01253
-16.1115 -15.8175 -2.83659
-15.8238 -16.8135 -3.90644
-14.5221 -14.3409 0.304026
-15.8731 -16.0897 -1.83368
-15.5178 -16.9282 -3.57451
-14.9675 -17.2602 -4.47883
-15.8008 -16.3768 -2.24648
-16.4409 -15.7114 -0.576169
-16.035 -15.5988 -0.128817
-14.0473 -14.8902 -0.0642657
-14.5232 -17.4472 -4.16423
-15.4783 -15.8855 -0.325021
-15.2565 -16.5933 -1.52176
-15.2296 -16.6036 -1.45906
-15.2376 -16.6021 -1.42006
-13.6637 -17.8299 -3.81455
-13.8094 -17.7601 -3.52877
-13.8633 -17.685 -2.92905
-14.0097 -16.6296 -0.762926
-14.068 -17.5559 -2.30064
-13.8749 -16.6447 -0.416101
-13.3605 -17.8136 -1.13354
-20.2463 -14.7073 -4.46068
-19.3819 -15.0667 -3.92465
-19.2769 -15.126 -4.0428
-17.6404 -14.9661 -3.12888
-17.4344 -15.0313 -3.2703
-17.3627 -15.9518 -4.58083
-17.3182 -15.9701 -4.58947
-17.0018 -16.2682 -4.63365
-16.8838 -15.4936 -3.03372
-17.0452 -15.356 -2.69136
-16.9062 -16.3265 -4.41464
-17.0744 -15.3316 -2.40319
-15.8821 -16.8092 -4.47747
-15.8277 -16.8539 -4.52364
-15.8476 -16.8369 -4.47434
-15.8134 -16.8605 -4.47056
-15.8879 -16.7698 -3.81672
-15.8207 -16.8116 -3.85091
-16.8338 -15.5825 -0.987248
-16.8707 -15.5715 -0.906803
-16.6767 -15.6503 -0.538817
-15.8449 -16.1118 -1.71793
-16.0396 -15.8145 -0.984545
-14.0675 -14.6763 0.126967
-15.8071 -16.1328 -1.40344
-15.6757 -16.1339 -0.838864
-15.4188 -16.5498 -1.75231
-13.994 -15.1282 -0.00820553
-14.5847 -17.4081 -3.84657
-15.3002 -16.5579 -1.57146
-14.5158 -16.5904 -2.08995
-14.9518 -16.1454 -0.474821
-14.9195 -16.1736 -0.569466
-20.1144 -14.7262 -4.37843
-17.4577 -15.0336 -3.22717
-16.3438 -15.7263 -2.94809
-16.1267 -15.9831 -3.01075
-14.9001 -17.3066 -4.77987
-15.9784 -16.0153 -1.72775
-16.0474 -15.8522 -1.00308
-15.8795 -15.6856 -0.291369
-15.6712 -16.151 -0.901475
-15.54 -15.8563 -0.437901
-15.4992 -15.8703 -0.340361
-14.4332 -16.4169 -0.817869
-14.4464 -16.5706 -0.958656
-13.1989 -17.9552 -2.03102
-13.9157 -17.4627 -0.0715246
-13.3876 -17.8103 -1.13362
-12.3952 -18.058 -0.391821
-18.9347 -15.3079 -4.24101
-17.3963 -15.0673 -3.32445
-16.587 -15.6849 -4.07938
-16.4899 -15.8599 -1.92825
-15.4633 -16.9214 -3.30228
-15.7385 -16.1146 -0.89673
-14.9544 -16.1424 -0.691532
-15.2429 -16.6265 -1.20881
-14.1891 -17.4829 -2.12119
-14.1793 -16.2607 0.232291
-13.5944 -17.6763 -1.18039
-12.3918 -18.0609 -0.399287
-12.1356 -18.1758 -0.237849
-12.0975 -18.1828 -0.287106
-16.5211 -15.7567 -1.87615
-16.0448 -16.0454 -2.6322
-14.5397 -16.6132 -2.02861
-15.257 -16.5811 -1.13806
