-17.165 -13.7267 -0.592657
-18.493 -13.4249 -2.22635
-17.3076 -13.9075 -1.16766
-18.0849 -13.8215 -3.20744
-15.5028 -12.5536 0.558418
-15.4958 -12.5954 0.436222
-18.0132 -13.1767 -0.552654
-17.0041 -13.8173 -0.58029
-16.8602 -13.8569 -0.412235
-18.3434 -14.7371 -4.39616
-16.5251 -14.4415 -0.866007
-15.4836 -14.9166 0.878835
-15.8251 -15.0213 -0.154618
-15.3522 -15.0869 0.685595
-14.1271 -15.1781 2.11993
-15.9729 -13.4204 1.24345
-17.389 -13.75 -0.768671
-17.0731 -14.0767 -1.67811
-16.7189 -14.3473 -0.985633
-16.673 -14.274 -2.01378
-16.9574 -15.3499 -3.49972
-14.8695 -14.8268 1.82327
-15.3238 -15.0942 0.698456
-15.2425 -15.2932 0.174777
-15.4878 -15.4851 -0.93753
-17.0214 -14.6632 -3.66149
-15.497 -14.8141 1.11458
-15.9703 -15.8886 -3.21196
-15.5539 -14.7408 1.23504
-14.2841 -15.0778 2.15048
-16.5389 -14.6271 -2.27945
-16.4731 -14.6265 -2.12754
-16.2397 -14.6128 -1.5949
-14.4391 -15.922 -0.25607
-17.1876 -13.7523 -0.61935
-17.2651 -13.7806 -0.819659
-16.6983 -14.6523 -2.25655
-16.5674 -14.6419 -2.46247
-16.0282 -14.5848 -0.959077
-15.5648 -12.3161 0.467347
-15.5014 -12.5506 0.549457
-15.4973 -12.593 0.428517
-17.3573 -13.3334 -0.810001
-16.982 -13.9388 -0.948969
-15.5332 -14.7606 1.28816
-16.5278 -14.4412 -0.867086
-16.8249 -14.2491 -2.42988
-16.7257 -14.7337 -3.55177
-17.3537 -13.7534 -0.785948
-17.4204 -13.8347 -1.33404
-17.5151 -13.9903 -2.24073
-16.7295 -14.3473 -1.00389
-14.3134 -15.0598 2.16409
-15.321 -15.0936 0.701508
-14.7524 -15.3069 1.11966
-16.9514 -15.3475 -3.48092
-15.4558 -15.8039 -1.81737
-14.5003 -15.862 -0.169227
-16.9988 -14.6945 -3.55235
-16.06 -14.8331 -2.16749
-15.0736 -15.2797 0.515697
-15.6998 -15.2689 -0.736826
-14.9497 -15.3737 0.417794
-15.1537 -15.8447 -1.43134
-15.3716 -16.0434 -2.48762
-16.2323 -13.7108 0.21991
-17.6834 -13.7991 -2.49259
-15.3621 -14.2017 0.438461
-15.6372 -15.2203 -0.423809
-15.5846 -12.1782 0.639058
-14.0939 -15.1878 2.15689
-17.3573 -13.6524 -0.965141
-16.7604 -14.164 -2.08635
-18.5954 -13.4841 -2.6065
-17.3175 -13.7874 -0.832354
-16.3136 -14.603 -1.65929
-15.6253 -12.0848 0.241617
-15.7204 -14.6114 1.36928
-15.4022 -14.7555 1.5311
-15.5001 -14.7542 1.28752
-14.978 -15.0756 1.32162
-16.0083 -14.5839 -0.236047
-15.3454 -15.0718 0.696879
-15.3844 -15.0971 0.447592
-14.489 -15.5837 0.69383
-15.2895 -15.4392 -0.375548
-14.1663 -15.7815 0.676065
-17.5328 -15.0328 -4.13287
-14.4584 -15.9735 -0.472271
-15.0917 -15.8788 -1.41524
-15.7986 -15.8083 -2.56799
-15.5082 -13.6319 1.50391
-17.2841 -13.3154 -0.759457
-15.7015 -14.624 1.36987
-15.3629 -14.7677 1.55152
-15.3778 -14.8812 1.22353
-15.0652 -15.056 1.19536
-14.4416 -15.2512 1.78115
-15.3132 -15.0879 0.736262
-15.3314 -15.1476 0.432744
-15.5097 -14.6573 -0.748535
-16.6737 -14.3299 -2.33752
-14.8197 -15.5151 0.260895
-16.2828 -15.5268 -2.74781
-15.4541 -15.8061 -1.81577
-14.9478 -15.0265 1.55793
-14.2316 -15.1492 2.00338
-15.5015 -14.9093 0.768522
-14.0418 -15.2447 2.06333
-14.5718 -15.5486 0.579746
-15.2706 -15.4681 -0.462749
-16.9332 -14.6584 -3.43134
-16.1199 -15.4131 -2.03078
-15.8897 -13.6674 0.871281
-15.9516 -13.8177 0.393914
-14.0714 -15.249 2.00828
-17.4101 -14.0664 -2.22352
-16.3889 -14.6677 -1.96139
-16.416 -14.6412 -2.08579
-15.1225 -16.0518 -1.9703
-15.9743 -15.8911 -3.21858
-15.4492 -14.751 1.35132
-17.4412 -13.6777 -0.979099
-17.2827 -13.7649 -0.816609
-16.4798 -14.591 -2.1062
-15.8435 -13.8898 0.413018
-17.5043 -13.2994 -0.636576
-15.5765 -14.7607 1.14346
-14.5258 -15.2113 1.81463
-14.9997 -15.0597 1.31557
-14.5861 -15.3948 1.10756
-15.3607 -15.1175 0.475761
-15.2586 -15.1891 0.427089
-16.7524 -14.3422 -1.03147
-15.0182 -15.2609 0.571792
-14.1971 -15.6028 1.21701
-14.5323 -15.5728 0.654657
-14.1803 -15.7849 0.673289
-16.853 -14.215 -2.46112
-16.6854 -14.3193 -2.37742
-14.4661 -15.775 0.162806
-16.2355 -15.1481 -1.42055
-14.1609 -16.0234 -0.0369962
-18.3719 -14.7016 -4.47648
-15.7981 -15.8078 -2.5672
-14.5259 -16.2158 -1.36916
-14.1603 -16.4992 -1.56377
-15.5979 -12.1557 0.645368
-15.636 -12.0199 0.360984
-14.861 -14.829 1.82939
-14.359 -15.0664 2.12432
-16.0361 -13.8202 0.254417
-17.2842 -13.3168 -0.74536
-14.4935 -15.2802 1.74248
-16.6563 -14.2096 -0.336396
-14.9013 -15.2091 1.08832
-14.8262 -15.306 0.899775
-16.1547 -14.5407 -0.379252
-16.4157 -14.6307 -1.22123
-16.6744 -14.3065 -2.00811
-14.8268 -15.5751 0.112787
-14.585 -15.8028 -0.163762
-14.5718 -15.8017 -0.17808
-16.422 -14.6957 -2.44425
-16.3804 -14.7214 -2.41574
-15.9081 -15.41 -1.57141
-15.0952 -15.8737 -1.4212
-17.5948 -15.063 -4.11855
-14.7648 -16.4502 -2.52843
-17.2966 -13.3493 -0.652731
-14.8594 -15.0727 1.60603
-15.4282 -14.889 1.17032
-15.3578 -14.2091 0.393725
-14.6954 -15.2638 1.34461
-15.3924 -15.0183 0.66806
-15.3126 -15.0916 0.736886
-15.3062 -15.1017 0.714633
-15.3985 -15.0797 0.509535
-16.9493 -14.0427 -1.2046
-15.1505 -15.2742 0.323861
-15.5237 -14.6403 -0.812359
-15.0508 -15.4516 0.0400164
-14.8963 -15.5335 0.127338
-15.5396 -15.3846 -0.686985
-14.5416 -15.9294 -0.418362
-15.5198 -16.0957 -2.98513
-14.0431 -16.6508 -1.79428
-15.534 -12.4765 0.684572
-15.4556 -13.8829 0.986769
-14.325 -15.0711 2.10005
-15.5324 -14.7359 1.4357
-15.5046 -14.8997 0.719612
-17.3752 -13.853 -1.62989
-17.5886 -13.8386 -1.7853
-15.6242 -14.716 -0.889569
-14.5337 -15.6926 0.24597
-16.4198 -14.716 -2.48078
-16.7934 -14.759 -3.5315
-16.7568 -14.7425 -3.56401
-15.1138 -16.0484 -1.96724
-15.7353 -13.9903 0.305549
-17.1131 -13.6788 -0.466952
-17.6188 -13.782 -1.70455
-16.3493 -14.6482 -2.94753
-14.0275 -15.1998 2.21847
-17.3334 -13.9409 -1.25847
-16.3411 -14.609 -1.60022
-16.3482 -14.7624 -1.91825
-17.2853 -13.7738 -0.957897
-15.149 -15.1521 0.71586
-16.4128 -14.6143 -1.70104
-15.9141 -13.3662 0.655283
-14.3441 -15.3529 1.76241
-14.2206 -15.9723 2.05275
-15.3575 -14.9033 1.21052
-16.2513 -13.7026 0.21654
-14.5941 -15.3181 1.34317
-14.2598 -15.5006 1.4336
-14.2203 -15.5417 1.3802
-14.8104 -15.2739 1.0827
-15.4569 -14.9768 0.700631
-17.2568 -13.4401 -0.760905
-17.255 -13.4734 -0.763852
-14.8912 -15.2995 0.837821
-14.7968 -15.3576 0.875344
-15.3617 -15.1224 0.438356
-14.6145 -15.4793 0.776913
-14.5228 -15.5796 0.672379
-14.6462 -15.5272 0.60589
-15.2384 -15.294 0.211116
-16.5905 -14.3958 -0.855204
-14.9262 -15.4436 0.209637
-14.7278 -15.5621 0.288248
-14.8675 -15.5417 0.146834
-14.2407 -15.8588 0.342884
-15.5717 -15.3525 -0.697423
-16.1647 -15.0902 -1.09024
-14.3527 -15.9179 -0.0337915
-14.3822 -15.9972 -0.397966
-16.787 -14.2477 -2.34754
-14.8075 -15.8756 -0.795006
-15.4267 -15.6913 -1.46498
-16.231 -15.5362 -2.65187
-15.0813 -16.0758 -1.95712
-14.3468 -16.3951 -1.6139
-15.3616 -16.1162 -2.70561
-15.1331 -16.2667 -2.68997
-15.5394 -12.4458 0.470835
-14.0644 -15.2017 2.19558
-14.159 -15.1766 2.06589
-14.2317 -15.1531 2.00557
-15.2237 -14.8395 1.62198
-15.5154 -14.7176 1.42322
-14.2116 -15.3638 1.89044
-14.1825 -15.3939 1.90125
-17.2292 -13.1615 -0.103351
-17.3426 -13.1067 -0.149868
-14.6267 -15.3027 1.34606
-15.8371 -13.9408 0.247822
-15.3857 -14.9214 0.928101
-15.6178 -14.0644 0.333411
-14.6457 -15.3433 1.17172
-17.2451 -13.3672 -0.694713
-14.6684 -15.4268 0.918452
-15.4711 -15.0498 0.450622
-16.1698 -14.5327 -0.388311
-14.1562 -15.8252 0.586505
-15.5274 -14.6691 -0.778231
-14.9369 -15.5722 -0.15271
-16.4485 -14.6221 -1.24218
-14.9459 -15.6968 -0.532191
-16.689 -14.3176 -2.19053
-16.4107 -14.7241 -2.51475
-16.7987 -14.6772 -3.33817
-17.4645 -15.0601 -4.09306
-16.1496 -15.7274 -3.09306
-15.4987 -14.6973 1.51785
-15.4307 -14.8456 1.16337
-15.4408 -14.1652 0.337356
-14.5336 -15.4353 1.13357
-15.4736 -14.9861 0.64587
-17.2909 -13.3286 -0.747208
-15.792 -14.4266 -0.0345233
-15.195 -15.361 0.0094133
-17.7363 -13.7383 -2.4685
-16.6903 -14.3048 -2.01536
-15.4074 -15.6482 -1.21518
-16.6003 -14.5707 -2.55898
-17.0396 -14.3745 -3.27681
-15.9533 -15.8819 -3.18359
-15.296 -14.8437 1.46401
-15.0296 -14.9761 1.57037
-14.831 -15.2562 1.0912
-15.5514 -14.9189 0.72174
-14.7668 -15.288 1.0755
-17.1722 -13.4892 -0.573101
-16.7416 -14.409 -1.37604
-15.1318 -15.7831 -1.14042
-15.6045 -14.6334 1.43335
-15.2378 -14.8978 1.52874
-18.0381 -13.2298 -0.607497
-15.5168 -14.899 0.807048
-15.0076 -15.3816 0.316758
-17.6923 -13.7717 -1.60478
-17.4802 -13.8382 -1.58234
-16.7087 -14.3273 -2.19472
-15.992 -13.4417 1.2156
-17.2008 -13.2253 -0.133186
-16.4025 -14.3648 -0.327076
-15.0408 -15.8393 -1.12237
-16.213 -14.9136 -2.85433
-16.1516 -13.7638 0.199048
-17.0223 -13.7525 -0.408372
-14.0782 -15.1824 2.234
-14.2412 -15.1025 2.16788
-14.0685 -15.2479 2.01803
-16.1054 -11.5824 0.36471
-15.5745 -12.2851 0.528313
-15.9662 -13.5827 1.03131
-15.4088 -14.7574 1.45639
-15.5417 -13.8908 0.967955
-15.4494 -13.9538 0.884217
-14.9675 -15.1019 1.29108
-15.2593 -14.9635 1.23686
-14.6976 -15.2648 1.33567
-14.5477 -15.3788 1.24659
-15.1739 -15.0655 0.999782
-15.3488 -14.9656 0.954537
-15.5221 -14.8796 0.919807
-16.054 -13.7557 0.41085
-17.4682 -12.9768 0.0431474
-15.5397 -14.9066 0.745661
-15.6904 -14.0184 0.358054
-16.2473 -13.7052 0.218518
-14.931 -15.2855 0.862479
-14.9658 -15.2622 0.843349
-15.6774 -14.0163 0.321124
-17.9933 -12.7308 -0.276871
-17.8987 -12.7814 -0.253781
-15.6775 -14.0295 0.311506
-16.3323 -13.6631 0.13753
-15.7495 -13.9878 0.268888
-15.3572 -15.127 0.441144
-15.78 -14.303 0.0994061
-14.7076 -15.5062 0.625288
-14.847 -15.3978 0.547732
-15.7946 -14.3914 0.0958725
-15.2209 -15.2019 0.433097
-15.3098 -15.1878 0.32471
-15.7952 -14.4284 -0.0160778
-16.7834 -14.1003 -0.265005
-15.707 -14.4754 -0.0338809
-17.115 -13.5854 -0.525405
-15.6982 -14.4943 -0.0546998
-15.575 -15.0922 0.163597
-15.8002 -14.4634 -0.0974269
-15.0797 -15.3631 0.269674
-14.9278 -15.4535 0.305137
-14.8838 -15.5129 0.15167
-15.4926 -15.2059 -0.0521235
-14.2332 -15.867 0.32608
-14.8298 -15.5802 0.118795
-14.6034 -15.6758 0.169547
-17.4554 -13.6989 -0.965488
-18.5765 -13.2836 -1.34271
-15.2904 -15.424 -0.272563
-16.5943 -14.3983 -0.856654
-15.0013 -15.5616 -0.197251
-16.6508 -14.3638 -0.879195
-14.7785 -15.6946 -0.19932
-14.2277 -15.9765 -0.0217028
-15.4768 -15.4153 -0.69098
-14.9768 -15.6823 -0.531199
-14.4633 -15.9611 -0.370548
-16.5779 -14.5693 -1.39185
-16.4964 -14.6008 -1.38348
-15.1078 -15.7042 -0.852488
-16.2157 -15.2556 -1.68784
-15.8029 -15.4741 -1.54824
-17.7929 -13.6897 -2.67247
-16.6385 -14.4119 -2.34035
-15.7219 -15.6941 -2.11121
-15.1392 -16.04 -2.015
-15.7964 -15.7414 -2.39195
-20.0173 -13.7297 -4.658
-14.8482 -16.2163 -2.04985
-19.7458 -13.9502 -4.61549
-16.5352 -15.4657 -3.02924
-19.8085 -13.9902 -4.76564
-16.2566 -15.668 -2.98524
-16.1041 -15.7197 -2.9403
-19.2804 -14.2419 -4.73535
-15.1309 -16.2634 -2.6898
-16.8276 -15.4888 -3.70535
-17.6039 -15.0045 -4.18577
-14.7521 -16.5252 -2.80726
-14.2708 -16.8079 -2.72308
-14.4986 -15.2551 1.75728
-14.8463 -15.078 1.61709
-15.4563 -14.7413 1.50878
-15.3653 -14.7918 1.46699
-15.5113 -13.9107 0.864189
-14.7385 -15.2519 1.35007
-15.4546 -14.8338 1.15341
-15.3328 -14.0698 0.639785
-17.6238 -12.8664 0.0273667
-16.5087 -13.5094 0.232211
-14.3779 -15.5772 0.981221
-17.3504 -13.1006 -0.118236
-16.617 -13.5032 0.066386
-15.3588 -14.2796 0.318955
-15.7827 -14.2639 0.135561
-14.4105 -15.6352 0.674716
-14.8848 -15.3823 0.508508
-15.7708 -14.423 0.0481099
-17.6094 -13.3202 -0.578635
-15.697 -14.4761 -0.0137666
-15.593 -15.0713 0.119994
-17.3657 -13.2652 -0.759008
-15.1598 -15.2973 0.212419
-14.4819 -15.7347 0.428309
-14.5898 -15.6676 0.229683
-14.6851 -15.6456 0.154349
-16.4889 -14.3468 -0.653188
-18.7584 -13.1899 -1.39485
-16.376 -14.5246 -0.781108
-14.8883 -15.6284 -0.167422
-15.1928 -15.5711 -0.579978
-17.4456 -13.812 -1.6295
-17.6323 -13.5853 -1.75475
-17.3992 -13.8583 -1.6216
-14.6028 -15.8722 -0.452538
-16.6194 -14.5751 -1.41715
-15.938 -15.222 -1.07967
-16.7001 -14.5245 -1.51475
-15.8642 -15.3632 -1.31208
-16.7077 -14.3445 -2.11809
-14.3334 -16.1847 -0.920317
-16.6615 -14.2938 -2.15876
-14.1974 -16.2843 -0.938187
-17.5448 -13.8187 -2.67951
-19.2431 -13.8443 -3.39347
-16.5854 -14.3323 -2.52094
-15.0181 -16.0955 -1.91538
-15.1968 -15.9964 -2.0329
-15.041 -16.1198 -2.04329
-14.883 -16.2184 -2.02548
-17.3892 -14.4129 -3.79776
-16.5389 -15.6373 -3.53919
-16.9571 -15.5338 -3.88904
-15.3567 -16.2716 -3.05408
-14.4217 -16.7224 -2.79629
-14.1489 -15.1675 2.10276
-14.6364 -15.1454 1.75306
-14.3264 -15.3681 1.70981
-14.5372 -15.2418 1.65888
-15.3981 -14.7743 1.49394
-15.4754 -14.7235 1.4747
-15.523 -12.4878 0.504433
-15.8192 -11.8298 0.124968
-15.5874 -12.2279 0.275805
-14.4475 -15.3775 1.4336
-14.184 -15.5386 1.49409
-15.567 -14.7753 1.10407
-14.1351 -15.6062 1.30204
-14.693 -15.3213 1.13342
-15.4237 -14.2414 0.35626
-16.7574 -13.7438 -0.148965
-15.1566 -15.2724 0.352543
-17.1764 -13.5724 -0.466586
-14.3724 -15.7554 0.396204
-15.6647 -15.1301 -0.0542012
-15.3774 -15.2473 -0.0112054
-14.5031 -15.7474 0.155578
-14.4587 -15.8805 -0.06173
-17.9348 -13.4069 -1.79448
-17.7063 -13.5359 -1.74267
-17.4153 -13.8597 -1.60792
-15.7201 -15.3519 -0.997342
-17.8004 -13.6661 -2.41272
-17.6257 -13.7237 -2.3672
-17.8121 -13.6906 -2.4454
-17.3351 -14.0863 -2.35486
-19.4788 -13.716 -3.4557
-15.089 -15.8676 -1.46993
-16.3468 -14.6265 -2.89434
-16.3976 -14.5315 -3.00322
-17.1048 -14.2511 -3.5567
-14.407 -16.5545 -2.20638
-17.6443 -15.0051 -4.16606
-14.9022 -16.3361 -2.60463
-14.8825 -16.4962 -2.9306
-14.0498 -15.2094 2.18773
-14.0948 -15.1788 2.08129
-14.051 -15.2336 2.07272
-15.5267 -13.5959 1.48728
-15.1421 -14.6717 1.75618
-15.2818 -14.8669 1.48391
-15.1699 -14.9568 1.26295
-15.0715 -15.0632 1.28342
-15.0363 -15.1221 1.07991
-14.1819 -15.6268 1.28236
-16.1422 -13.4045 0.351738
-14.8079 -15.2619 1.10111
-15.0824 -15.1126 1.04578
-15.2339 -15.0434 1.00434
-16.4964 -13.4937 0.286222
-16.0706 -13.8093 0.195655
-14.5755 -15.5564 0.643909
-14.5524 -15.5604 0.599917
-14.2185 -15.7664 0.665475
-15.1945 -15.3083 0.231114
-16.5395 -14.2883 -0.415318
-14.4332 -15.8963 -0.122438
-15.3513 -15.421 -0.469651
-16.616 -14.1426 -1.4532
-16.6161 -14.5745 -1.45237
-17.1189 -14.1213 -1.84064
-17.6759 -13.8115 -2.42185
-17.5682 -13.8757 -2.59861
-16.1537 -15.5683 -2.56419
-17.3988 -14.4572 -3.75881
-14.2746 -16.8145 -2.75269
-15.7532 -11.7313 0.583657
-14.2146 -15.5707 1.89159
-15.5627 -14.609 1.56754
-14.1969 -15.561 1.86356
-15.5966 -14.6879 1.5732
-15.5121 -14.6909 1.41594
-16.0507 -13.3437 0.368477
-16.0166 -13.5283 0.416936
-15.0028 -15.1758 1.03861
-17.1802 -13.5637 -0.557098
-17.0098 -13.7462 -0.511593
-13.955 -15.3353 2.32338
-14.1137 -15.2123 2.16263
-15.8263 -13.3949 0.495345
-15.5034 -14.958 0.528853
-15.022 -15.4567 0.0933079
-16.5892 -14.4373 -1.3107
-17.4284 -14.0558 -1.91759
-17.6379 -13.8559 -2.52324
-16.212 -14.6758 -1.95538
-14.3547 -15.0431 2.09307
-15.0236 -14.9411 1.62348
-15.6356 -14.6723 1.33547
-15.753 -11.9263 0.0768712
-15.8636 -13.6596 0.663216
-15.471 -15.0529 0.4355
-17.3191 -13.4954 -0.849172
-14.6374 -15.1746 1.63083
-15.1498 -15.1388 0.856534
-17.0317 -13.8996 -0.723889
-16.6321 -14.8883 -2.59353
-14.3993 -16.6072 -2.40084
-15.4177 -16.1142 -2.83572
-14.5874 -16.4878 -2.39585
-15.6752 -15.9756 -2.91907
-16.173 -15.7286 -3.1637
-15.5681 -16.0388 -2.82735
-15.456 -16.083 -2.77006
-16.218 -15.6949 -3.15281
-16.1166 -15.7423 -3.05877
-16.7033 -15.4674 -3.31868
-16.3972 -15.5857 -3.1493
-15.0689 -16.2123 -2.47968
-16.3062 -15.6367 -3.0984
-16.2958 -15.6429 -3.08928
-16.4902 -15.5247 -3.1381
-15.3666 -16.0648 -2.57041
-15.9543 -15.7706 -2.8503
-14.4872 -16.471 -2.09918
-15.9051 -15.7927 -2.80493
-16.2529 -15.6362 -2.97342
-15.4056 -16.0404 -2.52871
-15.4028 -16.021 -2.44317
-15.9402 -15.7325 -2.68473
-16.1415 -15.6328 -2.76785
-16.0004 -15.6989 -2.69268
-15.5213 -15.9436 -2.45255
-16.1346 -15.6347 -2.7484
-15.9268 -15.7257 -2.62922
-14.5766 -16.3717 -1.97672
-15.8774 -15.7542 -2.58036
-15.5004 -15.9062 -2.32927
-18.7549 -14.3113 -3.85975
-15.2574 -16.0207 -2.18501
-15.5952 -15.8549 -2.34383
-14.8821 -16.1982 -1.99333
-14.3395 -16.4246 -1.70866
-14.2809 -16.4544 -1.68031
-16.4895 -15.3885 -2.70553
-16.2933 -15.4828 -2.59852
-14.8996 -16.1679 -1.92901
-15.1125 -16.0586 -2.01981
-16.4736 -15.3765 -2.63969
-14.9089 -16.1455 -1.89944
-16.3365 -15.4316 -2.53167
-16.338 -15.4358 -2.51826
-16.369 -15.4148 -2.51864
-15.8739 -15.6424 -2.25313
-14.7893 -16.1478 -1.73382
-14.9722 -16.065 -1.80662
-16.0996 -15.5426 -2.2904
-16.5088 -15.291 -2.45624
-14.1246 -17.6198 -1.09616
-16.2658 -15.3979 -2.28842
-15.911 -15.5785 -2.12241
-15.374 -15.8361 -1.85453
-15.3902 -15.8322 -1.85285
-15.5986 -15.7095 -1.94048
-15.8208 -15.6103 -2.03467
-15.2928 -15.88 -1.79063
-15.2709 -15.877 -1.76132
-18.9892 -14.0321 -3.36719
-19.1823 -13.9122 -3.45057
-19.1791 -13.8951 -3.34508
-19.382 -13.7927 -3.41193
-19.5051 -13.7069 -3.44147
-16.019 -15.4634 -1.91382
-16.0026 -15.4674 -1.90445
-15.7103 -15.5908 -1.77107
-15.7059 -15.5958 -1.76094
-16.0445 -15.4218 -1.86396
-15.188 -15.8368 -1.48335
-14.2922 -16.2579 -1.06779
-16.066 -15.3632 -1.77491
-15.7162 -15.5532 -1.60668
-15.4728 -15.6735 -1.49574
-17.7131 -13.7586 -2.60863
-15.715 -15.5493 -1.59324
-15.7347 -15.5254 -1.54725
-15.8017 -15.4742 -1.55699
-15.8718 -15.4463 -1.56811
-14.0374 -17.3033 -0.592143
-17.8052 -13.6905 -2.53107
-16.185 -15.2762 -1.67174
-16.1595 -15.2724 -1.64932
-15.8762 -15.3937 -1.47082
-15.5155 -15.5001 -1.11136
-19.2499 -13.5601 -2.44262
-15.0573 -15.7228 -0.842154
-14.959 -15.7687 -0.776124
-14.947 -15.7702 -0.768984
-18.4398 -13.5754 -2.14466
-18.4391 -13.5799 -2.12362
-15.7306 -15.3264 -0.981866
-18.4433 -13.5545 -2.04947
-18.5076 -13.3452 -2.07591
-15.3394 -15.498 -0.735257
-17.4644 -13.8286 -1.62523
-15.3204 -15.4937 -0.672072
-15.5584 -15.3702 -0.691302
-17.0528 -13.9798 -1.21768
-18.8085 -13.2253 -1.71593
-18.8151 -13.2042 -1.70753
-15.5215 -15.2926 -0.452509
-16.1936 -14.5918 -0.777902
-15.1553 -15.4886 -0.309743
-15.1436 -15.4919 -0.300595
-16.9083 -14.0301 -1.05119
-15.2255 -15.4377 -0.287291
-17.3166 -13.7933 -1.14018
-16.9258 -13.9793 -0.969033
-17.3938 -13.5861 -1.14817
-14.3923 -15.8442 0.0432238
-17.3525 -13.623 -1.09738
-17.3677 -13.5979 -1.09582
-17.3189 -13.6747 -1.05778
-17.3625 -13.6001 -1.07803
-16.5083 -14.381 -0.672241
-15.4853 -15.2349 -0.188659
-14.2958 -15.8632 0.19996
-17.4284 -13.7019 -0.924551
-14.5846 -15.6922 0.140718
-16.4447 -14.2467 -0.571282
-16.4325 -14.2429 -0.553715
-16.46 -14.2308 -0.546875
-16.4795 -14.2223 -0.551127
-15.0659 -15.4419 0.0611815
-15.1448 -15.3981 0.0395863
-16.4538 -14.2518 -0.500593
-14.8937 -15.5298 0.127222
-17.3014 -13.3946 -0.837302
-18.447 -13.2643 -1.00392
-14.6044 -15.6406 0.285434
-16.9348 -13.8637 -0.564129
-17.0908 -13.7388 -0.474779
-17.8793 -13.3022 -0.689443
-17.4295 -13.371 -0.615331
-18.0296 -13.2186 -0.724868
-15.336 -15.1536 0.358926
-14.4943 -15.5863 0.669123
-15.4321 -15.0897 0.428838
-15.3868 -15.1078 0.451556
-15.521 -15.0004 0.494062
-14.9887 -15.2875 0.630806
-14.2511 -16.502 1.23829
-16.6043 -13.5335 0.0434924
-16.4241 -13.6276 0.087428
-16.8193 -13.3903 0.0248162
-17.854 -12.8142 -0.227342
-16.7667 -13.4215 0.0472939
-14.9568 -15.268 0.828856
-17.8693 -12.8047 -0.220379
-17.9382 -12.7643 -0.235433
-15.1509 -15.1537 0.789989
-16.4078 -13.6138 0.159018
-15.0479 -15.2152 0.8249
-14.6482 -15.432 0.923227
-16.9393 -13.3164 0.0387119
-15.5439 -14.9074 0.763443
-17.7632 -12.8337 -0.0936889
-16.9515 -13.2831 0.118716
-15.9226 -13.8489 0.370296
-17.5282 -12.9596 -0.0104048
-15.4942 -14.9097 0.889016
-15.5417 -14.7878 1.19043
-15.1166 -14.9693 1.36815
-15.659 -13.7994 0.978695
-15.7087 -13.77 0.991049
-14.5968 -15.2347 1.59714
-15.6889 -13.7576 1.06348
-15.7368 -11.8522 0.328229
-15.5689 -12.2869 0.528514
-16.113 -11.5843 0.422014
-15.5945 -12.1698 0.667688
-15.6122 -13.573 1.47264
-14.0098 -16.7973 -2.23526
-14.4331 -16.5935 -2.3931
-13.9764 -16.7959 -2.11366
-14.5643 -16.4883 -2.35209
-14.5119 -16.5069 -2.32095
-16.0218 -15.7963 -3.05305
-15.5291 -16.0447 -2.7975
-13.979 -16.7438 -2.00689
-14.843 -16.3403 -2.4121
-14.7474 -16.3797 -2.34889
-14.9292 -16.286 -2.42013
-16.2161 -15.6723 -3.03536
-15.0278 -16.2312 -2.42923
-15.9706 -15.8395 -2.88582
-14.138 -16.6416 -1.96955
-16.6355 -15.441 -3.20871
-16.0156 -15.7479 -2.89242
-16.2231 -15.6488 -2.99374
-15.9381 -15.7669 -2.80963
-13.9956 -16.6863 -1.8168
-16.1283 -15.6488 -2.81642
-14.4061 -16.4803 -1.95931
-16.2617 -15.5707 -2.84808
-15.4483 -15.9792 -2.45024
-14.7268 -16.3227 -2.08818
-14.6001 -16.3591 -1.96496
-16.1263 -15.6133 -2.67848
-16.2706 -15.5287 -2.68298
-15.6477 -15.818 -2.35036
-14.9154 -16.1514 -1.97839
-14.9237 -16.1551 -1.96056
-14.8549 -16.1646 -1.92283
-14.8788 -16.1611 -1.9276
-19.2586 -14.0109 -3.96675
-14.926 -16.1418 -1.90458
-15.1839 -16.0022 -1.96423
-14.9118 -16.1104 -1.83673
-14.4377 -16.332 -1.58679
-14.3466 -16.3822 -1.53038
-15.4878 -15.8304 -2.04849
-15.7103 -15.7058 -2.1426
-15.2633 -15.9162 -1.90456
-16.003 -15.5506 -2.23616
-16.101 -15.4867 -2.2128
-16.1831 -15.4447 -2.21917
-14.2008 -16.369 -1.23446
-15.2311 -15.8717 -1.66762
-14.442 -16.2555 -1.32121
-14.3227 -16.3026 -1.22836
-19.202 -13.855 -3.3155
-15.9463 -15.5017 -1.9056
-14.5958 -16.1655 -1.3098
-14.6031 -16.1541 -1.29035
-14.8609 -16.0106 -1.3726
-16.0567 -15.4098 -1.86061
-14.9175 -15.9674 -1.3801
-15.176 -15.8413 -1.46776
-17.5854 -13.8302 -2.65936
-15.0818 -15.8834 -1.3999
-15.1414 -15.8512 -1.41798
-15.0979 -15.8771 -1.39556
-16.7852 -14.245 -2.27245
-15.8188 -15.4959 -1.6842
-17.6175 -13.7946 -2.60262
-15.3766 -15.7194 -1.45841
-16.0716 -15.3574 -1.72244
-14.0214 -16.3702 -0.865558
-17.8044 -13.6938 -2.54282
-14.9638 -15.8656 -1.14814
-19.408 -13.5908 -2.94046
-14.5333 -16.0394 -0.824749
-15.921 -15.3261 -1.32422
-14.6759 -15.9392 -0.788461
-14.4777 -16.0453 -0.704924
-17.2495 -14.0648 -1.88585
-14.0532 -16.2268 -0.493939
-17.6305 -13.8425 -1.95658
-18.442 -13.5963 -2.18656
-15.5698 -15.4427 -1.00784
-14.944 -15.7594 -0.743484
-15.505 -15.4561 -0.881783
-16.1437 -15.1101 -1.10295
-18.523 -13.453 -1.88021
-16.4276 -14.5552 -0.999285
-16.7892 -14.1182 -1.16073
-16.5673 -14.4633 -1.00987
-18.789 -13.2428 -1.77347
-17.04 -13.9824 -1.22764
-14.4659 -15.8795 -0.161653
-14.8127 -15.6905 -0.252339
-14.851 -15.6665 -0.242593
-14.4912 -15.8426 -0.119291
-14.9127 -15.6245 -0.237774
-14.4249 -15.8957 -0.0687543
-14.7011 -15.7212 -0.150127
-15.5829 -15.2579 -0.439218
-15.4624 -15.3003 -0.337954
-16.9519 -13.9708 -0.964603
-17.8282 -13.4809 -1.18352
-14.0834 -15.9929 0.200004
-15.6399 -14.6518 -0.442807
-14.503 -15.757 0.14106
-15.4479 -15.2484 -0.146244
-16.399 -14.3292 -0.567484
-14.5749 -15.7013 0.135027
-15.047 -15.4608 -0.00211453
-18.5597 -13.2332 -1.19509
-17.4451 -13.744 -0.860135
-17.4349 -13.7232 -0.851028
-15.1551 -15.3953 0.0246382
-17.0664 -13.8256 -0.74206
-14.1665 -15.8887 0.356663
-16.7514 -14.1981 -0.524351
-15.2103 -15.3505 0.0518973
-17.2656 -13.4723 -0.821229
-16.7657 -14.1907 -0.520544
-14.6958 -15.5849 0.266515
-17.2454 -13.4004 -0.744731
-14.9186 -15.4633 0.233759
-14.7123 -15.5675 0.29539
-14.6926 -15.577 0.306702
-14.6352 -15.608 0.325292
-14.4274 -15.7281 0.397962
-17.947 -13.3057 -0.805312
-15.2735 -15.2768 0.187477
-17.1114 -13.6137 -0.577439
-16.5783 -14.235 -0.280927
-17.0361 -13.765 -0.442814
-17.9774 -13.2463 -0.718634
-17.4471 -13.3595 -0.617019
-14.753 -15.4986 0.395723
-14.1678 -15.8245 0.574733
-15.1289 -15.2951 0.320297
-14.643 -15.548 0.489862
-18.4865 -13.1479 -0.652093
-14.17 -15.7936 0.658613
-15.3243 -15.1633 0.357099
-17.7467 -13.275 -0.502417
-14.5897 -15.5441 0.618844
-14.7201 -15.487 0.593394
-15.0327 -15.2904 0.502126
-15.056 -15.2898 0.501738
-15.6516 -14.9652 0.391506
-15.3856 -15.0943 0.466861
-14.7147 -15.4341 0.706206
-15.4647 -15.039 0.520331
-14.7816 -15.3957 0.699561
-15.084 -15.176 0.719897
-17.5229 -13.0146 -0.187642
-15.3842 -14.1936 0.370916
-15.7085 -14.007 0.298671
-17.8383 -12.8254 -0.236549
-15.6512 -14.0365 0.321338
-17.3992 -13.0704 -0.11225
-15.6971 -14.0114 0.314048
-16.2714 -13.6908 0.178268
-15.625 -14.8924 0.668138
-14.9739 -15.2566 0.840338
-16.9595 -13.3053 0.0242908
-15.6299 -14.8801 0.687021
-15.5477 -14.9299 0.711485
-17.4928 -13.0044 -0.079726
-16.4061 -13.5916 0.233727
-16.3985 -13.6032 0.246101
-16.4185 -13.5823 0.245514
-16.6377 -13.4576 0.195388
-16.0895 -13.762 0.335963
-16.628 -13.4593 0.210914
-15.4653 -14.104 0.490648
-16.5637 -13.4914 0.228419
-15.1705 -15.0753 0.96881
-14.4825 -15.4519 1.12788
-14.6488 -15.3475 1.1541
-14.633 -15.3596 1.16835
-15.3484 -14.9407 1.01636
-14.137 -15.6052 1.29871
-15.3513 -14.9332 1.02881
-14.3994 -15.4698 1.2634
-15.1975 -15.0118 1.09018
-15.0092 -15.1057 1.17614
-14.4323 -15.4193 1.36291
-15.5142 -14.816 1.15427
-14.922 -15.1315 1.28118
-15.5421 -14.7936 1.17606
-15.0008 -15.0662 1.31728
-14.6278 -15.2529 1.44645
-14.6609 -15.2133 1.52284
-14.4956 -15.3094 1.56398
-15.8491 -13.6742 0.985756
-14.5208 -15.2726 1.62382
-14.9793 -15.0014 1.53555
-15.5718 -13.834 1.06994
-15.0674 -14.9453 1.52639
-14.3255 -15.3778 1.68444
-15.481 -13.864 1.14181
-14.3367 -15.3578 1.7262
-14.9707 -15.003 1.62122
-15.3128 -14.8036 1.55937
-15.5862 -12.2213 0.449062
-15.0747 -14.9318 1.61961
-15.5762 -12.2562 0.473919
-14.7207 -15.1164 1.72246
-14.7273 -15.0996 1.74507
-15.571 -12.2588 0.553382
-15.456 -12.3307 0.923551
-14.6991 -16.5098 -2.57661
-15.5725 -16.0414 -2.86056
-15.3819 -16.1082 -2.73251
-15.9405 -15.8184 -2.92334
-14.6951 -16.3826 -2.24564
-15.9809 -15.7969 -2.88638
-15.7847 -15.8695 -2.78785
-15.0213 -16.2408 -2.39503
-14.9532 -16.2439 -2.3641
-16.2517 -15.6401 -3.00858
-15.9831 -15.7508 -2.85771
-16.3513 -15.5893 -3.03051
-16.01 -15.7357 -2.86201
-16.1873 -15.6588 -2.93489
-14.0028 -16.6816 -1.83354
-15.8681 -15.7933 -2.71953
-14.728 -16.3409 -2.15149
-16.0503 -15.6753 -2.7364
-16.5606 -14.4369 -3.11018
-16.3456 -15.4723 -2.72302
-16.2166 -15.5508 -2.62975
-15.9735 -15.6489 -2.46231
-14.8627 -16.1468 -1.88276
-14.5504 -16.2795 -1.66066
-14.7478 -16.1582 -1.67403
-15.9805 -15.5385 -2.14946
-19.1183 -13.9459 -3.45991
-19.0675 -13.9649 -3.42289
-19.0782 -13.9661 -3.36945
-14.5261 -16.2087 -1.34546
-15.8519 -15.5741 -1.90693
-14.5575 -16.1973 -1.34812
-19.539 -13.6734 -3.43859
-16.7032 -14.3186 -2.32959
-15.858 -15.4915 -1.77391
-14.8982 -15.9702 -1.36092
-15.872 -15.4335 -1.58791
-15.8747 -15.4234 -1.53268
-15.3944 -15.6547 -1.28264
-16.538 -14.6933 -1.80995
-15.069 -15.802 -1.12189
-16.6314 -14.6568 -1.76872
-14.1623 -16.218 -0.67601
-15.8437 -15.3702 -1.33025
-15.948 -15.2913 -1.30055
-17.4356 -13.9792 -1.98391
-17.3281 -14.0333 -1.9449
-14.856 -15.7988 -0.699765
-15.4832 -15.4705 -0.876847
-15.4828 -15.4565 -0.857929
-15.139 -15.6131 -0.691974
-15.3743 -15.468 -0.641904
-14.4288 -15.8939 -0.13514
-14.8313 -15.6788 -0.251205
-14.4481 -15.8761 -0.111717
-14.594 -15.7823 -0.132968
-15.5429 -15.2715 -0.438296
-16.6123 -14.3891 -0.860435
-18.5307 -13.3695 -1.48373
-15.4684 -15.2968 -0.327472
-15.636 -15.1833 -0.329366
-16.4802 -14.3892 -0.648548
-18.0535 -13.3447 -1.21605
-16.5351 -14.3486 -0.665782
-15.4152 -15.2866 -0.19866
-16.5425 -14.3233 -0.665308
-15.054 -15.4747 -0.0559543
-14.3602 -15.8302 0.170003
-17.4345 -13.7014 -0.911336
-16.4403 -14.2616 -0.594101
-16.3915 -14.3474 -0.508487
-16.4023 -14.3193 -0.515171
-15.6321 -15.1221 -0.11283
-17.0744 -13.8133 -0.721801
-16.9153 -13.907 -0.672608
-14.4678 -15.7466 0.258006
-14.8231 -15.5298 0.186119
-14.2553 -15.8181 0.42277
-15.2216 -15.3148 0.150356
-15.1975 -15.3101 0.170678
-14.869 -15.4847 0.26644
-15.5264 -15.1192 0.0991843
-15.2114 -15.3013 0.210808
-17.1565 -13.529 -0.591977
-15.232 -15.2763 0.219762
-17.1534 -13.5569 -0.568492
-15.2587 -15.2643 0.224215
-15.6898 -14.5079 -0.0509666
-15.5277 -15.1276 0.181391
-15.7744 -14.4572 -0.059459
-17.1418 -13.6502 -0.468776
-14.416 -15.6644 0.574049
-18.0258 -13.1762 -0.591674
-18.0093 -13.1904 -0.582717
-17.9492 -13.2226 -0.568143
-14.5414 -15.5885 0.574071
-17.9816 -13.1998 -0.563447
-15.5116 -15.0489 0.373531
-14.4996 -15.5887 0.657654
-15.4844 -15.0273 0.508157
-14.6969 -15.4381 0.723352
-15.5314 -14.9566 0.567885
-15.5765 -14.9271 0.594974
-15.4003 -14.1943 0.330702
-15.4017 -14.1885 0.355387
-15.838 -13.9422 0.247728
-15.6284 -14.0616 0.30329
-15.7409 -13.9984 0.286387
-16.8511 -13.3778 0.0126531
-15.5106 -14.1168 0.363127
-15.654 -14.8722 0.644989
-15.6461 -14.8762 0.671493
-15.9599 -13.8611 0.294291
-14.6012 -15.4493 0.950741
-15.4238 -14.1458 0.45881
-14.8951 -15.2608 0.909588
-15.4234 -14.1347 0.48398
-16.7979 -13.3768 0.154495
-15.6916 -14.002 0.43436
-16.0281 -13.7928 0.354278
-15.4365 -14.125 0.497532
-15.4218 -14.938 0.862651
-15.4292 -14.9258 0.922927
-15.3983 -14.9375 0.93069
-15.2112 -15.0443 1.00326
-15.3068 -14.9639 1.03301
-15.2508 -14.9948 1.08509
-14.1997 -15.5378 1.38128
-15.0047 -15.0951 1.22872
-15.3802 -14.8886 1.18891
-15.4125 -14.8698 1.18847
-14.8413 -15.1864 1.31253
-15.3259 -14.9205 1.21542
-15.4376 -14.8516 1.19145
-15.5228 -14.8046 1.18279
-15.6721 -13.8466 0.829674
-15.1454 -14.9688 1.32277
-14.9247 -15.0824 1.40973
-15.5298 -13.8936 0.950799
-14.7624 -15.149 1.50007
-15.5885 -13.8469 0.985174
-14.8159 -15.123 1.50122
-15.5902 -14.6796 1.38029
-15.7673 -13.7321 1.02141
-14.7337 -15.1446 1.58529
-15.7462 -13.7312 1.03631
-15.7617 -13.7168 1.03688
-14.7053 -15.1533 1.60959
-15.4189 -14.7473 1.50705
-14.8103 -15.0931 1.6199
-15.0562 -14.9581 1.59251
-14.3177 -15.3663 1.73304
-15.0659 -14.9294 1.63375
-15.161 -14.8764 1.63328
-14.4087 -15.2978 1.7919
-15.61 -12.0927 0.46406
-15.8755 -11.7613 0.349572
-14.7419 -15.0813 1.76016
-15.5087 -12.498 0.677183
-16.4517 -11.4086 0.29223
-15.5265 -14.4686 1.65579
-15.5821 -12.1639 0.620407
-15.5525 -14.4482 1.66244
-14.8391 -14.8348 1.83238
-14.7081 -16.5027 -2.6347
-14.6882 -16.5113 -2.59179
-15.1587 -16.2536 -2.74241
-15.251 -16.1984 -2.73236
-15.5739 -16.0334 -2.88732
-15.3507 -16.1138 -2.70048
-15.8688 -15.8506 -2.90185
-15.9761 -15.7554 -2.83553
-16.1653 -15.5905 -2.63415
-16.3156 -15.5003 -2.67363
-17.2329 -14.2174 -3.25207
-15.8916 -15.6958 -2.42772
-16.094 -15.5833 -2.47898
-14.9513 -16.1325 -1.91367
-15.0262 -16.0829 -1.91189
-14.4447 -16.3183 -1.54526
-15.4303 -15.8352 -1.95741
-14.9358 -16.0949 -1.73013
-15.8675 -15.613 -2.10108
-15.9036 -15.5951 -2.09952
-16.0037 -15.5377 -2.13361
-19.3887 -13.7885 -3.43342
-16.1048 -15.4262 -1.99959
-16.9225 -14.2031 -2.44586
-16.7186 -14.3043 -2.33649
-16.0705 -15.4024 -1.88294
-16.0318 -15.4266 -1.86919
-15.1979 -15.8301 -1.46651
-14.9817 -15.9535 -1.35795
-17.6098 -13.8212 -2.62846
-15.9198 -15.4416 -1.7041
-17.8551 -13.7006 -2.68984
-15.8214 -15.4872 -1.64973
-16.0365 -15.3774 -1.70771
-19.5373 -13.623 -3.13245
-15.2908 -15.7393 -1.38395
-15.7259 -15.5258 -1.52937
-16.1601 -15.2848 -1.6746
-16.159 -15.2806 -1.65169
-17.8631 -13.6527 -2.48916
-14.6028 -16.0537 -0.988769
-15.4258 -15.6461 -1.22221
-17.6921 -13.7202 -2.25613
-17.4099 -13.9956 -2.01101
-17.2545 -14.0744 -1.94102
-17.2468 -14.0769 -1.9113
-17.6928 -13.8245 -2.05197
-17.5664 -13.891 -1.9675
-17.1616 -14.0947 -1.78335
-17.1218 -14.0962 -1.74684
-15.2604 -15.4896 -0.508422
-14.3337 -15.9599 -0.16643
-17.8205 -13.5565 -1.42109
-14.5218 -15.8296 -0.143387
-16.5308 -14.4474 -0.903371
-16.4599 -14.4711 -0.821038
-16.3588 -14.5345 -0.775624
-15.2662 -15.4281 -0.315116
-15.1181 -15.517 -0.23961
-15.2159 -15.449 -0.273607
-16.5383 -14.3571 -0.68625
-18.5245 -13.2513 -1.17942
-17.0362 -13.8389 -0.730084
-16.3014 -14.4519 -0.405008
-14.5935 -15.6641 0.222292
-18.0418 -13.2842 -0.957581
-16.95 -13.8077 -0.457006
-15.3486 -15.2201 0.206797
-17.213 -13.4331 -0.583405
-15.382 -15.1943 0.210073
-17.1278 -13.7079 -0.457569
-17.4668 -13.3406 -0.614999
-16.2994 -14.3695 -0.11806
-14.9171 -15.3887 0.415032
-16.9441 -13.784 -0.326293
-14.1763 -15.7841 0.671132
-17.7132 -13.2849 -0.513157
-14.5073 -15.5999 0.584648
-14.2397 -15.7481 0.664272
-14.4506 -15.6154 0.613065
-14.4876 -15.6016 0.613103
-14.4853 -15.563 0.737596
-14.7434 -15.4189 0.708306
-15.4323 -14.1802 0.314575
-15.8446 -13.9486 0.221477
-15.3504 -15.0707 0.688466
-16.7339 -13.4504 0.0247978
-16.2822 -13.6952 0.140698
-15.7417 -13.9927 0.283907
-15.4933 -14.957 0.660957
-15.4634 -14.9887 0.678542
-17.7548 -12.865 -0.206511
-15.0159 -15.2437 0.825836
-15.7077 -14.0069 0.336021
-15.6566 -14.03 0.348784
-16.3706 -13.6202 0.230435
-15.5529 -14.8947 0.760265
-16.246 -13.6833 0.29306
-14.7875 -15.2991 0.98228
-15.4109 -14.9321 0.899631
-15.2999 -14.9945 0.976061
-17.7175 -12.6744 0.0543182
-14.6786 -15.3195 1.18404
-15.4455 -14.8478 1.15052
-15.3013 -14.8434 1.40734
-15.0483 -14.9854 1.4547
-15.3536 -14.7967 1.441
-15.4846 -14.7373 1.48623
-15.395 -14.7655 1.5448
-15.3128 -14.7938 1.5811
-15.39 -14.753 1.57491
-15.3882 -14.7383 1.59749
-16.1387 -11.6061 0.266394
-15.5882 -12.168 0.598688
-14.1979 -15.1149 2.17955
-14.9967 -16.2417 -2.36433
-16.6492 -15.4451 -3.17375
-14.2992 -16.5177 -1.84277
-16.1488 -15.6184 -2.71653
-16.2877 -15.5374 -2.74556
-16.1754 -15.553 -2.59142
-15.8119 -15.7303 -2.39747
-15.7669 -15.7461 -2.34911
-15.8226 -15.7337 -2.37555
-15.8728 -15.6071 -2.12314
-16.7723 -14.2558 -2.4478
-16.7288 -14.2815 -2.42557
-17.981 -13.7241 -2.89362
-16.7411 -14.2925 -2.21425
-16.7885 -14.2686 -2.22702
-16.2056 -15.2571 -1.68676
-16.195 -15.2553 -1.65384
-14.4165 -16.1429 -0.918939
-14.5886 -16.066 -0.952872
-14.8086 -15.8807 -0.821427
-14.8091 -15.8708 -0.793151
-17.5137 -13.9422 -1.95184
-15.7247 -15.3795 -0.996218
-15.491 -15.4327 -0.786144
-14.805 -15.7828 -0.519441
-17.5101 -13.6599 -1.36583
-17.4651 -13.6277 -1.30863
-14.5616 -15.7993 -0.119828
-16.4006 -14.4123 -0.580645
-14.3918 -15.8139 0.171402
-17.0264 -13.8711 -0.806767
-17.0409 -13.8375 -0.705648
-14.8903 -15.5182 0.127144
-18.476 -13.224 -0.966829
-15.3165 -15.2452 0.118714
-17.1968 -13.4061 -0.642157
-15.4562 -15.1569 0.202011
-15.4444 -15.1528 0.229985
-15.223 -15.2359 0.325929
-15.6759 -14.4804 0.0430738
-15.2535 -15.2133 0.356108
-15.3025 -15.1698 0.383839
-16.4137 -13.635 0.0814643
-15.2714 -15.1019 0.707441
-15.5668 -14.9195 0.63183
-15.5644 -14.9275 0.660175
-15.037 -15.0824 1.15914
-15.3367 -14.9226 1.19048
-14.6884 -15.2533 1.37426
-15.4463 -13.9544 0.885043
-15.5301 -14.7718 1.24101
-14.2992 -15.4368 1.52803
-15.9525 -13.6492 0.859476
-15.3565 -14.8314 1.35046
-15.4802 -14.7536 1.336
-15.3114 -14.8299 1.51133
-15.9434 -13.5925 1.0413
-15.4939 -13.8595 1.14042
-15.4843 -14.7136 1.52175
-15.358 -14.7783 1.54568
-15.4656 -13.8727 1.16685
-15.908 -13.6087 1.08572
-14.9096 -15.0281 1.65653
-15.7268 -13.6994 1.16536
-14.2492 -15.1445 1.9836
-15.6339 -13.5631 1.47422
-15.439 -12.3933 0.950472
-15.284 -16.1718 -2.71048
-16.2239 -14.7546 -2.92353
-16.3759 -14.5535 -3.00392
-19.01 -14.1891 -3.97359
-14.3879 -16.3659 -1.56383
-19.1979 -13.8618 -3.33851
-14.9659 -15.9568 -1.40085
-15.8785 -15.3579 -1.32591
-16.7134 -14.5047 -1.49049
-15.4913 -15.4156 -0.729868
-15.4183 -15.4481 -0.653661
-15.5877 -14.6361 -0.855534
-15.2972 -15.4002 -0.272715
-17.9386 -13.4035 -1.17645
-16.4004 -14.3577 -0.58295
-14.4412 -15.7653 0.252909
-18.0244 -13.3076 -1.00333
-15.252 -15.2965 0.104474
-17.193 -13.496 -0.568314
-14.8574 -15.4238 0.420751
-15.6407 -14.4847 0.0681137
-15.2902 -15.1743 0.422441
-15.4634 -15.0633 0.444951
-16.9282 -13.3325 0.00459003
-16.9444 -13.2897 0.123256
-17.2061 -13.1421 0.0582865
-15.834 -13.9053 0.39896
-15.5297 -14.8555 0.93601
-14.7872 -15.2738 1.15269
-14.3715 -15.4298 1.41884
-14.7375 -15.2401 1.36763
-14.9148 -15.1144 1.32514
-15.5364 -14.7552 1.30458
-14.7861 -15.1526 1.44501
-15.3936 -14.8044 1.33937
-15.3164 -14.855 1.36318
-15.4931 -12.5713 0.406473
-15.3568 -14.8172 1.3795
-15.3055 -14.8344 1.46405
-15.4146 -14.7814 1.46907
-15.39 -14.7909 1.50662
-14.8872 -15.0577 1.6491
-15.0173 -14.9491 1.64946
-15.5425 -12.4053 0.646198
-15.6381 -11.9701 0.503375
-15.5741 -12.1865 0.656496
-13.9726 -15.2839 2.03045
-16.263 -14.7139 -2.92985
-16.7862 -14.2879 -3.01616
-17.7838 -13.7418 -3.23654
-17.8088 -13.8184 -2.90041
-15.844 -15.2802 -1.03714
-18.5369 -13.3793 -1.99908
-15.2591 -15.5105 -0.57339
-17.3927 -13.8853 -1.39821
-17.9656 -13.3723 -1.03086
-15.4704 -15.0023 0.547117
-15.4838 -14.9071 0.816795
-15.2475 -14.9714 1.21455
-14.1402 -16.2478 1.80508
-16.3479 -14.6755 -2.9503
-15.3333 -15.9179 -2.07382
-17.7341 -13.7472 -1.859
-17.3453 -14.0532 -1.65359
-14.6853 -15.7343 -0.187652
-15.5117 -15.2836 -0.342993
-17.0534 -13.7437 -0.451133
-16.9749 -13.7754 -0.368526
-15.7157 -14.9676 0.333338
-15.3402 -15.1167 0.482455
-15.9384 -13.8998 0.227972
-15.4989 -14.1274 0.342358
-16.4367 -13.5891 0.194578
-14.805 -15.1134 1.55108
-16.209 -14.6117 -1.57424
-16.5677 -14.5533 -1.3981
-16.9914 -14.0475 -1.30552
-15.7084 -14.4823 -0.0538566
-15.7669 -14.405 0.0851744
-15.6841 -14.0425 0.271012
-16.5688 -13.5091 0.154692
-15.4831 -14.1137 0.420583
-15.4402 -14.8171 1.12313
-14.2172 -15.1018 2.17312
-14.0798 -15.1718 2.20364
-18.4138 -13.5078 -1.83214
-14.9771 -15.2871 0.624621
-15.5172 -14.7688 1.15768
-15.659 -14.6567 1.3654
-17.2767 -13.7853 -0.911324
-17.2693 -14.0444 -2.48617
-17.4429 -13.6786 -0.964101
-17.6116 -13.8408 -1.74228
-18.5944 -13.2846 -1.96682
-15.9245 -13.5935 1.03516
-15.8803 -14.7062 0.274014
-19.7731 -13.8221 -4.34509
-19.1042 -14.1031 -3.88352
-18.7486 -14.3096 -3.8591
-19.1755 -13.8941 -3.34743
-19.1605 -13.9078 -3.34
-17.7701 -13.7475 -3.23926
-19.4404 -13.6022 -2.94823
-19.0927 -13.8425 -3.02317
-17.022 -14.3308 -3.2166
-17.9358 -13.6474 -2.66461
-17.8965 -13.6335 -2.62549
-18.4439 -13.561 -2.11096
-18.4423 -13.5709 -2.08879
-18.4473 -13.5493 -2.07434
-18.799 -13.2315 -1.75821
-18.8083 -13.2272 -1.71743
-18.5105 -13.453 -1.9
-18.4638 -13.4796 -1.89193
-16.7034 -15.4642 -3.31975
-16.8399 -14.2352 -2.44912
-16.5428 -15.5025 -3.18092
-16.5532 -15.4726 -3.0834
-18.4739 -13.409 -1.49625
-16.2682 -15.6767 -3.19753
-16.2944 -15.6446 -3.09356
-16.2969 -15.6426 -3.07655
-16.1844 -15.7204 -3.14523
-18.5143 -13.1221 -1.08701
-18.536 -13.0967 -1.02387
-17.5097 -13.8146 -1.62512
-17.5895 -13.8067 -1.60135
-16.4733 -14.6785 -2.33954
-16.0875 -15.7372 -2.96467
-16.0846 -15.7316 -2.93996
-17.6064 -13.6961 -1.42801
-17.6483 -13.6456 -1.38226
-16.2254 -15.5832 -2.80432
-16.4094 -15.4228 -2.66111
-16.063 -15.6926 -2.8167
-17.4451 -13.5893 -1.2794
-16.2637 -15.5372 -2.66733
-16.3528 -15.4231 -2.5368
-16.3685 -15.414 -2.51904
-15.5966 -16.0849 -3.0739
-16.319 -15.4405 -2.53195
-16.6363 -14.665 -2.00833
-16.0174 -15.698 -2.70323
-16.2087 -15.525 -2.54997
-15.8193 -15.8695 -2.82281
-17.3469 -13.6239 -1.08384
-17.3276 -13.7004 -1.10606
-17.3209 -13.8097 -1.15016
-17.3202 -13.6749 -1.05792
-17.8714 -13.3051 -0.67592
-15.5315 -16.0472 -2.79751
-17.4441 -13.6693 -0.947636
-15.7863 -15.8029 -2.55713
-16.0844 -15.5353 -2.30136
-15.4536 -16.0793 -2.77012
-17.9325 -12.7628 -0.236137
-15.5082 -15.9742 -2.57511
-16.2428 -11.626 0.0327024
-15.7712 -15.7372 -2.31655
-15.2249 -16.1863 -2.70313
-15.3697 -16.0699 -2.58778
-15.5397 -15.937 -2.45172
-16.4897 -14.5856 -1.40919
-16.4725 -14.5924 -1.40343
-15.2943 -16.1024 -2.55687
-16.1237 -11.6732 0.10911
-17.6604 -12.8802 -0.0555122
-16.0206 -15.4663 -1.9151
-16.0071 -15.4139 -1.79587
-16.1155 -15.2942 -1.65963
-17.3139 -13.116 -0.0820376
-17.2986 -13.1261 -0.0902681
-16.9383 -13.8642 -0.565227
-17.0019 -13.7861 -0.473394
-15.2572 -16.0208 -2.18508
-16.0563 -11.6166 0.424283
-15.1174 -16.1025 -2.17937
-15.5189 -15.7073 -1.75786
-16.4729 -14.231 -0.58155
-16.4852 -14.22 -0.567207
-16.4813 -14.2218 -0.553016
-16.9544 -13.2814 0.117615
-16.4453 -14.2374 -0.545421
-14.5644 -16.489 -2.35395
-14.7032 -16.3784 -2.23106
-16.7644 -13.4224 0.0460179
-15.1321 -15.9707 -1.78243
-14.9733 -16.0711 -1.80785
-15.1921 -15.8272 -1.44806
-16.4077 -13.6132 0.159148
-15.5856 -12.2208 0.499773
-15.2744 -15.7046 -1.17791
-16.2057 -13.73 0.192491
-16.0635 -13.8437 0.180784
-15.6388 -14.0489 0.315402
-15.4882 -15.2361 -0.190107
-15.3169 -15.3821 -0.299647
-14.8228 -15.8139 -0.669223
-15.2033 -15.4601 -0.311724
-15.6631 -15.0398 0.126298
-15.086 -15.4348 0.0455157
-14.7965 -15.6493 -0.115059
-14.7675 -15.6618 -0.10236
-15.0635 -15.1888 0.703117
-15.0767 -15.2063 0.813054
-15.1857 -15.0104 1.11645
-14.9719 -15.0059 1.62141
-19.068 -14.1522 -3.97533
-18.7119 -14.347 -3.90848
-17.7217 -13.7573 -2.59295
-18.4447 -13.5999 -2.18728
-18.4626 -13.4895 -1.90526
-16.7137 -15.4067 -3.22596
-18.4908 -13.3975 -1.48096
-18.5637 -13.3198 -1.40718
-18.0244 -13.369 -1.20655
-16.0711 -15.7438 -2.95768
-17.8714 -13.4506 -1.16789
-15.9608 -15.8042 -2.92034
-15.977 -15.7979 -2.90381
-16.0088 -15.7377 -2.86215
-16.1575 -15.5948 -2.70205
-15.569 -16.0838 -3.04518
-17.4366 -13.8099 -1.2998
-17.4308 -13.828 -1.30585
-15.9889 -15.7091 -2.70671
-18.4886 -13.1499 -0.646731
-15.8671 -15.7911 -2.72021
-18.0298 -13.2185 -0.725202
-17.3273 -13.6606 -1.0778
-17.5177 -13.6442 -0.990607
-17.8804 -13.3016 -0.688993
-16.6214 -14.6558 -1.76503
-17.8559 -13.3154 -0.687198
-17.9443 -12.7566 -0.251282
-15.4129 -16.0607 -2.60376
-17.0007 -13.9376 -0.973865
-16.015 -15.4451 -1.88897
-16.1289 -11.6388 0.205728
-15.9698 -11.7632 0.128782
-16.5662 -14.4631 -1.00977
-17.0289 -13.7716 -0.480033
-16.9537 -13.8161 -0.477781
-16.1182 -11.5838 0.421822
-16.4277 -14.5543 -1.00084
-16.9286 -13.8258 -0.44388
-15.9064 -15.4041 -1.57388
-14.7061 -16.4562 -2.51423
-17.1884 -13.1448 0.0592232
-15.7852 -11.8309 0.297585
-15.0757 -16.0948 -2.04912
-16.3067 -14.5524 -0.764604
-15.7677 -11.7806 0.494905
-16.7272 -13.4427 0.0380798
-14.9203 -16.1682 -1.92803
-16.6271 -13.4591 0.210769
-14.5985 -16.358 -1.96613
-15.1751 -15.8406 -1.46902
-16.5791 -13.4759 0.242786
-15.7287 -15.3219 -0.983165
-15.5759 -12.2504 0.471601
-16.4025 -13.5943 0.231748
-16.215 -13.7279 0.18352
-15.5507 -12.3581 0.577559
-14.4936 -16.3126 -1.66624
-16.087 -13.7603 0.335255
-14.5964 -16.1689 -1.3109
-15.711 -14.0096 0.294698
-15.6524 -14.0385 0.321851
-15.2867 -15.4587 -0.473345
-15.4464 -15.2477 -0.150308
-14.83 -15.815 -0.682715
-15.9009 -13.6895 0.856388
-15.7684 -13.7281 1.01779
-15.1536 -15.3961 0.0245678
-15.7446 -13.7312 1.03525
-15.4769 -15.0829 0.34655
-15.7414 -13.7296 1.05178
-14.8491 -15.6589 -0.202184
-15.1006 -15.4282 0.0389131
-15.2065 -15.2984 0.211525
-15.602 -13.8024 1.0869
-15.3664 -15.0791 0.593272
-15.4657 -14.9688 0.740646
-15.4218 -15.0061 0.708212
-15.0591 -15.2877 0.513948
-15.5362 -14.7847 1.19742
-15.4944 -14.8137 1.1907
-15.4185 -14.8707 1.18791
-14.6427 -15.548 0.487368
-15.207 -14.9965 1.10232
-15.1916 -15.0133 1.10319
-15.0739 -15.0558 1.19515
-15.0733 -14.9316 1.61339
-14.8571 -14.839 1.79862
-14.3792 -15.4851 1.2506
-19.2994 -13.946 -3.75949
-19.0554 -13.9727 -3.42354
-19.3742 -13.6703 -3.04044
-17.765 -13.7183 -2.6918
-19.2106 -13.5912 -2.46265
-16.5793 -14.8028 -3.22031
-17.0958 -14.251 -2.75577
-18.461 -13.353 -1.29633
-17.9426 -13.6003 -1.49013
-16.2424 -15.6418 -2.98131
-16.4944 -14.665 -2.34119
-17.1795 -14.0924 -1.82196
-15.8047 -15.8559 -2.78222
-17.5367 -13.2928 -0.644574
-16.795 -14.1248 -1.16503
-16.0647 -15.4019 -1.8793
-15.7501 -15.6792 -2.11395
-15.7019 -15.7086 -2.11266
-17.3081 -13.1284 -0.114477
-17.3448 -13.093 -0.086803
-16.6142 -14.3856 -0.862227
-15.1917 -16.0014 -2.03182
-14.4949 -16.6155 -2.54536
-17.0806 -13.1795 0.169808
-16.3232 -14.5374 -0.753368
-15.2379 -15.9091 -1.80012
-15.6444 -11.6931 0.693855
-15.411 -15.6418 -1.28779
-16.4811 -13.5434 0.224746
-16.4577 -13.551 0.235129
-16.2821 -13.6969 0.136734
-16.3726 -13.6172 0.227897
-15.5362 -15.4594 -0.966032
-16.1884 -13.7519 0.163965
-15.5765 -11.8288 0.911641
-14.935 -15.8789 -1.12388
-16.0258 -13.7921 0.352807
-15.9006 -13.8609 0.374986
-15.7237 -13.9997 0.303447
-15.5116 -14.1193 0.363824
-15.9287 -13.6525 0.898761
-15.4536 -15.1467 0.227828
-14.8519 -15.669 -0.244469
-14.8322 -15.6779 -0.252608
-15.4929 -15.0662 0.371792
-15.479 -15.0768 0.390121
-15.4672 -15.0427 0.520054
-14.8051 -15.5845 0.0818251
-15.3467 -15.0938 0.608031
-14.4558 -15.9013 -0.182835
-14.8708 -15.4849 0.265492
-14.8861 -15.4686 0.290643
-14.4485 -15.8783 -0.113301
-15.6388 -13.5549 1.47222
-15.2818 -14.9667 1.08492
-15.2548 -14.9948 1.08341
-15.2978 -14.9456 1.1563
-14.8071 -15.3616 0.76599
-14.8927 -15.268 0.911881
-14.5193 -15.5457 0.760968
-14.9566 -15.0859 1.32201
-15.0251 -15.0054 1.42768
-15.0685 -14.9464 1.52188
-14.1295 -15.8362 0.592497
-14.923 -15.079 1.40832
-14.1777 -15.7816 0.666178
-14.7239 -15.139 1.61267
-14.3337 -15.3533 1.76024
-14.0761 -15.1624 2.23331
-17.7615 -13.7459 -3.25809
-17.253 -14.2191 -3.25856
-16.8226 -14.7031 -3.40097
-17.6781 -13.7791 -2.27479
-16.7795 -14.2519 -2.28825
-18.0067 -13.4485 -1.46257
-16.6835 -14.3462 -2.18375
-17.6199 -13.7874 -1.60132
-18.458 -13.2748 -1.09873
-17.8582 -13.5429 -1.3596
-16.5113 -15.3098 -2.66711
-18.0678 -13.1852 -0.697541
-17.9148 -13.2673 -0.659734
-16.0572 -15.4527 -2.04791
-16.0728 -15.4403 -1.98509
-15.2946 -16.0242 -2.25729
-15.9218 -15.4411 -1.70757
-14.4292 -16.6521 -2.53405
-16.4781 -14.3762 -0.646886
-15.8816 -15.3619 -1.33888
-16.4374 -14.4047 -0.646517
-15.6113 -14.6061 -0.863164
-14.7464 -16.2586 -1.95592
-14.7192 -16.2975 -1.95922
-16.3259 -14.4702 -0.437025
-15.5595 -11.7243 0.672381
-16.2966 -14.3663 -0.114666
-15.5277 -12.4786 0.545983
-15.5354 -15.3757 -0.71935
-15.8302 -14.3983 0.0298451
-15.2831 -15.4749 -0.508875
-14.9591 -15.725 -0.620433
-14.8117 -15.7842 -0.520127
-14.4897 -15.8478 -0.10353
-15.0352 -15.2904 0.511069
-15.2957 -14.9936 1.02333
-14.6719 -15.5385 0.447598
-15.2531 -15.0007 1.03683
-14.4388 -15.7222 0.346184
-14.911 -15.2853 0.8474
-14.4299 -15.7143 0.402027
-15.4038 -14.7737 1.43495
-15.0493 -14.987 1.45376
-14.6997 -15.2538 1.33287
-14.5245 -15.272 1.63041
-19.0978 -14.084 -3.83636
-19.1105 -14.0545 -3.78984
-16.9328 -14.3339 -3.18042
-16.71 -14.2866 -2.17565
-17.4001 -13.8557 -1.62723
-17.9024 -13.4034 -1.06975
-16.9773 -13.966 -1.00118
-17.7226 -12.8376 -0.0577646
-14.7537 -16.3679 -2.29349
-15.9219 -15.3421 -1.3312
-16.7131 -14.1354 -0.208301
-14.9249 -16.0774 -1.70447
-14.2233 -16.6592 -2.16331
-15.55 -12.3722 0.639335
-14.5957 -16.2059 -1.44323
-15.8241 -13.9352 0.27444
-15.7196 -14.0091 0.269184
-15.8976 -13.6768 0.541098
-15.6515 -15.0979 -0.0502367
-14.5839 -16.0749 -0.94821
-14.809 -15.7852 -0.553908
-15.4821 -15.0903 0.307743
-15.4683 -13.8775 1.12324
-15.2156 -15.0372 1.01055
-15.3479 -14.7961 1.51817
-15.0301 -15.0446 1.31412
-15.0803 -14.9719 1.45366
-14.7456 -15.0811 1.75064
-14.0124 -15.2907 2.00288
-18.4303 -13.6131 -2.34652
-17.6782 -13.6563 -2.37976
-16.7685 -14.2641 -2.46531
-17.419 -14.0345 -2.18068
-16.9646 -14.0324 -1.19398
-16.9793 -13.9986 -1.15246
-17.0079 -13.7712 -0.452053
-17.2059 -13.142 0.0595466
-14.3449 -16.5795 -2.12924
-15.5142 -12.5032 0.471068
-15.6489 -14.5103 0.0179998
-15.4599 -15.0683 0.439997
-14.8292 -15.2801 1.1618
-14.7903 -15.083 1.69673
-13.9768 -15.2843 2.03715
-16.1992 -15.5871 -2.72241
-16.002 -14.9369 -2.21033
-15.3487 -16.2516 -3.06632
-16.3111 -14.6094 -1.50486
-15.6477 -14.6284 -0.428094
-15.5341 -15.3739 -0.692299
-15.808 -13.9376 0.342252
-15.6258 -14.6817 1.38305
-14.9696 -15.0137 1.5309
-14.0022 -15.2294 2.18164
-13.9848 -15.2124 2.25257
-17.4156 -13.8773 -1.27305
-16.2371 -14.7236 -1.93381
-15.6417 -14.698 -0.915231
-16.6483 -13.6493 0.0226508
-16.5056 -13.5473 0.173768
-15.516 -12.529 0.368405
-15.7818 -14.4057 0.0202541
-15.4256 -14.1273 0.507944
-15.2602 -15.2958 0.0974917
-18.5744 -13.1563 -0.929392
-16.5353 -14.2628 -0.309425
-16.4867 -14.6966 -1.89638
-17.2647 -13.9167 -1.12158
-13.9694 -15.4207 2.2177
-18.6116 -13.5195 -2.63977
-15.9607 -13.67 0.841786
-18.6437 -13.2603 -1.94221
-17.4577 -13.1235 -0.313618
-16.7065 -15.1196 -2.33785
-15.7678 -11.7798 0.494654
-19.7778 -13.7747 -4.10819
-19.7743 -13.8208 -4.34568
-19.563 -13.7912 -3.8116
-17.9476 -12.7604 -0.249148
-17.9297 -12.761 -0.236387
-19.3704 -13.6387 -2.97111
-18.538 -13.1027 -1.0654
-17.8718 -12.803 -0.221201
-18.6969 -13.3298 -1.87529
-17.7381 -12.8332 -0.0654317
-18.4735 -13.4704 -2.47204
-19.2175 -13.8824 -3.35125
-19.1713 -13.8913 -3.34761
-18.5119 -13.4523 -1.90051
-19.2735 -14.0455 -4.11263
-19.1527 -13.9013 -3.34
-18.4485 -13.5494 -2.07435
-18.444 -13.5557 -2.05063
-18.4448 -13.569 -2.13027
-18.4431 -13.5699 -2.08826
-19.1043 -14.1005 -3.88463
-17.3781 -13.0735 -0.0958743
-15.5731 -12.3001 0.433834
-17.7697 -13.7475 -3.23978
-18.7874 -14.2906 -3.87253
-18.7827 -14.3004 -3.89279
-17.7187 -13.761 -2.61284
-17.642 -13.6435 -1.36163
-17.6382 -13.652 -1.37805
-17.4042 -13.5943 -1.18467
