-16.047 -17.6541 -0.618065
-18.0609 -16.1276 0.0102206
-17.3986 -16.746 -0.218923
-18.1704 -15.9521 0.0806811
-17.3826 -16.7663 -0.219292
-16.6823 -16.92 -0.300732
-15.2168 -18.028 -0.72779
-18.0649 -16.2322 0.0342929
-14.8087 -19.1723 -1.09948
-14.7711 -19.2187 -1.11121
-15.5415 -17.8823 -0.633648
-17.6403 -16.6542 -0.100802
-17.0054 -16.9583 -0.221244
-17.0363 -16.9343 -0.202707
-17.0211 -16.9529 -0.20073
-14.8724 -18.2047 -0.733629
-17.8484 -16.371 0.0770754
-17.9556 -16.331 0.120446
-14.8099 -18.237 -0.686585
-16.0976 -17.7203 -0.301951
-15.779 -17.8388 -0.321492
-16.2316 -17.6755 -0.173355
-16.4443 -17.5848 -0.0194413
-16.471 -17.5708 -0.00764382
-18.0272 -16.0951 0.643203
-15.3537 -18.0815 -0.253813
-16.186 -16.9027 0.197112
-17.0477 -16.5419 0.448419
-16.0653 -17.7626 -0.019913
-16.1542 -17.7551 0.00872314
-15.7057 -17.9652 -0.108492
-16.8275 -16.6685 0.533042
-16.2443 -16.9303 0.383425
-15.514 -18.0467 -0.0414528
-16.8402 -16.6632 0.562477
-18.6615 -15.7582 1.14918
-15.5673 -18.0686 0.0336192
-16.2029 -17.7827 0.225068
-16.1934 -17.8 0.251134
-15.2929 -18.193 0.0614471
-16.0051 -17.9398 0.435538
-15.9889 -17.9562 0.441547
-15.1908 -18.2716 0.205519
-16.0126 -17.946 0.457722
-16.6144 -16.3463 1.02161
-15.7128 -18.102 0.377198
-14.9511 -18.4044 0.178429
-16.3174 -15.6777 1.30715
-16.2621 -17.0538 0.986223
-16.4176 -15.4159 1.51295
-16.3581 -15.5986 1.45523
-15.0066 -18.4219 0.436882
-14.8697 -18.4791 0.395125
-16.3729 -15.5313 1.5663
-15.8693 -18.0753 0.798792
-15.8449 -18.0871 0.793854
-15.4816 -18.2489 0.684124
-15.4225 -18.2794 0.665649
-16.6608 -16.8245 1.39256
-16.1229 -17.8751 1.07234
-16.1569 -15.886 1.69413
-16.3934 -15.2146 1.92567
-16.8242 -16.5024 -3.73075
-16.8451 -16.5063 -3.6944
-16.7441 -16.5412 -3.67634
-16.8969 -16.4891 -3.62594
-18.7048 -15.5359 -3.73567
-16.3339 -16.8007 -3.52954
-16.4186 -16.7578 -3.51718
-17.3254 -16.2882 -3.59141
-15.4014 -17.2744 -3.42348
-19.1262 -15.2337 -3.66591
-16.5049 -16.7303 -3.46377
-20.1746 -14.8308 -3.73086
-19.9478 -14.9327 -3.715
-16.8932 -16.5312 -3.47293
-20.4806 -14.7258 -3.42874
-17.4215 -16.3096 -3.25392
-20.9204 -14.4841 -3.36317
-15.4182 -17.3445 -3.10107
-17.9584 -15.442 -2.95707
-20.7173 -14.6576 -3.23777
-17.8515 -16.1148 -3.12495
-18.0125 -15.4692 -2.89037
-21.0655 -14.5067 -3.1339
-16.0346 -17.0763 -2.96658
-15.9248 -17.1328 -2.94158
-16.034 -17.0876 -2.94572
-17.0632 -16.5959 -2.86746
-16.0488 -17.1038 -2.82698
-16.2658 -17.0161 -2.79504
-21.3981 -14.4278 -2.776
-16.5662 -16.8844 -2.68631
-16.6178 -16.8716 -2.68827
-19.1671 -14.7027 -2.28869
-16.9047 -16.72 -2.62873
-15.5568 -17.4494 -2.46275
-17.2453 -16.6097 -2.36336
-17.2233 -16.6358 -2.36028
-17.2854 -16.5966 -2.34715
-17.3399 -16.5843 -2.33173
-17.2117 -16.6526 -2.31983
-17.3506 -16.5885 -2.24519
-17.9983 -15.535 -1.91617
-16.204 -17.182 -2.26615
-17.9975 -15.5496 -1.89262
-18.0452 -15.5286 -1.85223
-17.9385 -15.7801 -1.89373
-17.9262 -15.7364 -1.81189
-18.9211 -15.1475 -1.69646
-19.0534 -15.0657 -1.66936
-18.9046 -15.1552 -1.62999
-18.966 -15.1608 -1.6061
-17.3201 -16.6809 -1.9721
-19.0268 -15.1724 -1.57947
-19.7349 -14.923 -1.54219
-18.9855 -15.2714 -1.56029
-16.072 -17.3044 -1.98832
-19.004 -15.3469 -1.50329
-18.8227 -15.4599 -1.49592
-16.7821 -17.0525 -1.5389
-16.8117 -17.0624 -1.5056
-17.1966 -16.8824 -1.42255
-17.8381 -16.2793 -1.21234
-17.7581 -15.9314 -1.07394
-15.3108 -17.7834 -1.57321
-18.7567 -15.5493 -0.849665
-16.1701 -17.4263 -1.28813
-16.4942 -16.6007 -0.964373
-16.2088 -17.4194 -1.20784
-16.1794 -17.4386 -1.21419
-17.8931 -16.1168 -0.768184
-18.9982 -15.6274 -0.552285
-18.9496 -15.6553 -0.516064
-16.1846 -17.4658 -1.09098
-16.5051 -17.3266 -1.01446
-16.4535 -17.3551 -0.993929
-18.3628 -15.8797 -0.411177
-19.8059 -15.5305 -0.220616
-19.6834 -15.5811 -0.245385
-17.8571 -16.2467 -0.388508
-15.5158 -17.8171 -0.960791
-18.4294 -16.022 -0.23607
-17.3292 -16.7042 -0.470506
-15.925 -17.668 -0.798627
-15.9726 -17.6547 -0.78598
-15.6373 -17.7922 -0.828296
-18.2541 -15.9113 -0.105217
-18.2818 -15.8347 -0.0457807
-18.2354 -15.9218 -0.0571463
-17.0709 -16.8146 -0.367854
-18.2614 -15.8219 0.0788844
-16.0804 -17.65 -0.572315
-14.7743 -19.2091 -1.13454
-15.839 -17.7554 -0.593806
-17.5953 -16.6906 -0.0826224
-17.5619 -16.7084 -0.0906461
-16.0691 -17.6892 -0.382322
-15.4285 -17.9866 -0.503622
-16.1005 -17.6834 -0.345155
-15.4608 -17.9796 -0.487639
-15.7435 -17.8704 -0.299223
-17.3074 -16.41 0.448234
-16.5544 -16.7348 0.291526
-16.284 -17.6881 0.0124804
-16.2236 -17.7177 0.0207126
-16.6608 -16.7318 0.466855
-16.6672 -16.6451 0.663237
-15.6779 -18.0291 0.166551
-15.321 -18.1826 0.0731001
-14.7159 -18.4391 -0.0868669
-16.5832 -16.8307 0.831477
-14.7089 -18.4914 0.161964
-16.3989 -15.9568 1.21107
-15.9624 -17.986 0.595411
-16.0258 -17.9875 0.718168
-15.6503 -18.1743 0.685176
-16.2967 -15.729 1.47065
-15.635 -18.1757 0.708598
-15.4926 -18.2489 0.656382
-16.4084 -15.4294 1.62687
-15.2099 -18.3613 0.652301
-16.1601 -15.8772 1.68018
-16.4833 -16.9632 1.5346
-15.3968 -18.1898 0.942
-16.2896 -17.0495 1.49535
-16.2437 -17.0616 1.4777
-14.7994 -18.4383 0.776433
-14.7469 -18.4602 0.776479
-15.6006 -17.1123 -3.70824
-19.1021 -15.2735 -3.76524
-18.9749 -15.3102 -3.62536
-20.988 -14.3863 -3.80168
-21.1247 -14.3178 -3.77198
-15.492 -17.2496 -3.36013
-20.0758 -14.8613 -3.67941
-16.5992 -16.6943 -3.42061
-21.6964 -14.0458 -3.69918
-16.3405 -16.8785 -3.20927
-17.9854 -16.0274 -3.20971
-17.7479 -15.4708 -2.58683
-17.7192 -15.3628 -2.52432
-17.7064 -15.5275 -2.57597
-17.7652 -15.4862 -2.56312
-17.2947 -16.4863 -2.83283
-18.6809 -15.0328 -2.52428
-15.8312 -17.254 -2.66351
-15.7198 -17.3442 -2.5722
-17.9411 -15.686 -2.17289
-17.2018 -16.6285 -2.3916
-18.5578 -15.2714 -2.06236
-17.2556 -16.0271 -2.1253
-17.3107 -16.6105 -2.31408
-18.2416 -15.4414 -1.92841
-14.9624 -17.8153 -2.33091
-17.8553 -15.6205 -1.89137
-17.8542 -15.624 -1.85646
-17.9082 -15.7779 -1.8527
-17.9222 -15.6854 -1.79732
-17.3229 -16.1361 -1.87971
-17.9173 -15.6885 -1.76521
-16.8212 -16.9143 -2.08514
-18.8806 -15.1849 -1.70238
-17.91 -15.7348 -1.7741
-15.8092 -17.4161 -2.04235
-16.4125 -17.1559 -1.9434
-16.7157 -17.0276 -1.78902
-15.8171 -17.5006 -1.74689
-15.8577 -17.4661 -1.72156
-18.7452 -15.6008 -1.21266
-17.8039 -16.3082 -1.28622
-17.7475 -15.9766 -1.08872
-18.7633 -15.7115 -0.851109
-16.6523 -17.191 -1.28753
-16.5978 -17.2189 -1.29577
-16.5548 -17.2586 -1.30877
-18.5744 -15.7862 -0.765175
-19.8019 -15.4451 -0.665972
-16.4823 -16.6261 -0.974433
-16.0138 -17.5488 -1.12067
-15.979 -17.5866 -1.12857
-15.2318 -17.9729 -0.972507
-17.3035 -16.7329 -0.486681
-18.9805 -15.7623 -0.0646741
-17.2422 -16.789 -0.40893
-16.063 -17.6252 -0.684874
-18.2252 -15.902 -0.0214733
-18.3067 -15.7722 0.0578157
-18.2402 -15.8306 0.0422077
-18.212 -15.9058 0.0179498
-18.1829 -15.9169 0.0516785
-16.6381 -17.3996 -0.40319
-16.6171 -16.9458 -0.141523
-16.0513 -17.7473 -0.325942
-16.4238 -17.572 -0.0705729
-16.2354 -16.8757 0.1882
-16.3904 -17.4337 0.0438504
-18.3097 -15.9492 0.723193
-16.5308 -16.7401 0.271188
-16.1756 -17.7575 0.0550376
-15.8269 -17.9394 0.114709
-16.247 -17.763 0.262438
-16.7013 -16.6135 0.680085
-16.6723 -16.6662 0.700485
-16.5187 -16.1617 1.04941
-16.4294 -15.3858 1.27783
-16.5025 -15.1388 1.36899
-15.6128 -18.1027 0.393935
-14.7159 -18.4801 0.135568
-16.6077 -16.8629 0.963886
-16.1724 -17.8715 0.599156
-16.2018 -17.0593 0.880365
-16.6367 -16.899 1.21531
-16.4877 -15.2117 1.61447
-14.8754 -18.4758 0.436064
-16.5114 -16.3387 1.3863
-16.3233 -15.6643 1.52535
-15.4628 -18.2549 0.704849
-14.9338 -18.4832 0.540047
-16.6217 -16.8815 1.38376
-15.0021 -18.4557 0.579889
-16.6289 -16.8419 1.48928
-16.6074 -16.8786 1.51241
-15.3125 -18.2238 0.904383
-14.7097 -18.4795 0.77935
-14.6845 -18.4893 0.791704
-14.7769 -18.4829 0.915917
-14.7751 -18.4911 0.948648
-14.7948 -18.5052 0.992007
-16.7518 -16.5189 -3.73913
-17.8936 -15.9623 -3.59973
-16.5332 -16.7157 -3.3896
-17.5037 -16.2336 -3.38141
-20.8408 -14.5957 -3.2202
-17.911 -15.2701 -2.57363
-16.2899 -16.9863 -2.82485
-18.6798 -15.0028 -2.4561
-16.4102 -16.9351 -2.76164
-18.151 -15.2008 -2.38266
-15.7655 -17.2851 -2.67874
-19.222 -14.8318 -2.18578
-18.0799 -15.4843 -2.19184
-19.6061 -14.8867 -2.06608
-17.4232 -16.474 -2.32007
-19.1201 -15.0221 -1.66971
-17.4795 -16.0714 -1.80831
-17.3854 -16.2769 -1.43084
-16.1811 -17.3304 -1.70714
-18.2903 -15.7835 -1.31105
-16.8441 -17.0241 -1.51318
-18.8085 -15.6101 -1.12502
-17.8545 -16.2807 -1.24939
-15.7105 -17.6012 -1.52726
-16.352 -17.3285 -1.35909
-16.4861 -17.2761 -1.33122
-16.0133 -17.475 -1.38855
-17.4839 -16.5181 -1.00762
-16.26 -17.3935 -1.19992
-19.0113 -15.6355 -0.43293
-16.499 -17.3432 -0.983266
-17.4447 -16.6024 -0.579562
-17.9412 -16.2191 -0.368431
-15.1802 -17.9895 -0.990281
-15.7589 -17.7344 -0.872078
-18.3185 -15.7976 -0.050147
-18.279 -15.8482 -0.00743717
-18.3871 -15.7783 0.0681945
-16.1672 -17.6805 -0.272688
-16.0846 -17.7302 -0.296301
-17.8247 -16.2864 0.452204
-18.1312 -16.0218 0.616034
-16.2422 -16.8714 0.150586
-17.7418 -16.2006 0.594481
-16.694 -16.6223 0.714091
-15.8703 -17.9333 0.218279
-15.3599 -18.1956 0.191246
-16.0919 -17.8734 0.441125
-16.0227 -17.9351 0.47497
-16.5427 -16.9022 1.02245
-15.5843 -18.1632 0.599735
-15.5374 -18.1868 0.594664
-16.2976 -15.7178 1.47759
-16.3832 -15.4847 1.63501
-15.2547 -18.3456 0.680855
-14.7083 -19.1032 0.389887
-14.3863 -18.6687 0.713708
-17.2929 -16.3065 -3.57595
-18.5984 -15.212 -2.96104
-16.1258 -17.0362 -2.86941
-17.5006 -16.3524 -2.88122
-17.1138 -16.6023 -2.60888
-18.1256 -15.4187 -2.15566
-17.3798 -16.1865 -1.84983
-17.6589 -16.3263 -1.28365
-18.8499 -15.6297 -1.01629
-16.1832 -17.4076 -1.35658
-16.2318 -17.3725 -1.32126
-17.5513 -16.4899 -1.01508
-16.4696 -16.6664 -1.03695
-16.6076 -17.2945 -0.933231
-15.7598 -17.7392 -0.873719
-16.0982 -17.5769 -0.800678
-19.5995 -15.6122 -0.0100888
-17.9044 -16.2525 -0.200298
-17.0848 -16.8126 -0.408169
-16.0294 -17.7561 -0.209244
-17.5424 -16.5854 0.319541
-18.0459 -16.0757 0.646278
-16.3036 -16.8479 0.226667
-16.1638 -16.9297 0.18311
-16.5899 -16.7195 0.313989
-16.6705 -16.7108 0.413718
-16.0492 -17.9938 0.759484
-16.6006 -16.8374 1.42827
-15.6692 -18.0714 0.991388
-14.4754 -18.6115 0.699028
-14.7356 -18.4655 0.823872
-16.5403 -16.9516 -2.51367
-17.735 -15.8553 -2.10041
-17.8469 -15.8497 -2.0538
-17.9011 -15.9049 -1.58451
-18.9889 -15.3663 -1.28575
-19.7728 -15.1081 -0.79293
-18.5408 -15.7707 -0.977045
-18.4999 -15.8956 -0.674807
-16.4626 -17.3134 -1.10203
-18.5209 -15.8465 -0.601244
-16.4145 -17.3389 -1.04544
-18.4572 -15.8143 -0.42198
-16.4261 -17.3738 -0.941857
-14.827 -18.2324 -0.824274
-15.7798 -17.853 -0.342859
-17.5512 -16.5551 0.270007
-15.5976 -17.9955 -0.07133
-16.2541 -17.8859 0.910955
-16.2179 -17.7796 1.03556
-14.7117 -18.4809 0.785418
-14.5601 -18.5417 0.739782
-14.6378 -18.519 0.792206
-17.7417 -16.2816 -2.69108
-17.5727 -15.972 -1.95932
-17.8775 -15.749 -1.63965
-17.9049 -15.7726 -1.46185
-18.0183 -15.7755 -1.36777
-18.9758 -15.3093 -1.21599
-16.428 -17.3528 -0.990859
-15.2763 -17.9364 -0.899944
-18.1346 -16.2107 -0.144462
-16.242 -17.888 0.750098
-18.0277 -15.4769 -2.24341
-18.9604 -15.3176 -1.40034
-18.6728 -15.8992 -0.263401
-18.2236 -16.1517 -0.0509217
-15.7566 -17.8578 -0.358399
-16.235 -17.822 0.606922
-18.8605 -15.2714 -1.74774
-17.1618 -16.2965 -1.44129
-18.9329 -15.578 -1.24896
-17.3466 -16.3603 -1.34807
-17.3098 -16.4269 -1.18388
-18.7588 -15.6267 -0.792835
-16.6359 -17.2462 -0.755979
-16.0731 -17.8091 -0.0386491
-16.3063 -17.7241 0.549247
-16.6693 -16.9127 1.17844
-16.6323 -16.6522 1.42163
-16.2866 -17.576 0.464055
-16.476 -17.0187 1.2894
-16.4756 -16.8125 1.51932
-17.1181 -16.554 -1.41069
-19.192 -15.101 -1.97092
-16.8647 -17.0867 -0.865502
-21.5439 -14.0895 -3.88148
-21.7645 -14.0415 -3.60548
-21.7578 -14.0523 -3.5294
-21.2102 -14.2972 -3.75
-21.07 -14.3394 -3.79966
-20.4426 -14.6387 -3.9157
-20.4603 -14.6368 -3.49698
-21.2794 -14.4326 -2.94141
-20.2613 -14.7589 -3.75089
-21.3005 -14.4706 -2.78066
-21.0751 -14.5536 -2.90349
-19.8915 -14.9582 -3.79005
-19.7977 -14.9899 -3.82265
-19.9381 -14.9373 -3.64696
-19.9524 -14.9308 -3.62405
-19.6076 -15.0823 -3.83018
-19.1666 -15.1566 -3.81206
-19.1378 -15.1839 -3.73645
-19.1357 -14.7169 -2.27867
-18.9296 -15.2812 -3.74189
-19.0684 -15.2495 -3.61637
-18.9148 -15.302 -3.68893
-19.0288 -15.2846 -3.62813
-18.8984 -15.3178 -3.69029
-18.4855 -15.6368 -3.80806
-18.1834 -15.388 -2.88811
-18.1831 -15.4037 -2.88033
-18.0698 -15.4468 -2.96043
-18.5117 -15.6955 -3.54707
-18.1593 -15.807 -3.83415
-18.8914 -15.1288 -1.74812
-19.7428 -15.0839 -1.26474
-18.0567 -15.9055 -3.64052
-17.9828 -15.9572 -3.6463
-18.1165 -15.9333 -3.39144
-18.9072 -15.3068 -1.38183
-17.6211 -16.0949 -3.77678
-19.7134 -15.2111 -0.868479
-18.0298 -15.9854 -3.27548
-18.1299 -15.5016 -1.83163
-17.4675 -16.1677 -3.73655
-17.3756 -16.2043 -3.82492
-17.9659 -15.5575 -1.9086
-18.0639 -16.0398 -3.10798
-17.8494 -15.6111 -1.92763
-17.8486 -15.6272 -1.92772
-19.6355 -15.414 -0.884596
-17.4426 -16.2203 -3.6084
-18.6505 -15.572 -1.44773
-17.8376 -16.1249 -3.1277
-17.8237 -16.1332 -3.14133
-17.6494 -16.1809 -3.30825
-17.1834 -16.3136 -3.73327
-17.0494 -16.3486 -3.84402
-17.1832 -16.319 -3.71059
-17.1831 -16.324 -3.68822
-18.5097 -15.6622 -1.36884
-17.5561 -16.2523 -3.20217
-17.467 -16.2994 -3.20852
-16.6643 -16.5371 -3.90256
-17.4426 -16.3314 -3.08857
-18.3095 -15.7871 -1.30012
-17.6948 -16.2807 -2.77743
-17.2386 -16.4069 -3.18834
-16.698 -16.556 -3.76212
-17.547 -16.3423 -2.89796
-16.7311 -16.5505 -3.73251
-18.5564 -15.743 -0.921488
-16.7226 -16.5595 -3.72946
-16.6876 -16.5664 -3.75497
-17.5144 -16.3568 -2.91219
-17.5263 -16.359 -2.89632
-17.4887 -16.3689 -2.9167
-16.6725 -16.5711 -3.73864
-16.6477 -16.5746 -3.74529
-16.617 -16.5894 -3.76313
-16.872 -16.5323 -3.50289
-17.1385 -16.4635 -3.20089
-18.6598 -15.7722 -0.721709
-16.401 -16.6592 -3.89021
-16.8548 -16.5737 -3.43245
-16.3665 -16.6805 -3.87574
-17.1937 -16.1644 -2.15887
-18.5049 -15.761 -0.532808
-16.4769 -16.6797 -3.73163
-18.4916 -15.7689 -0.50512
-16.7217 -16.6287 -3.35059
-18.5446 -15.8879 -0.547195
-16.9771 -14.8418 1.56179
-17.3091 -16.5221 -2.64113
-16.4472 -16.7352 -3.56441
-16.4564 -16.7349 -3.55015
-18.3909 -15.85 -0.39081
-17.2763 -16.5403 -2.64203
-18.359 -15.8993 -0.390683
-17.2961 -16.5507 -2.52884
-18.3254 -15.7914 -0.0410011
-19.0202 -15.8272 0.256914
-18.2925 -15.8185 -0.0587899
-18.3365 -16.0088 -0.527484
-16.8591 -16.6719 -2.92569
-18.3329 -16.0088 -0.511948
-16.6281 -16.7424 -3.16049
-16.9965 -14.9004 1.82829
-18.2298 -15.8589 0.00518703
-18.4474 -16.0092 -0.267767
-18.4327 -16.0213 -0.296105
-18.4357 -16.026 -0.281297
-18.4377 -16.039 -0.235913
-18.4298 -16.044 -0.255663
-18.4121 -16.0751 -0.3424
-18.4128 -16.085 -0.359981
-18.8659 -15.7103 0.856046
-18.4289 -16.0508 -0.231386
-18.4269 -16.0556 -0.25245
-18.429 -16.0747 -0.270926
-18.2375 -15.9864 -0.106274
-18.4289 -16.0861 -0.263847
-15.9269 -16.9503 -3.67874
-18.1917 -15.9734 0.024478
-17.9775 -16.1432 -0.527692
-17.9619 -16.1561 -0.542571
-17.9343 -16.1545 -0.558652
-17.1675 -16.6727 -2.26815
-16.4354 -16.8491 -3.05821
-17.8926 -16.1813 -0.557351
-18.2097 -16.0468 -0.00594413
-18.0941 -16.0733 0.0108043
-18.1243 -16.0655 0.0353917
-18.0692 -16.097 -0.00452399
-16.9304 -16.7813 -2.31226
-18.0599 -16.1179 -0.00503707
-17.2137 -16.7308 -1.98639
-18.0443 -16.1192 0.037048
-18.2551 -15.9644 0.645827
-18.0713 -16.1703 0.0193412
-15.8106 -17.054 -3.46842
-16.8311 -16.834 -2.30086
-17.3806 -16.7367 -1.67159
-18.0711 -16.2403 0.0537121
-15.6225 -17.1231 -3.56453
-16.3453 -16.9783 -2.77954
-15.6068 -17.1228 -3.57345
-16.428 -15.1236 1.95781
-18.2027 -16.0252 0.730518
-16.4613 -16.9519 -2.59681
-17.9769 -16.2874 -0.00343317
-17.6232 -16.4961 -0.732787
-17.9019 -16.3103 -0.0452454
-17.5531 -16.5269 -0.75805
-17.8384 -16.3382 -0.0648503
-15.9141 -17.099 -3.12236
-16.4172 -15.4105 1.49848
-16.4079 -15.4242 1.4984
-15.9885 -17.1056 -2.95229
-16.4114 -15.4224 1.52569
-15.8288 -17.1397 -3.10475
-17.8817 -16.3647 0.116529
-16.3926 -15.4778 1.40805
-16.9375 -16.9236 -1.80158
-17.0268 -16.8901 -1.65671
-15.8981 -17.1391 -2.97603
-17.7059 -16.552 -0.356031
-17.7244 -16.5564 -0.337569
-16.3895 -15.4736 1.50821
-15.8885 -17.1611 -2.98362
-15.4664 -17.2558 -3.40119
-17.6861 -16.2375 0.581774
-16.4697 -17.0683 -2.15559
-16.4597 -17.0819 -2.15741
-16.7594 -17.0607 -1.55114
-16.15 -17.1979 -2.26283
-16.1412 -17.203 -2.25365
-16.4295 -17.1675 -1.9192
-15.9739 -17.2629 -2.30937
-15.4527 -17.3633 -2.92246
-15.9685 -17.2697 -2.28925
-16.5535 -16.8368 -0.692987
-17.0192 -16.5369 0.415321
-15.2321 -17.496 -2.85821
-15.5142 -17.448 -2.49821
-16.5086 -17.2612 -1.24452
-16.3852 -17.2955 -1.36846
-15.1105 -17.5395 -2.90542
-16.5193 -16.2812 1.2828
-15.4071 -17.5016 -2.51772
-16.2804 -17.3628 -1.37929
-16.5342 -17.3166 -1.0121
-16.5133 -16.7616 0.305288
-16.2164 -17.3946 -1.40498
-15.9324 -17.4489 -1.70366
-15.9223 -17.4585 -1.69589
-16.6805 -17.3445 -0.644786
-15.6955 -17.5137 -1.87091
-16.1869 -17.4448 -1.20933
-16.6188 -17.3729 -0.643457
-15.0056 -17.716 -2.71052
-16.2899 -16.897 0.372861
-16.2203 -16.9197 0.33895
-15.0537 -17.6852 -2.45503
-16.0587 -17.5325 -1.09127
-15.3868 -17.6686 -1.88856
-15.4018 -17.6736 -1.87795
-16.068 -17.6005 -0.795717
-16.054 -17.6313 -0.765577
-15.9981 -17.6281 -0.810386
-15.1191 -17.7631 -1.98577
-15.8995 -17.6821 -0.824253
-15.8875 -17.6935 -0.830738
-15.662 -17.7242 -1.12834
-16.3831 -17.485 0.203821
-16.126 -17.6926 -0.293004
-15.1196 -18.4008 -2.8401
-15.3207 -17.8417 -1.36461
-15.2325 -17.8467 -1.42704
-16.2679 -17.7072 0.0445157
-16.2273 -17.7341 0.109864
-16.1725 -17.7504 0.0213079
-16.0812 -17.768 -0.0363311
-15.7929 -17.8095 -0.329898
-16.2175 -17.7807 0.246339
-15.786 -17.817 -0.309277
-16.2198 -17.7853 0.258705
-15.7862 -17.8271 -0.288235
-15.7809 -17.8319 -0.265006
-16.341 -17.7783 0.527064
-16.1567 -17.8166 0.241122
-15.1907 -17.9685 -1.02084
-16.1982 -17.8529 0.500269
-16.1796 -17.8718 0.521973
-15.7588 -17.9411 -0.0791957
-16.156 -17.8904 0.53437
-15.2369 -18.034 -0.775649
-16.1943 -17.9061 0.721936
-15.3236 -18.0307 -0.513381
-15.1294 -17.1273 1.41174
-16.1122 -17.8864 1.09568
-15.5467 -18.0721 0.0393922
-15.6451 -18.0581 0.262105
-14.5618 -18.6039 0.908185
-22.0523 -13.8401 -3.76865
-21.6809 -14.0133 -3.86608
-21.7644 -14.0199 -3.6955
-21.794 -14.0159 -3.55053
-21.7481 -14.0799 -3.44633
-21.7643 -14.103 -3.35535
-21.384 -14.2521 -3.48918
-20.4595 -14.6191 -3.89135
-21.3338 -14.3769 -3.11658
-21.2192 -14.4442 -3.10546
-20.3996 -14.7157 -3.6941
-21.0393 -14.5104 -3.13127
-20.2923 -14.7722 -3.66169
-20.2472 -14.7926 -3.61946
-21.1087 -14.5384 -2.88759
-19.9845 -14.8963 -3.75782
-20.705 -14.681 -3.15093
-19.9115 -14.9376 -3.66266
-19.9293 -14.9571 -3.6353
-19.92 -14.9501 -3.58118
-19.6616 -15.0501 -3.83083
-19.7035 -15.0532 -3.72687
-19.1558 -15.1799 -3.77303
-19.0423 -15.226 -3.78021
-19.0226 -15.2421 -3.77023
-19.2309 -15.2245 -3.63673
-18.9739 -15.2613 -3.71073
-18.9434 -15.2739 -3.71622
-18.9059 -15.2953 -3.72578
-19.0407 -15.2637 -3.62257
-18.8811 -15.316 -3.72043
-18.7649 -15.3406 -3.77836
-18.7519 -15.3566 -3.78801
-18.9625 -15.3009 -3.61153
-18.9019 -15.3205 -3.67189
-19.005 -15.3113 -3.60162
-18.8835 -15.3402 -3.64864
-20.6718 -14.9368 -2.14846
-20.6407 -14.9503 -2.1704
-18.7565 -15.5134 -3.71688
-18.3238 -15.301 -2.92352
-18.6302 -15.5957 -3.69279
-18.4729 -15.6389 -3.82704
-19.8048 -14.8586 -1.51676
-18.4935 -15.64 -3.77753
-18.4522 -15.6561 -3.81391
-18.5462 -15.6738 -3.56132
-18.7995 -15.1669 -2.05023
-18.9082 -15.1179 -1.72984
-18.9097 -15.1363 -1.72215
-18.5949 -15.256 -2.09659
-18.9197 -15.1415 -1.70692
-18.9146 -15.1273 -1.65945
-18.9071 -15.1492 -1.6634
-18.3873 -15.77 -3.46381
-18.38 -15.7802 -3.44659
-19.1142 -15.1343 -1.51026
-18.3765 -15.7923 -3.4182
-18.4004 -15.3443 -2.14849
-18.0101 -15.9323 -3.66253
-18.3342 -15.839 -3.32863
-18.187 -15.4415 -2.20258
-18.2074 -15.8951 -3.35503
-17.9166 -15.9884 -3.65233
-18.9342 -15.4017 -1.55183
-18.1317 -15.4759 -1.87171
-17.4773 -16.1524 -3.74704
-17.4603 -16.1726 -3.75483
-17.5207 -16.1583 -3.65465
-17.8659 -15.591 -1.94229
-17.6311 -16.1509 -3.49653
-17.8541 -15.6053 -1.95406
-17.8509 -15.6221 -1.95891
-19.9354 -15.3386 -0.533197
-17.445 -16.2274 -3.55276
-17.952 -15.6492 -1.81981
-17.4381 -16.2344 -3.53542
-17.3849 -16.266 -3.57491
-17.1076 -16.3369 -3.76852
-18.7169 -15.5717 -1.27495
-17.9259 -15.7155 -1.83478
-19.6963 -15.4519 -0.591311
-17.9241 -15.7901 -1.92533
-17.3105 -16.3097 -3.50311
-18.6341 -15.6354 -1.27959
-17.6318 -16.2293 -3.10123
-17.9507 -15.8062 -1.84222
-18.3901 -15.7393 -1.33272
-17.6252 -16.2751 -2.97482
-16.6756 -16.5258 -3.91258
-16.7371 -16.5115 -3.82618
-16.9205 -16.4706 -3.63433
-16.95 -16.4732 -3.62292
-17.6139 -16.2976 -2.89919
-16.6381 -16.5509 -3.86118
-18.9733 -15.6133 -0.570142
-17.5677 -16.3219 -2.90847
-17.5461 -16.3284 -2.91872
-16.7221 -16.547 -3.74645
-17.5392 -16.3566 -2.87866
-17.6913 -16.3133 -2.68982
-17.49 -16.3734 -2.87262
-18.8992 -15.681 -0.535372
-19.0166 -15.6997 -0.386277
-19.1118 -15.6491 -0.238753
-17.2765 -16.4522 -2.96289
-16.3268 -16.6962 -3.92761
-16.3494 -16.6871 -3.88884
-18.9772 -15.7037 -0.286009
-16.4685 -16.677 -3.75516
-18.9524 -15.7177 -0.274165
-19.4923 -15.7054 -0.00814629
-18.9416 -15.7375 -0.265747
-17.1145 -16.5356 -3.02898
-16.4123 -16.7043 -3.75161
-16.3147 -16.7306 -3.84185
-17.0941 -16.5571 -3.03557
-19.0928 -15.7246 0.012129
-16.2696 -16.7512 -3.81783
-16.254 -16.7554 -3.83911
-16.6228 -16.6576 -3.41181
-16.2538 -16.7648 -3.81435
-16.8463 -14.891 1.47517
-16.4316 -16.7668 -3.49774
-18.3773 -15.9701 -0.567433
-17.3718 -16.4481 -2.24908
-18.0233 -16.019 -0.827505
-19.0557 -15.8062 0.258437
-18.3037 -15.8019 -0.0244285
-15.9901 -16.8782 -3.86783
-18.3522 -15.9743 -0.436403
-17.3756 -16.5648 -2.31485
-18.2557 -15.863 -0.0748423
-17.3984 -16.5655 -2.27688
-18.9001 -15.8779 0.223788
-17.3849 -16.579 -2.28865
-18.2311 -15.86 -0.0122077
-17.928 -16.1032 -0.776985
-17.3696 -16.5947 -2.30501
-18.2226 -15.8517 0.0238359
-18.9739 -15.8805 0.376277
-18.425 -16.0484 -0.296655
-17.8526 -16.1412 -0.786469
-18.7222 -15.9072 0.272009
-18.081 -16.0983 -0.503799
-18.4881 -16.1059 -0.304247
-18.0653 -16.111 -0.492878
-17.9458 -16.1503 -0.638444
-16.2135 -16.8767 -3.36869
-18.2318 -16.0007 -0.106207
-16.7953 -16.7524 -2.69004
-18.7587 -15.773 0.823765
-17.6255 -16.3669 -1.2702
-17.1324 -16.6863 -2.32568
-18.1715 -15.9698 0.0455424
-17.1818 -16.6721 -2.24903
-16.2284 -16.9006 -3.30508
-17.1965 -16.6828 -2.2205
-15.9026 -16.9786 -3.62761
-16.4633 -16.8676 -2.98335
-18.0932 -16.0678 -0.0492746
-17.3615 -16.6702 -1.95197
-15.9334 -16.9862 -3.48285
-16.8576 -16.7881 -2.47425
-18.0787 -16.0846 -0.0116758
-18.07 -16.0895 0.0180431
-15.7425 -17.0556 -3.67233
-18.6134 -15.7793 1.13619
-18.0503 -16.113 0.0533777
-18.5111 -15.9014 0.894514
-18.584 -15.8904 0.98222
-17.4368 -16.6968 -1.6561
-18.2796 -15.9607 0.672978
-16.5338 -15.0738 1.98608
-16.0633 -17.0185 -3.16532
-17.8012 -16.2836 -0.325494
-17.3594 -16.7378 -1.68917
-15.6687 -17.0998 -3.57139
-17.8027 -16.2959 -0.301403
-18.0847 -16.2478 0.068782
-16.2411 -17.0009 -2.89635
-16.2181 -17.0078 -2.90402
-18.2194 -16.0256 0.750443
-15.6118 -17.1317 -3.55529
-16.6157 -16.9425 -2.46638
-15.9618 -17.0696 -3.17804
-15.9337 -17.0687 -3.1915
-17.8917 -16.2936 -0.070473
-17.7616 -16.4691 -0.571405
-17.5234 -16.5253 -0.826813
-17.6123 -16.5087 -0.728818
-16.4328 -15.3685 1.44531
-16.2414 -17.0245 -2.81332
-15.9325 -17.1053 -3.14251
-16.4809 -16.9847 -2.50469
-16.8072 -16.9066 -2.11722
-16.469 -16.9903 -2.52451
-16.8362 -16.9052 -2.05339
-15.9231 -17.1065 -3.09436
-17.8234 -16.3571 -0.0429987
-15.9038 -17.1175 -3.11332
-17.9712 -16.15 0.788095
-18.0084 -16.1503 0.846704
-17.9201 -16.162 0.751886
-17.0174 -16.906 -1.64176
-15.9067 -17.1473 -2.95705
-15.8911 -17.1536 -2.96555
-16.3868 -15.4986 1.4625
-16.4021 -15.4535 1.64232
-15.8636 -17.1774 -2.98378
-17.7061 -16.228 0.573503
-17.388 -16.6208 -0.593641
-16.3831 -15.5084 1.61079
-16.4532 -17.0704 -2.17502
-16.3595 -15.5911 1.43272
-16.3364 -17.0995 -2.30612
-16.3274 -17.1054 -2.28371
-16.3553 -15.5958 1.45442
-16.3527 -15.601 1.43727
-15.5293 -17.2713 -3.18323
-15.4764 -17.2899 -3.23254
-17.3601 -16.6943 -0.406875
-16.1812 -17.1767 -2.27762
-16.1909 -17.1781 -2.25932
-17.4809 -16.7106 -0.188011
-16.1929 -17.1815 -2.23353
-15.2879 -17.3631 -3.2733
-15.7799 -17.2726 -2.66716
-16.4051 -17.1775 -1.93935
-16.4643 -16.019 1.08941
-15.4355 -17.3796 -2.87679
-15.1376 -17.463 -3.18638
-15.1248 -17.4725 -3.19984
-17.133 -16.8932 -0.169266
-15.9655 -17.3327 -2.08529
-16.1147 -17.318 -1.82799
-17.0049 -16.955 -0.221578
-15.5756 -17.4277 -2.47164
-15.4195 -17.4689 -2.61938
-16.8273 -16.6547 0.500123
-16.2507 -17.3163 -1.54345
-16.5004 -16.2368 1.25566
-16.2369 -17.3273 -1.53962
-16.8286 -16.6641 0.532441
-16.6274 -16.92 -0.210072
-16.2488 -17.3342 -1.4889
-16.5233 -16.2728 1.26892
-16.5707 -16.3325 1.17218
-16.5535 -16.9548 -0.275604
-16.5392 -16.9528 -0.290419
-16.1412 -15.9259 1.82031
-15.2776 -18.0379 -3.89762
-15.411 -17.5088 -2.49799
-16.5495 -16.9584 -0.230166
-15.4371 -17.5072 -2.43133
-16.6875 -16.5364 1.06904
-15.9338 -17.4479 -1.72114
-16.1737 -17.4323 -1.26653
-16.1992 -17.442 -1.19415
-16.1846 -17.4472 -1.18402
-16.1792 -17.4541 -1.20334
-15.7753 -17.5217 -1.68073
-16.1872 -17.4585 -1.15706
-16.1963 -16.8933 0.189208
-16.1842 -16.8946 0.173662
-16.1769 -17.4707 -1.13185
-16.0193 -17.5076 -1.27536
-15.8255 -17.544 -1.46617
-16.3002 -17.4945 -0.75853
-16.5423 -17.4583 -0.428339
-16.4538 -16.8911 0.820415
-15.4668 -17.6547 -1.86564
-16.2956 -17.5046 -0.737335
-15.3778 -17.6681 -1.90526
-15.3721 -17.6812 -1.90599
-15.8948 -17.6136 -1.10812
-16.6316 -16.8375 1.4366
-16.0584 -17.6053 -0.785001
-15.3436 -17.7238 -1.72422
-15.2247 -18.1923 -2.88923
-15.3011 -17.7364 -1.76399
-16.3437 -16.9965 1.00095
-15.9938 -17.6326 -0.795955
-15.192 -18.1947 -2.85617
-16.4214 -17.5792 -0.211409
-16.2621 -17.043 1.00417
-15.9973 -17.6631 -0.648901
-16.023 -17.6736 -0.631587
-16.4455 -17.5922 -0.00403303
-15.6292 -17.7321 -1.13487
-15.6238 -17.7339 -1.11888
-15.3175 -17.7906 -1.49512
-16.2512 -17.6583 -0.163657
-16.4114 -17.6395 0.0536333
-16.2448 -17.6648 -0.152625
-16.2287 -17.673 -0.163205
-16.1372 -17.6869 -0.28159
-16.0931 -17.7171 -0.303097
-15.647 -17.7837 -0.910076
-16.0846 -17.7313 -0.294849
-15.6836 -17.7898 -0.854838
-15.0874 -18.4315 -2.89037
-14.955 -17.8876 -1.8064
-15.2994 -17.8476 -1.34491
-15.2817 -17.8612 -1.35549
-15.0716 -17.89 -1.56808
-16.2212 -17.7338 0.0915329
-15.646 -17.8313 -0.700668
-16.1729 -17.7671 0.0325354
-16.1921 -17.7862 0.202815
-15.4765 -17.8788 -0.798092
-15.7697 -17.8548 -0.325331
-15.4187 -17.91 -0.802321
-16.3269 -17.7898 0.523924
-14.9015 -18.0034 -1.48622
-16.0376 -17.8419 0.189068
-15.548 -17.9143 -0.491067
-15.1316 -17.984 -1.06981
-16.0285 -17.8692 0.280747
-16.1697 -17.8753 0.497061
-16.1301 -17.8926 0.477943
-16.2203 -17.8856 0.710904
-14.9156 -18.0821 -1.1103
-14.8292 -18.1696 -0.925691
-15.2715 -18.1472 -0.179656
-15.873 -18.0805 0.818526
-15.8556 -18.089 0.814552
-15.3445 -18.2321 0.25899
-15.3363 -18.2397 0.240122
-15.2937 -18.2391 0.23401
-15.3403 -18.25 0.451742
-14.9691 -18.3236 -0.0510437
-15.1104 -18.3104 0.194826
-15.3738 -18.1906 0.89639
-14.8633 -19.1015 -1.49196
-15.1864 -18.3782 0.622222
-14.8337 -19.1564 -1.11456
-14.8523 -18.5009 0.454151
-21.6397 -14.0521 -3.84831
-21.3359 -14.2297 -3.71346
-20.7893 -14.4742 -3.82333
-20.9432 -14.4889 -3.42561
-21.4146 -14.3467 -3.05928
-20.9185 -14.5028 -3.37498
-20.897 -14.5335 -3.31935
-20.8705 -14.5593 -3.3419
-20.535 -14.6772 -3.44112
-20.4987 -14.6982 -3.46014
-20.1681 -14.8252 -3.68547
-19.8832 -14.9914 -3.67379
-19.0829 -15.1929 -3.781
-19.173 -15.1835 -3.72643
-19.0779 -15.2197 -3.76137
-18.9174 -15.2802 -3.75935
-19.2443 -15.2691 -3.6475
-18.766 -15.4629 -3.78355
-18.1528 -15.2393 -3.08471
-18.6822 -15.5599 -3.71348
-18.2469 -15.1697 -2.35729
-18.2129 -15.3784 -2.87891
-18.1706 -15.3956 -2.91102
-18.5049 -15.6862 -3.57358
-18.9196 -15.1258 -1.68552
-19.0263 -15.1171 -1.63941
-18.6265 -15.2591 -2.06391
-18.9226 -15.1641 -1.63614
-18.985 -15.1859 -1.56194
-18.9625 -15.26 -1.7044
-18.0311 -15.9201 -3.64925
-18.2238 -15.4228 -2.19669
-18.2456 -15.4487 -2.17659
-18.1792 -15.9098 -3.35967
-18.9257 -15.2567 -1.38953
-17.9176 -15.5473 -2.25734
-17.8392 -16.0429 -3.50398
-18.1175 -15.9653 -3.16088
-17.8408 -15.5874 -2.0019
-18.0482 -15.6057 -1.8023
-18.8845 -15.5022 -1.22802
-17.8912 -15.7181 -1.94888
-17.3901 -16.2641 -3.54958
-17.9147 -15.7466 -1.94372
-18.6379 -15.6084 -1.31387
-17.2622 -16.3185 -3.58227
-19.652 -15.4464 -0.555689
-17.8258 -16.1688 -2.98549
-17.8304 -16.1716 -2.95759
-18.5708 -15.6534 -1.32515
-17.8202 -16.1822 -2.93377
-18.5146 -15.6741 -1.33498
-17.7238 -15.8776 -2.08865
-17.8657 -15.7691 -1.62996
-18.4184 -15.7296 -1.31959
-19.065 -15.5605 -0.573548
-16.8961 -16.4748 -3.65402
-16.7373 -16.5195 -3.80711
-16.8877 -16.4842 -3.62323
-16.7138 -16.535 -3.80995
-19.6542 -15.6006 -0.280091
-16.7048 -16.5402 -3.77602
-17.56 -16.3351 -2.87712
-19.6027 -15.6189 -0.267856
-19.5931 -15.6434 -0.259999
-17.5562 -16.3586 -2.85922
-17.4853 -16.387 -2.77067
-17.3272 -16.4363 -2.94117
-16.3439 -16.6808 -3.90805
-16.4567 -16.6643 -3.81391
-19.0532 -15.6877 -0.237023
-16.2808 -16.7167 -3.95047
-19.0564 -15.7134 -0.0991709
-16.3213 -16.7375 -3.81866
-18.9901 -15.7415 -0.111634
-17.1934 -16.5217 -2.86756
-17.2114 -16.2114 -2.03876
-18.9492 -15.7646 -0.126374
-16.3803 -16.7221 -3.67922
-16.6259 -16.6749 -3.39381
-18.4838 -15.9438 -0.673218
-16.423 -16.7581 -3.52037
-17.3234 -16.5374 -2.5342
-18.0384 -16.0141 -0.800407
-18.3542 -15.9652 -0.477006
-18.3319 -15.9968 -0.479226
-17.4077 -16.5434 -2.32386
-18.2704 -15.8474 -0.0890297
-18.9855 -15.8413 0.261294
-17.8466 -16.2478 -1.27537
-18.2604 -15.8552 -0.0476766
-18.2417 -15.8377 -0.00520176
-17.0096 -16.6569 -2.69891
-17.8553 -16.2519 -1.25025
-18.2376 -15.8608 -0.0327337
-17.2851 -16.5986 -2.34785
-17.8276 -16.2825 -1.21307
-17.2671 -16.6142 -2.33186
-18.2336 -15.9172 -0.0605347
-16.4534 -16.8176 -3.18358
-16.3311 -16.8378 -3.29528
-18.9325 -15.8974 0.388038
-17.879 -16.1535 -0.749091
-16.3031 -16.8573 -3.30193
-18.2045 -15.9337 0.018864
-18.8555 -15.9344 0.356945
-15.9789 -16.9456 -3.65678
-18.1855 -15.9558 0.0366341
-17.9299 -16.1646 -0.534699
-17.8951 -16.2003 -0.518071
-16.2626 -16.9147 -3.16552
-18.046 -16.1877 -0.239787
-17.803 -16.3839 -0.849404
-15.8812 -17.0195 -3.47884
-15.9437 -17.0067 -3.40883
-18.5764 -15.7985 1.13379
-16.4948 -16.9078 -2.75908
-18.2984 -15.9527 0.686131
-16.5787 -16.8876 -2.62694
-15.4654 -17.1363 -3.85564
-18.2612 -15.978 0.696059
-18.0699 -16.2039 0.0630798
-16.3647 -16.9547 -2.78472
-16.9167 -16.834 -2.1265
-17.8241 -16.3068 -0.259163
-18.0391 -16.2531 0.0271857
-16.5668 -16.9419 -2.54618
-18.0086 -16.2656 0.00349534
-18.0486 -16.2574 0.0594147
-17.934 -16.2854 -0.0569152
-15.4529 -17.179 -3.75709
-16.4162 -15.4066 1.26788
-17.6078 -16.497 -0.761295
-17.4472 -16.5423 -0.96105
-17.9997 -16.2904 0.0163976
-17.7827 -16.463 -0.547355
-16.9434 -16.8553 -2.02184
-16.9118 -16.8585 -2.04922
-17.7695 -16.4824 -0.545046
-16.0272 -17.0623 -2.99948
-15.8981 -17.099 -3.14792
-18.016 -16.0972 0.650295
-16.2394 -17.044 -2.79211
-17.8389 -16.3549 -0.0255477
-15.9028 -17.1168 -3.08879
-17.9237 -16.3417 0.12263
-15.9452 -17.1125 -2.94674
-15.4927 -17.2671 -3.3186
-16.3794 -15.5314 1.568
-17.3455 -16.6513 -0.554624
-16.0453 -17.1637 -2.65963
-17.3322 -16.6817 -0.540965
-15.9599 -17.1744 -2.65208
-17.342 -16.6878 -0.464834
-17.3408 -16.6933 -0.433418
-16.2611 -17.1405 -2.25619
-17.6481 -16.6477 -0.09374
-15.1529 -17.3581 -3.55399
-16.3507 -17.1259 -2.1316
-17.3619 -16.7049 -0.373904
-17.3488 -16.7113 -0.402683
-15.3961 -17.3332 -3.16044
-17.3623 -16.7713 -0.26432
-15.7147 -17.3065 -2.68346
-16.0053 -17.2678 -2.29993
-15.743 -17.3273 -2.59458
-16.4537 -16.028 1.10055
-15.2116 -17.4276 -3.17977
-16.4976 -17.186 -1.60233
-17.0615 -16.5211 0.441185
-16.5013 -17.1854 -1.57618
-15.9582 -17.2955 -2.20698
-15.5549 -17.377 -2.70185
-16.1459 -17.2883 -1.95244
-17.0579 -16.5598 0.542427
-16.6346 -17.1996 -1.26552
-16.8591 -16.6111 0.332915
-15.7322 -17.3806 -2.36546
-16.602 -17.2434 -1.27507
-15.5499 -17.4299 -2.48211
-16.1634 -17.3274 -1.73683
-15.6096 -17.4307 -2.38423
-15.5644 -17.4556 -2.46761
-16.3733 -17.2968 -1.38443
-16.7643 -16.6766 0.469919
-15.4709 -17.4803 -2.4975
-16.2995 -17.3388 -1.3648
-16.5039 -16.3031 1.39347
-16.4827 -16.7828 0.301156
-16.4263 -17.3397 -1.05834
-16.482 -16.8008 0.329309
-16.3761 -17.3855 -1.0056
-16.1754 -17.4351 -1.23698
-16.435 -17.3793 -0.872818
-16.0345 -17.463 -1.37532
-16.1993 -16.8844 0.160748
-15.367 -17.6059 -2.14442
-16.6921 -16.8238 1.01708
-15.1869 -17.6891 -2.24056
-16.2779 -17.5008 -0.78797
-16.0086 -17.5667 -1.11974
-16.5524 -16.8827 1.02127
-16.3949 -16.9278 0.801916
-16.4117 -17.5454 -0.263552
-16.0442 -17.6502 -0.623049
-16.2504 -17.0493 0.981194
-16.143 -17.0644 0.880994
-15.3134 -17.7813 -1.57187
-15.8109 -17.6977 -0.867342
-16.0671 -17.6892 -0.384624
-16.3598 -17.6636 0.0622089
-15.7087 -17.7713 -0.845113
-15.6875 -17.7787 -0.831321
-15.7031 -17.7938 -0.707235
-16.1821 -17.7384 -0.00149745
-16.1555 -17.7537 0.00757146
-15.6173 -17.8278 -0.719517
-15.5299 -17.8498 -0.807565
-16.0377 -17.7946 -0.103862
-16.0226 -17.8129 -0.0831457
-15.7773 -17.8349 -0.319752
-15.3834 -17.9014 -0.891598
-16.1698 -17.8052 0.25745
-14.9828 -17.9912 -1.3598
-15.7827 -20.1095 -5.06174
-15.7606 -17.8764 -0.157666
-15.0497 -18.6602 -2.65176
-15.1936 -17.9847 -0.984986
-16.1518 -17.8868 0.494867
-15.4305 -17.9846 -0.504018
-15.9849 -17.9534 0.4413
-15.9582 -17.9663 0.410185
-14.8934 -18.0885 -1.11861
-15.0116 -18.0983 -0.865314
-15.2323 -18.0813 -0.504831
-15.5155 -18.0421 -0.0446009
-16.0934 -17.8848 1.05859
-15.5649 -18.0662 0.0361106
-14.9096 -18.1649 -0.786296
-15.8989 -18.0724 0.823032
-15.8769 -18.0794 0.794236
-15.8713 -18.0808 0.837419
-15.3864 -18.1548 0.080882
-15.3427 -18.1734 0.0851585
-14.8115 -18.236 -0.689606
-14.934 -18.9463 -1.86979
-14.7725 -18.3237 -0.770438
-15.6172 -18.1865 0.675962
-15.3926 -18.2344 0.472066
-14.825 -18.4524 -0.720921
-14.892 -18.9282 -1.2964
-15.2603 -18.3441 0.646042
-15.1777 -18.3809 0.635841
-14.7279 -18.4217 -0.0772009
-14.9738 -18.4739 0.560223
-14.8722 -18.4973 0.470472
-14.7712 -19.2181 -1.1145
-14.7678 -19.2331 -1.10622
-14.8339 -18.5061 0.442978
-14.8261 -18.5118 0.458161
-14.4412 -18.6444 0.90977
-20.7379 -14.5048 -3.8464
-20.4454 -14.6496 -3.86319
-20.9103 -14.5198 -3.42161
-20.2159 -14.7947 -3.72001
-20.1549 -14.823 -3.7268
-20.6975 -14.6743 -3.19232
-19.1819 -14.7981 -2.87885
-19.0968 -14.8039 -2.89861
-19.3433 -14.6238 -2.18662
-19.0759 -15.2401 -3.68864
-18.7771 -15.3555 -3.74396
-18.8876 -15.3552 -3.70456
-18.753 -15.3728 -3.77147
-18.1695 -15.2096 -3.11525
-18.1764 -15.2169 -3.08544
-18.4351 -15.2376 -3.03046
-18.4181 -15.2526 -3.05921
-18.4432 -15.2244 -2.95942
-18.712 -15.5327 -3.74099
-18.454 -15.2779 -2.94727
-18.5818 -15.6147 -3.75065
-18.4513 -15.7175 -3.56781
-18.1119 -15.8182 -3.8273
-18.2669 -15.7873 -3.64135
-18.4619 -15.3237 -2.1049
-17.7709 -15.487 -2.5631
-19.0083 -15.3541 -1.50545
-17.6434 -16.0849 -3.77943
-18.1075 -15.4842 -1.88993
-18.0572 -15.51 -1.89129
-18.869 -15.4459 -1.47302
-18.808 -15.4668 -1.50402
-18.0833 -15.5298 -1.85837
-18.0066 -16.0206 -3.21013
-17.9867 -15.5509 -1.89105
-17.9308 -15.5666 -1.93408
-18.0486 -15.641 -1.74558
-17.8996 -15.728 -1.98381
-17.1382 -16.3268 -3.75711
-17.3255 -16.2863 -3.58181
-17.3566 -16.2868 -3.54426
-17.3002 -16.3034 -3.5656
-17.309 -16.3066 -3.53227
-17.263 -16.3222 -3.52826
-17.2303 -16.3495 -3.56807
-19.6234 -15.4743 -0.537748
-18.8064 -15.5116 -0.832842
-19.7034 -15.4882 -0.47342
-18.7728 -15.5527 -0.851529
-18.6257 -15.6755 -1.29002
-17.8912 -15.8045 -1.61536
-17.6692 -16.274 -2.88653
-17.9029 -15.8337 -1.59395
-17.2747 -15.9594 -2.0669
-19.0855 -15.5983 -0.472174
-17.5774 -16.3141 -2.87997
-18.9387 -15.6472 -0.592556
-17.4714 -16.3777 -2.83632
-18.9878 -15.7006 -0.260117
-17.7784 -15.94 -1.07765
-19.0023 -15.7689 -0.0655597
-16.2382 -16.7694 -3.83799
-19.027 -15.768 -0.0155082
-17.7597 -15.9757 -1.08891
-16.5602 -16.708 -3.44523
-16.4445 -16.7354 -3.53526
-18.3778 -15.8779 -0.411064
-15.9881 -16.8666 -3.89848
-18.3386 -15.9473 -0.444683
-15.95 -16.8827 -3.9198
-17.9717 -16.0462 -0.808878
-15.9551 -16.8956 -3.86579
-16.5995 -16.7587 -3.1634
-17.3456 -16.5832 -2.33455
-17.3129 -16.6038 -2.31109
-18.7613 -15.9377 0.279865
-18.1777 -15.9334 0.0521132
-15.9541 -16.9578 -3.65989
-18.2146 -16.0271 -0.00581288
-18.0089 -16.1741 -0.352913
-17.3002 -16.6754 -1.97078
-16.4888 -15.1491 1.50754
-17.4822 -16.4005 -1.09092
-16.067 -16.9694 -3.28407
-17.8977 -16.2243 -0.381465
-17.9979 -16.2101 -0.245406
-17.9798 -16.2311 -0.266223
-16.0329 -17 -3.27423
-15.609 -17.1109 -3.70976
-16.4872 -15.201 1.6617
-16.3438 -16.9546 -2.8151
-18.371 -15.9702 0.859878
-18.0461 -16.2576 0.10202
-18.0395 -16.2759 0.0678775
-17.4997 -16.5423 -0.802701
-16.8121 -16.9196 -2.08747
-16.0349 -17.0796 -2.97059
-17.463 -16.5659 -0.792304
-17.9523 -16.3291 0.132952
-17.7821 -16.3702 -0.0459228
-17.8826 -16.3564 0.127606
-17.3228 -16.6378 -0.79687
-17.2192 -16.8983 -1.42951
-16.3448 -15.6095 1.2104
-17.7878 -16.2326 0.722061
-16.5219 -16.5957 -0.912629
-16.4901 -16.6041 -0.961162
-16.3143 -15.6768 1.32172
-17.3277 -16.6976 -0.507178
-17.6776 -16.6281 -0.0715517
-17.3292 -16.7073 -0.473904
-17.3376 -16.7136 -0.438848
-17.3007 -16.7247 -0.488624
-17.3049 -16.4124 0.454122
-15.4306 -17.3774 -3.12618
-17.3345 -16.4165 0.585949
-17.2544 -16.46 0.583692
-17.2087 -16.4711 0.53661
-15.6709 -17.3001 -2.64246
-17.2386 -16.4756 0.612584
-15.19 -17.4399 -3.17133
-16.1582 -17.2694 -1.97818
-16.1197 -17.2869 -1.97639
-16.0228 -17.307 -2.04621
-16.7659 -16.668 0.446581
-16.5243 -16.9644 -0.269988
-16.5095 -16.9822 -0.202965
-16.5001 -17.3252 -1.01719
-16.5019 -16.7802 0.32115
-16.204 -17.4011 -1.29545
-16.405 -17.3597 -1.03375
-16.175 -17.4271 -1.28883
-16.3482 -17.3981 -1.00578
-16.1803 -17.442 -1.2181
-15.7942 -17.5189 -1.6557
-16.1923 -17.472 -1.08761
-15.3921 -17.6057 -2.10135
-16.5836 -16.8267 0.82927
-16.6318 -16.8355 0.954319
-16.6348 -16.8686 1.11151
-16.685 -16.8697 1.16991
-16.5033 -16.6591 1.62979
-16.584 -16.9045 1.13738
-16.5788 -16.881 1.4173
-16.0584 -17.6287 -0.691295
-15.1913 -18.1878 -2.80577
-15.1931 -18.2202 -2.83849
-16.5283 -16.9329 1.52951
-16.4029 -17.6375 0.0724128
-15.89 -17.7381 -0.617251
-15.8973 -17.7341 -0.590648
-16.2893 -17.6672 -0.00513613
-15.3613 -17.8188 -1.29283
-15.3359 -17.8271 -1.33709
-15.1079 -18.4248 -2.93819
-15.8335 -17.7445 -0.622652
-15.0977 -18.432 -2.90794
-15.8366 -17.7581 -0.591964
-16.0572 -17.7366 -0.29164
-15.7109 -17.7841 -0.741259
-15.6478 -17.7913 -0.824737
-15.2868 -17.8969 -1.29151
-15.6639 -17.8232 -0.678141
-16.0732 -17.7747 -0.0729256
-16.0603 -17.7908 -0.0784849
-16.0638 -17.7812 -0.0328642
-16.1785 -17.7965 0.231915
-15.2459 -17.9817 -0.887603
-16.1487 -17.8956 0.565464
-14.9639 -18.0651 -1.09928
-16.0941 -17.9175 0.599366
-15.4249 -18.0166 -0.335288
-14.8715 -18.0938 -1.13192
-16.116 -17.8753 1.07719
-16.0382 -17.9916 0.739341
-15.6129 -18.1029 0.394881
-15.2635 -18.3438 0.629552
-14.8701 -18.4392 0.245229
-14.8688 -18.4773 0.392299
-14.742 -18.4644 0.79898
-21.7127 -14.034 -3.70403
-20.9643 -14.529 -3.2152
-19.299 -14.6515 -2.26845
-19.2066 -15.2082 -3.69415
-19.1761 -14.743 -2.27975
-19.0849 -14.7627 -2.33504
-18.5585 -14.8854 -2.68988
-18.9178 -15.3363 -3.66174
-18.649 -15.0187 -2.51553
-18.4689 -15.247 -2.94077
-18.6257 -15.5811 -3.72672
-18.1371 -15.4028 -2.86926
-17.7201 -15.3537 -2.57587
-17.9921 -15.4751 -2.88681
-17.9245 -15.5353 -2.84628
-17.7625 -15.4801 -2.59267
-17.847 -15.9947 -3.64174
-18.1062 -15.5021 -1.84407
-17.9323 -15.677 -2.20091
-17.6483 -16.1316 -3.46263
-17.9387 -15.5886 -1.85558
-18.8125 -15.5233 -1.37978
-17.8508 -15.6214 -1.89219
-17.3515 -16.2631 -3.60354
-17.2985 -16.2929 -3.62045
-17.9131 -15.6817 -1.76609
-18.7962 -15.5452 -0.889285
-17.7808 -16.1954 -2.7887
-17.8805 -15.7438 -1.55197
-17.7945 -16.1967 -2.74567
-16.6218 -16.5315 -3.948
-18.3783 -15.7565 -1.29206
-16.7384 -16.5204 -3.7415
-16.827 -16.5194 -3.66203
-18.7782 -15.7628 -0.852659
-17.4562 -16.3719 -2.94404
-16.2214 -16.7685 -3.87335
-17.5403 -16.466 -2.44617
-18.4907 -15.9446 -0.523017
-16.9452 -14.8837 1.62962
-16.7767 -16.6771 -3.09803
-18.0554 -16.065 -0.72497
-17.8481 -16.263 -1.3138
-18.2384 -15.8493 0.0355767
-17.2024 -16.6292 -2.39572
-17.8386 -16.2771 -1.17312
-17.9632 -16.1371 -0.629996
-17.9363 -16.1614 -0.51718
-18.3993 -15.9114 0.733163
-17.9651 -16.2346 -0.314103
-17.8605 -16.2394 -0.393819
-16.11 -16.999 -3.12155
-15.9589 -17.0363 -3.29178
-17.8967 -16.282 -0.146881
-17.8867 -16.3172 -0.0215635
-17.9728 -16.1134 0.611484
-16.7589 -16.916 -2.13884
-17.8275 -16.1743 0.596847
-17.8386 -16.2431 0.451777
-17.8041 -16.3977 0.100102
-17.7889 -16.1986 0.602764
-16.355 -15.5846 1.28642
-17.1714 -16.8897 -1.39094
-16.5024 -16.5784 -0.938644
-16.5234 -16.6157 -0.897929
-16.7117 -17.0411 -1.71164
-16.3406 -15.6408 1.48975
-16.3085 -15.6773 1.46671
-17.2449 -16.785 -0.401891
-15.4309 -17.3623 -3.07996
-17.2143 -16.4526 0.463023
-17.2127 -16.4866 0.582136
-17.0072 -16.5456 0.403724
-16.6546 -17.1915 -1.29119
-16.1337 -17.3438 -1.73485
-16.7027 -16.6199 0.678551
-16.7056 -16.6287 0.712199
-16.6519 -16.7345 0.469044
-16.6263 -16.7448 0.441167
-16.5539 -17.3224 -0.97705
-16.4783 -16.9913 -0.19158
-16.5249 -16.3443 1.38733
-16.4586 -17.3513 -0.996549
-15.8638 -17.4666 -1.72306
-16.4067 -17.3637 -0.999236
-16.2063 -17.4167 -1.21055
-15.8249 -17.5052 -1.7446
-16.3468 -17.4186 -0.96002
-16.013 -17.4785 -1.38723
-16.1987 -17.4463 -1.1131
-16.6057 -16.8646 0.963879
-16.6076 -16.8806 1.121
-16.6252 -16.8408 1.48318
-16.6107 -16.8704 1.47703
-16.4964 -16.9635 1.53856
-16.0755 -17.6712 -0.446028
-16.0708 -17.6815 -0.414828
-16.0185 -17.6972 -0.43193
-15.7325 -17.7587 -0.832153
-15.3306 -17.8166 -1.37182
-15.8409 -17.8046 -0.407143
-16.1285 -17.1149 1.44286
-16.1999 -17.7878 0.270296
-16.1521 -17.8035 0.195938
-15.8698 -17.2471 1.40636
-16.0575 -17.9149 0.501691
-15.3306 -18.0201 -0.522517
-15.9355 -17.9759 0.399057
-15.5432 -18.0279 -0.102632
-15.9948 -17.9632 0.60518
-16.1409 -17.8519 1.08374
-15.9559 -17.983 0.591878
-15.9601 -17.9882 0.624038
-15.5415 -18.0456 -0.000419378
-15.5071 -18.0535 -0.0168831
-15.9547 -18.0105 0.698052
-15.9687 -18.0334 0.745192
-15.8825 -18.0676 0.748066
-15.2904 -18.249 0.287921
-15.26 -18.3467 0.675151
-15.0118 -18.4572 0.580516
-14.8792 -18.4826 0.431438
-14.7481 -18.458 0.774459
-14.5435 -18.5432 0.748258
-14.4871 -18.5733 0.757845
-14.6862 -19.2724 0.0212669
-14.7034 -19.3128 -0.0206807
-14.4368 -18.6367 0.870266
-14.5342 -19.0741 0.528348
-21.2951 -14.2681 -3.74942
-20.9439 -14.6045 -3.24436
-18.7895 -15.4352 -3.72998
-18.0354 -15.4061 -2.91198
-17.9547 -15.503 -2.86294
-17.7637 -15.4534 -2.60895
-18.8481 -15.607 -1.01395
-18.8201 -15.6331 -1.06581
-18.9783 -15.6056 -0.512153
-16.7305 -16.5441 -3.73163
-17.4289 -16.4813 -2.32435
-17.4663 -16.2513 -1.46314
-18.234 -15.9071 -0.0186258
-18.5267 -15.8835 0.92839
-17.3853 -16.7027 -1.71445
-17.5826 -16.4706 -0.967303
-17.898 -16.2669 -0.196329
-16.2435 -17.0097 -2.85347
-17.8241 -16.2825 0.445383
-17.8164 -16.202 0.696138
-16.4826 -16.5782 -1.03213
-16.8322 -17.0175 -1.4607
-17.2549 -16.4307 0.464693
-17.555 -16.5916 0.318203
-16.8836 -16.5945 0.36316
-15.3865 -17.4176 -2.75104
-15.9019 -17.3847 -2.02812
-15.5159 -17.467 -2.47934
-16.354 -17.3286 -1.36263
-16.2248 -17.3833 -1.3249
-16.4832 -17.3847 -0.950385
-16.228 -16.8793 0.188826
-16.6237 -16.8111 0.849917
-16.2029 -17.0589 0.121721
-15.993 -17.5248 -1.11941
-16.593 -16.8871 1.04895
-16.6129 -16.7576 1.41963
-16.2155 -16.9901 0.741201
-16.6054 -16.8752 1.51727
-16.167 -17.6848 -0.273151
-16.0142 -17.7456 -0.272448
-15.4695 -17.9739 -0.476693
-16.1966 -17.8806 0.610236
-15.2063 -18.0032 -0.810699
-15.1568 -18.03 -0.788887
-16.0224 -17.9356 0.479574
-16.1405 -17.9616 0.743761
-15.846 -18.0954 0.740306
-15.5726 -18.2091 0.71712
-15.0145 -18.3651 0.188825
-14.9626 -18.3795 0.169364
-14.9332 -18.4849 0.540989
-14.8062 -18.4322 0.785985
-14.781 -18.4498 0.796564
-14.7048 -18.4812 0.818377
-14.8 -18.4835 0.981763
-14.5009 -18.5598 0.720452
-18.4625 -15.2277 -3.01504
-18.5588 -15.0858 -2.54376
-18.4475 -15.2678 -3.01032
-19.762 -14.9641 -1.36793
-17.9209 -15.7874 -2.08267
-17.2523 -15.99 -2.08163
-16.8664 -16.5165 -3.57086
-18.5008 -15.7812 -0.993585
-17.4854 -16.3577 -2.8836
-18.5025 -15.8357 -0.777361
-18.4749 -15.8743 -0.772436
-18.5256 -15.9077 -0.589699
-17.807 -16.2602 -1.36464
-17.9588 -16.1053 -0.684857
-17.539 -16.4871 -1.03075
-16.454 -16.9845 -2.5391
-17.4428 -16.3401 0.503077
-16.3099 -15.7113 1.48754
-17.2195 -16.7924 -0.467655
-17.2441 -16.46 0.559501
-17.0823 -16.8942 -0.305996
-16.8622 -16.6402 0.524767
-16.0755 -17.3686 -1.71747
-16.6148 -16.7283 0.319315
-16.6567 -16.7172 0.420354
-16.2333 -16.0752 1.62844
-16.2917 -16.853 0.222551
-14.946 -17.9201 -2.02002
-16.0796 -17.7132 -0.267375
-16.1785 -17.755 0.147605
-15.2538 -17.9691 -0.899096
-15.3606 -18.1921 0.207676
-14.7417 -18.4675 0.816062
-14.4674 -18.6248 0.900651
-18.4843 -15.1019 -2.62891
-18.6983 -15.5066 -3.79287
-19.7034 -15.0772 -1.30199
-18.9909 -15.3717 -1.29454
-18.9584 -15.4173 -1.38422
-18.6005 -15.5783 -1.55709
-17.9371 -15.8042 -1.98289
-17.8767 -15.8749 -2.04713
-17.7454 -15.8652 -2.11617
-18.5219 -15.7675 -0.910723
-18.5166 -15.7939 -0.821748
-17.3401 -16.1102 -1.96688
-18.5255 -15.785 -0.564565
-18.5134 -15.834 -0.593423
-16.1074 -16.988 -3.18413
-16.4712 -15.2243 1.67014
-16.3848 -15.4808 1.6314
-17.5048 -16.6705 -0.275199
-16.5222 -16.8324 -0.746318
-16.1639 -15.8707 1.70738
-16.8396 -16.634 0.429882
-16.764 -16.6682 0.420761
-16.2012 -16.0012 1.64396
-16.6321 -16.9701 -0.210431
-15.6218 -17.6522 -1.47094
-15.7674 -17.8453 -0.338524
-16.269 -17.8909 0.908942
-15.5387 -18.0346 -0.0769415
-14.628 -18.5232 0.787741
-14.6814 -18.5321 0.954857
-14.6249 -18.5335 0.849089
-14.5565 -18.5467 0.730473
-14.6222 -18.5433 0.907122
-17.9037 -15.4702 -1.90159
-17.5088 -16.0889 -1.8881
-17.303 -16.1527 -1.92425
-18.5071 -15.9024 -0.690084
-18.4066 -15.8212 -0.400693
-16.5825 -16.789 -0.713756
-16.174 -17.8622 0.504233
-14.7065 -18.4751 0.770646
-14.6941 -18.5206 0.889891
-14.5535 -18.5476 0.806647
-20.4626 -14.858 -2.11051
-17.7873 -15.7592 -2.36919
-18.2008 -15.7342 -1.31882
-18.0306 -15.9785 -0.990637
-18.1502 -16.12 -0.0455606
-16.6413 -16.9001 1.14916
-14.8858 -18.3606 -0.933103
-19.5407 -14.9963 -1.37518
-18.6397 -15.4261 -1.57912
-17.954 -15.6288 -2.31129
-18.6461 -15.6868 -1.23138
-17.7289 -15.9401 -1.88921
-18.7628 -15.6971 -0.825588
-18.4302 -15.8537 -1.06663
-16.6689 -17.2856 -0.776319
-16.5298 -16.9542 1.30526
-16.0365 -17.7935 -0.0420099
-15.7206 -17.9145 -0.149512
-14.4573 -18.6341 0.703317
-14.6193 -19.0133 0.517807
-18.0151 -15.6827 -1.87833
-16.5784 -16.8302 1.35566
-16.512 -16.8096 1.52251
-16.3141 -17.7417 0.545074
-16.2732 -17.8642 0.691318
-19.9671 -14.8581 -1.80129
-18.5174 -15.8234 -0.531283
-17.3806 -16.5476 -2.23154
-17.4441 -16.4413 -1.96482
-18.3924 -15.7366 -3.41756
-15.8404 -17.0255 1.14023
-16.9987 -14.8997 1.82913
-16.9779 -14.8417 1.56102
-16.6592 -15.0102 1.58345
-16.411 -15.4224 1.52548
-16.4145 -15.4163 1.51115
-16.3914 -15.4731 1.50738
-16.3927 -15.4779 1.40817
-16.3522 -15.5981 1.43872
-22.0629 -13.8474 -3.79686
-19.7067 -15.5379 -0.376847
-20.9884 -14.8013 -2.00827
-18.2853 -15.9508 0.653192
-19.5779 -15.6608 -0.20865
-18.9692 -15.8432 0.226558
-19.0089 -15.6904 -0.290192
-21.2215 -14.4405 -3.10705
-17.9783 -16.152 0.78744
-21.5723 -14.0781 -3.86454
-18.4255 -15.9154 0.1387
-18.3241 -15.7928 -0.0415455
-17.8644 -16.1923 0.759742
-18.2904 -15.8158 -0.0303518
-20.5404 -15.0037 -2.14011
-18.3017 -15.8111 -0.0625163
-16.5175 -16.2795 1.28259
-16.5234 -16.2721 1.26887
-18.2291 -15.8602 0.00627971
-21.0832 -14.4154 -3.44869
-21.178 -14.3073 -3.75945
-20.7877 -14.6641 -3.03323
-18.9087 -15.306 -1.38072
-16.5705 -16.3316 1.17316
-18.402 -15.839 -0.400831
-18.2147 -16.0326 -0.00956815
-18.2147 -16.0378 -0.0262659
-18.3986 -15.8348 -0.431405
-18.1192 -16.0782 0.0437973
