-9.3214 -17.9481 1.14148
-9.26942 -17.9788 1.16722
-9.31082 -17.9619 1.11141
-9.37542 -17.9351 1.0771
-14.9303 -15.762 -1.40046
-11.3051 -17.208 0.199497
-8.76444 -19.0861 1.87376
-8.91829 -18.1354 1.18641
-11.2706 -17.2389 0.123202
-11.0596 -17.3162 0.210184
-9.01854 -18.1001 1.11605
-12.5576 -16.0289 -0.915423
-11.0791 -17.3092 0.184883
-13.3959 -15.7807 -1.28483
-15.2187 -15.7119 -1.7152
-10.5604 -17.5464 0.39128
-10.9544 -17.3816 0.193488
-11.1553 -17.3005 0.0875816
-11.0486 -17.3519 0.106019
-11.5514 -17.1592 -0.130833
-11.5037 -17.1953 -0.118687
-11.3079 -17.2613 -0.0370207
-11.5189 -17.1808 -0.138046
-10.9078 -17.4287 0.143907
-14.8395 -15.9002 -1.68075
-14.5187 -16.0356 -1.55369
-10.8976 -17.438 0.122608
-15.8963 -15.518 -2.20041
-12.4384 -16.3522 -1.09894
-9.03624 -18.1682 0.840266
-12.4609 -16.3393 -1.13961
-14.5039 -16.1091 -1.79187
-10.1102 -17.7808 0.313332
-12.3638 -16.389 -1.09572
-10.1299 -17.7747 0.298846
-9.51307 -18.0181 0.555594
-9.06827 -18.1852 0.740316
-13.9959 -16.3289 -1.65409
-12.1681 -16.472 -1.10204
-9.47937 -18.0409 0.543217
-14.1796 -16.269 -1.75331
-12.3376 -16.4304 -1.18654
-9.45891 -18.0394 0.529785
-11.2202 -17.4081 -0.331141
-11.1995 -17.4109 -0.363031
-11.7329 -17.2316 -0.689465
-10.7732 -17.5947 -0.216165
-11.5626 -17.2931 -0.623085
-11.057 -17.497 -0.402616
-10.7156 -17.6343 -0.25461
-14.0636 -16.41 -1.94672
-10.1334 -17.8471 0.0280297
-11.4128 -17.3822 -0.654918
-13.4418 -16.5451 -1.77147
-10.7591 -17.6344 -0.345074
-13.318 -16.5734 -1.72757
-9.06664 -18.2637 0.508165
-13.2008 -16.6354 -1.69176
-13.4119 -16.5621 -1.84895
-13.4354 -16.5441 -1.87434
-13.3481 -16.5875 -1.83494
-13.1766 -16.6603 -1.74569
-12.7959 -16.9315 -1.54056
-13.2143 -16.6317 -1.84251
-12.7206 -16.9877 -1.51006
-13.0797 -16.7061 -1.82282
-12.9786 -16.8748 -1.70304
-9.69785 -18.0935 0.002087
-10.5617 -17.772 -0.477892
-10.2273 -17.917 -0.303733
-12.1683 -17.2132 -1.38926
-10.4403 -17.8463 -0.452113
-10.4107 -17.8583 -0.454486
-12.769 -17.003 -1.74907
-11.5145 -17.4599 -1.07213
-12.128 -17.2546 -1.48838
-9.90787 -18.0544 -0.27547
-10.6956 -17.7871 -0.707076
-12.5796 -17.1241 -1.79803
-12.4451 -17.1756 -1.74798
-10.8527 -17.7548 -0.86317
-9.82145 -18.0997 -0.315643
-9.7117 -18.155 -0.295021
-11.5855 -17.5027 -1.33822
-11.6075 -17.5109 -1.39766
-11.6373 -17.5015 -1.42893
-11.5195 -17.5582 -1.3916
-10.104 -18.0769 -0.602302
-10.0879 -18.085 -0.613418
-10.89 -17.7917 -1.11804
-10.1378 -18.0708 -0.717794
-11.2916 -17.6671 -1.39272
-11.1847 -17.723 -1.38062
-10.675 -17.9425 -1.19195
-10.2094 -18.0907 -0.930977
-10.6645 -17.9753 -1.37274
-10.8099 -17.9603 -1.48065
-10.6207 -18.0536 -1.4743
-10.2305 -18.1887 -1.25669
-10.4716 -18.1262 -1.50757
-10.325 -18.1923 -1.51193
-10.2657 -18.2424 -1.56365
-10.1621 -14.4132 2.73253
-9.90213 -14.7937 2.95854
-10.1009 -14.6403 2.73171
-10.2637 -14.3114 2.49085
-10.0927 -14.7828 2.56932
-10.2281 -15.8144 3.35831
-10.2662 -15.7894 3.34947
-10.037 -15.9184 3.34425
-10.1853 -15.0667 2.60111
-10.3985 -15.9253 2.97947
-10.4308 -15.9548 2.79716
-9.89306 -16.8457 3.33403
-10.4797 -15.9499 2.71731
-10.3835 -16.0127 2.70471
-11.6308 -15.4578 2.45686
-12.1104 -15.2312 2.35318
-9.187 -17.2168 3.28395
-9.18259 -17.2292 3.26417
-9.83975 -17.1082 3.13279
-9.82026 -17.1183 3.10447
-11.276 -15.7227 2.23682
-9.84378 -17.1114 3.0568
-8.54403 -17.5482 3.21748
-8.49072 -17.5694 3.21426
-11.1306 -15.8125 2.2025
-9.44947 -17.3032 3.0974
-12.6053 -15.3831 1.99551
-9.42061 -17.3215 3.08847
-9.46363 -17.3073 3.07466
-8.3521 -17.6586 3.17609
-9.31141 -17.3922 3.06571
-9.98244 -17.0948 2.89012
-9.09207 -17.4974 3.06353
-8.35634 -17.6886 3.12771
-9.01016 -17.5372 3.0525
-10.0498 -16.3498 2.24403
-10.2028 -17.0115 2.66668
-12.121 -15.4966 1.6971
-12.0533 -15.6453 1.78942
-12.8709 -15.378 1.64101
-8.86918 -17.6446 2.96323
-9.29767 -17.448 2.81417
-8.72788 -17.7235 2.92313
-8.36733 -18.2312 3.23962
-8.75076 -17.7276 2.88113
-9.2044 -17.5605 2.69161
-9.55164 -17.414 2.55432
-13.601 -15.2826 1.16883
-12.3262 -15.6504 1.34929
-10.1046 -17.1897 2.35535
-10.1848 -17.1484 2.29823
-11.7995 -16.0022 1.47047
-9.95211 -17.2755 2.3019
-9.97599 -17.2812 2.26912
-11.0558 -16.5231 1.74224
-9.96106 -17.3013 2.2717
-11.0314 -16.5091 1.70831
-9.93762 -17.3085 2.24348
-10.4315 -17.0998 2.09816
-9.40143 -17.5321 2.38866
-9.43273 -17.5186 2.35812
-11.013 -16.529 1.66749
-9.34805 -17.56 2.36348
-11.1829 -16.5158 1.63346
-9.44838 -17.5302 2.33195
-9.60629 -17.4835 2.28317
-11.2762 -16.4637 1.5511
-10.1727 -17.2137 2.07516
-11.2565 -16.4989 1.55251
-11.2865 -16.4791 1.51588
-11.1698 -16.5421 1.54503
-12.7483 -15.5594 0.829982
-12.7901 -15.518 0.799253
-11.9964 -15.9898 1.03672
-10.027 -17.3212 2.00698
-11.8868 -16.0608 1.08063
-9.99548 -17.3492 1.95178
-9.92474 -17.3816 1.96827
-11.5155 -16.4451 1.2252
-9.94837 -17.4025 1.86709
-10.4697 -16.7358 1.30161
-9.62794 -17.562 1.88353
-11.7766 -16.0417 0.706616
-9.85086 -17.4994 1.75253
-12.9278 -15.7746 0.356886
-9.80829 -17.5091 1.74964
-13.0197 -15.5686 0.154362
-13.0743 -15.6672 0.18521
-11.483 -16.5061 0.848261
-13.0582 -15.6271 0.0981483
-13.0968 -15.5507 0.0395932
-13.1109 -15.522 -0.00970244
-9.94865 -17.503 1.5708
-10.4667 -17.3172 1.26364
-9.51883 -17.7014 1.59258
-8.84642 -17.9794 1.82844
-13.8336 -15.3037 -0.617438
-10.1987 -17.4706 1.23994
-9.41836 -17.7745 1.52068
-9.23623 -17.8664 1.55643
-10.1906 -17.4935 1.14727
-12.0445 -16.2312 0.0647372
-10.2319 -17.4785 1.11232
-10.2056 -17.5031 1.11481
-12.0053 -16.134 -0.0289485
-12.0224 -16.1916 -0.0186846
-12.2237 -15.9931 -0.184208
-12.1024 -16.057 -0.163946
-10.9228 -17.2319 0.753427
-10.2037 -17.5211 1.04172
-10.9001 -17.2649 0.727181
-12.0159 -16.2622 -0.176608
-8.8866 -18.0924 1.35332
-11.4261 -17.1279 0.209457
-14.946 -15.782 -1.48905
-14.9235 -15.8099 -1.51017
-9.57802 -17.8893 0.858315
-9.39021 -17.9887 0.905853
-10.0051 -17.7564 0.619452
-11.5254 -17.147 -0.0835609
-10.5506 -17.5629 0.379639
-9.88664 -17.8125 0.631294
-11.0997 -17.3376 0.0184172
-11.4506 -17.2253 -0.124726
-11.4876 -17.2055 -0.150202
-9.85266 -17.8445 0.588263
-11.4127 -17.2437 -0.141697
-11.438 -17.2259 -0.16529
-11.6316 -17.1751 -0.330177
-11.5004 -17.2489 -0.353878
-9.57374 -17.9897 0.557308
-14.457 -16.1773 -1.90066
-11.2254 -17.3945 -0.349418
-14.2436 -16.2682 -1.86627
-11.9615 -17.1197 -0.759418
-12.3988 -16.3372 -1.38234
-11.8719 -17.1694 -0.747545
-11.6716 -17.2439 -0.674146
-11.1877 -17.4398 -0.472857
-13.4757 -16.4907 -1.75094
-13.4208 -16.518 -1.7407
-12.2479 -17.0835 -1.11638
-9.49111 -18.094 0.285135
-11.6543 -17.3246 -0.885686
-13.0533 -16.7273 -1.82205
-13.0001 -16.86 -1.73488
-10.4558 -17.8291 -0.470841
-10.2268 -17.9353 -0.449257
-10.2936 -17.9222 -0.479954
-12.1432 -17.2594 -1.5246
-10.238 -17.9518 -0.504454
-9.82557 -18.1011 -0.284582
-10.4256 -17.883 -0.644854
-10.831 -17.7666 -0.875208
-10.2445 -17.9764 -0.593526
-11.5966 -17.5249 -1.37622
-10.1366 -18.0204 -0.58136
-11.1535 -17.689 -1.22645
-10.3684 -17.9975 -0.909843
-11.2873 -17.6999 -1.52229
-11.1313 -17.7673 -1.43977
-10.6318 -17.9483 -1.16781
-11.0877 -17.7958 -1.44807
-9.61561 -18.3153 -0.678825
-9.42299 -18.4232 -0.716543
-9.80101 -18.3157 -0.95411
-10.7582 -17.9974 -1.60946
-10.2281 -18.1845 -1.28781
-10.0707 -18.269 -1.28313
-9.92674 -18.3399 -1.29589
-10.229 -18.2526 -1.51051
-9.77642 -18.4311 -1.31841
-10.2242 -14.2491 2.65044
-10.2076 -14.2996 2.65981
-10.0863 -14.6695 2.74284
-10.2855 -14.2822 2.389
-10.1084 -14.9906 2.7724
-10.1698 -14.6818 2.432
-10.2767 -15.3262 2.94562
-10.3672 -15.718 3.27253
-10.1225 -14.7988 2.43999
-9.86582 -16.0075 3.30957
-10.4705 -15.7373 3.15697
-10.4157 -15.7895 3.16506
-10.3643 -15.3921 2.59073
-12.4557 -15.0079 2.39859
-9.92745 -16.8233 3.33438
-11.672 -15.4912 2.30037
-9.1106 -17.2658 3.25833
-8.235 -17.6589 3.3811
-8.35543 -17.6036 3.34646
-9.94898 -17.0803 3.08159
-9.46978 -17.2665 3.14955
-8.56084 -17.5552 3.19923
-9.27589 -17.3815 3.11128
-9.77428 -17.162 2.96879
-9.83991 -17.1509 2.94772
-9.7854 -17.1679 2.9379
-8.32646 -17.6953 3.13217
-9.3639 -17.3674 2.98769
-8.8601 -17.6024 3.08998
-12.1187 -15.4557 1.73761
-11.9877 -15.6502 1.85257
-12.0528 -15.5364 1.78004
-12.0765 -15.4946 1.73948
-8.76576 -17.6716 3.02167
-12.1966 -15.4707 1.62231
-9.46438 -17.3773 2.78163
-10.0877 -16.5487 2.12299
-12.9222 -15.4199 1.45174
-12.8573 -15.4618 1.45117
-11.5758 -16.2208 1.90243
-9.76384 -17.312 2.55323
-9.98932 -17.1974 2.4513
-10.2966 -17.101 2.37059
-10.0053 -17.2074 2.41821
-10.1231 -17.1958 2.38525
-9.71015 -17.3531 2.47978
-10.078 -17.2127 2.38473
-11.8693 -15.9455 1.52673
-12.9754 -15.4618 1.18497
-8.59199 -17.8694 2.63591
-13.7232 -15.2862 0.623766
-11.0007 -16.6107 1.54736
-10.5797 -17.081 1.85687
-12.4721 -15.8536 0.957298
-9.99561 -17.3362 2.0426
-8.76193 -17.8556 2.38945
-9.97843 -17.3724 2.02594
-9.98253 -17.3646 1.98527
-9.88297 -17.4018 1.95838
-9.75936 -17.4791 1.99477
-10.0179 -17.3575 1.88801
-13.8296 -15.2525 0.192914
-9.41252 -17.6794 1.96501
-11.7642 -16.085 0.712373
-13.7723 -15.3124 0.0221428
-10.5969 -16.5959 1.0706
-9.27621 -17.7328 1.90567
-10.5228 -16.5988 0.987999
-11.5492 -16.5284 0.829561
-11.9122 -16.3742 0.695284
-13.0255 -15.5647 -0.0626576
-10.4496 -17.3156 1.29599
-10.5033 -17.2916 1.26813
-13.7044 -15.481 -0.263466
-10.2161 -17.4565 1.20453
-13.4699 -15.2915 -0.66333
-8.7938 -18.2582 1.85514
-10.6844 -17.2917 0.979439
-10.0293 -17.5638 1.23005
-10.6353 -17.3192 0.978656
-12.0144 -16.1366 -0.00103617
-10.5955 -17.3696 0.984273
-12.0106 -16.1852 0.0159608
-12.8501 -15.802 -0.395199
-10.9592 -17.1963 0.760534
-12.0237 -16.0853 -0.13208
-9.17958 -17.8943 1.45983
-12.0282 -16.2561 -0.0357412
-11.9472 -16.1164 -0.114498
-10.9854 -17.2039 0.724637
-10.4809 -17.4179 0.902539
-11.4193 -17.0499 0.498452
-9.18858 -17.9309 1.40496
-10.3122 -17.5156 0.949494
-12.2395 -16.1351 -0.454576
-12.0439 -16.1699 -0.412768
-9.35591 -17.9248 1.16383
-11.0125 -17.2795 0.446688
-12.0863 -16.3127 -0.358709
-12.0718 -16.3085 -0.389229
-10.8045 -17.3743 0.473005
-12.8284 -15.8615 -0.890383
-10.8143 -17.3803 0.4448
-9.77171 -17.7996 0.862348
-11.8302 -16.4914 -0.380079
-12.7001 -15.9768 -0.944963
-11.0302 -17.3267 0.225712
-15.9887 -15.4189 -2.0803
-9.94148 -17.7734 0.643443
-9.97213 -17.7717 0.610903
-11.9496 -16.3182 -0.812295
-10.8696 -17.4419 0.120988
-15.4898 -15.7171 -2.08888
-10.2344 -17.717 0.362805
-11.3564 -17.2759 -0.195197
-15.2888 -15.7876 -2.08674
-11.1791 -17.3655 -0.133361
-11.5944 -17.2049 -0.333888
-10.0198 -17.8211 0.338624
-12.2112 -16.4605 -1.04946
-12.7272 -16.2627 -1.37229
-14.3133 -16.1792 -1.84242
-12.1765 -16.6097 -1.07158
-12.4519 -16.3099 -1.36101
-9.67798 -18.0067 0.349041
-11.1307 -17.4506 -0.387566
-10.1639 -17.8391 0.0406795
-12.2478 -17.0719 -1.05261
-9.55968 -18.065 0.297178
-10.6749 -17.6514 -0.281198
-13.2946 -16.5661 -1.67957
-12.1124 -17.1329 -1.01738
-13.2336 -16.5954 -1.70183
-13.3804 -16.5651 -1.77735
-11.2339 -17.4735 -0.615192
-11.2605 -17.4706 -0.646736
-11.9209 -17.3007 -1.32479
-12.6851 -17.053 -1.77047
-12.6391 -17.0905 -1.76814
-10.7969 -17.8313 -1.09894
-10.1717 -18.0764 -0.76676
-11.0635 -17.8029 -1.48589
-10.9754 -17.8551 -1.47769
-9.88783 -18.2655 -0.941319
-11.0261 -17.9009 -1.68213
-10.714 -18.0151 -1.56583
-10.5355 -18.1117 -1.53687
-10.1413 -14.4596 2.76342
-10.1029 -14.6677 2.70658
-10.4846 -15.6935 2.97759
-10.3732 -15.963 2.88385
-11.9338 -15.3286 2.34336
-8.57021 -17.4831 3.39911
-10.5131 -15.8839 2.42696
-8.55266 -17.5061 3.37606
-11.1095 -15.8016 2.24351
-9.7956 -17.1282 3.06958
-8.58927 -17.5323 3.21657
-9.72432 -17.1708 3.05772
-9.76214 -17.1524 3.05106
-10.0253 -17.0669 2.92881
-9.40913 -17.3438 2.98337
-10.5407 -16.1144 2.17531
-9.8643 -17.1775 2.81822
-12.1754 -15.4587 1.66387
-12.1234 -15.5677 1.69273
-11.9085 -15.8532 1.85928
-12.9192 -15.4065 1.60317
-11.6945 -15.9306 1.82976
-10.1709 -17.0783 2.57022
-9.74005 -17.3027 2.57659
-9.96594 -17.199 2.49538
-10.0519 -17.1701 2.45437
-9.22817 -17.5631 2.61778
-12.2995 -15.7345 1.37618
-9.2212 -17.6099 2.48537
-11.8633 -16.0491 1.34317
-12.4723 -15.8376 1.0133
-9.94448 -17.3464 2.07274
-11.9834 -16.0269 1.07178
-10.0072 -17.3541 1.91988
-12.8267 -15.7399 0.625163
-10.5814 -16.7064 1.37959
-12.8042 -15.7815 0.599779
-11.4713 -16.5329 1.00284
-13.0843 -15.4605 0.164842
-10.0304 -17.4268 1.64871
-10.4961 -17.2976 1.3037
-12.9984 -15.6258 -0.0633347
-10.3501 -17.3509 1.34082
-9.72697 -17.6155 1.5486
-10.3013 -17.3799 1.33995
-10.7188 -17.2563 0.945168
-10.2854 -17.4479 1.11088
-10.565 -17.3517 1.01511
-9.21893 -17.8964 1.50779
-10.4027 -17.4664 0.948374
-10.912 -17.2417 0.725477
-11.4678 -17.0235 0.45266
-11.5784 -16.5133 0.101659
-8.79766 -19.0592 1.87048
-10.2522 -17.6321 0.625989
-9.38845 -17.9523 0.97338
-15.0559 -15.7664 -1.73723
-11.5166 -17.1756 -0.119558
-11.5652 -17.0973 -0.185421
-11.9624 -16.17 -0.916998
-12.3661 -17.0612 -1.27364
-9.6182 -18.212 -0.334446
-11.0171 -17.8334 -1.46342
-11.2269 -17.7776 -1.63824
-9.7609 -18.3384 -0.96852
-8.3205 -17.6328 3.33238
-10.5796 -16.038 2.33236
-12.7845 -15.3324 2.02877
-10.7537 -16.0048 2.19567
-8.31624 -17.6815 3.16837
-10.4676 -16.1366 2.24025
-8.22516 -17.7616 3.15721
-11.771 -15.8841 1.98856
-10.1781 -16.3185 2.13088
-9.62208 -17.3181 2.74758
-10.0454 -16.4022 2.11922
-11.8371 -15.914 1.64202
-11.963 -15.9102 1.46922
-11.0181 -16.5434 1.63267
-10.0271 -17.2872 2.14211
-10.0888 -17.2838 2.05594
-12.446 -15.8346 1.01435
-13.7335 -15.2782 0.323601
-10.5577 -17.25 1.3747
-10.6824 -16.7121 0.922041
-11.6705 -16.4897 0.690554
-12.6799 -15.8826 0.0785062
-9.55507 -17.6851 1.57402
-11.4681 -16.4913 0.462338
-12.0441 -16.3475 -0.230822
-11.9076 -16.3565 -0.859412
-12.3042 -16.3953 -1.13568
-11.6961 -17.2443 -0.726464
-13.3123 -16.6101 -1.79606
-11.7693 -17.3687 -1.1339
-10.3853 -17.9955 -0.912944
-10.5624 -18.0863 -1.51948
-10.0274 -16.7923 3.27589
-10.0473 -16.9329 3.19789
-8.46663 -17.5421 3.37437
-8.32973 -17.6164 3.35885
-8.40225 -17.5835 3.33628
-10.0828 -16.9485 3.08508
-9.85269 -17.1031 3.10349
-8.42518 -17.5912 3.2827
-8.26337 -17.6668 3.30656
-8.44968 -17.6004 3.22845
-8.52316 -17.5671 3.20824
-8.2856 -17.7316 3.16926
-13.5059 -15.2044 1.69421
-10.285 -16.2924 2.09963
-11.7804 -15.9024 1.89863
-12.2586 -15.7822 1.64053
-11.455 -16.3448 1.71091
-12.4668 -15.7996 1.1145
-10.4147 -17.1472 2.0432
-12.538 -15.7901 0.871345
-12.8795 -15.7227 0.435791
-13.0174 -15.6081 -0.148725
-8.80256 -18.0784 1.6844
-11.9768 -16.4098 -0.178731
-12.7737 -15.9294 -1.01303
-9.92876 -17.8033 0.591069
-10.1687 -17.7462 0.33951
-11.9093 -17.1142 -0.632998
-10.7067 -17.6439 -0.225797
-11.0797 -17.7588 -1.37522
-10.8706 -17.9356 -1.60659
-8.50891 -17.5522 3.29484
-10.7545 -15.9554 2.33323
-8.37455 -17.6486 3.17728
-12.1225 -15.6219 1.713
-8.52467 -18.323 3.16852
-12.2712 -15.926 1.25741
-12.5471 -15.6793 1.07255
-12.7228 -15.7001 0.929803
-12.437 -15.9597 0.3527
-8.77636 -18.161 1.96717
-10.3341 -17.4798 0.929278
-9.38598 -17.9949 0.855499
-12.9666 -16.0673 -1.26677
-10.0862 -17.0237 3.064
-8.27205 -17.7011 3.27573
-10.0868 -17.0301 2.91521
-12.0644 -15.7356 1.7379
-11.9218 -15.8663 1.74891
-13.0343 -15.4463 0.531224
-9.74485 -17.5833 1.59708
-12.9671 -15.7102 -0.0780307
-11.9883 -15.9772 0.117723
-11.4953 -16.5981 -0.0877341
-11.1315 -17.8196 -1.61633
-10.4641 -15.9425 2.76722
-10.1203 -16.9593 2.81002
-12.3831 -15.3968 1.77342
-12.5514 -15.886 0.527499
-13.5515 -15.456 -0.535053
-11.5931 -16.8895 0.313823
-12.0794 -16.3166 -0.498349
-10.2634 -15.697 3.29795
-8.19722 -17.8687 3.42039
-12.2803 -15.5179 1.95507
-10.8012 -16.6369 0.822238
-12.077 -16.0536 -0.0850604
-14.142 -15.341 -0.25315
-11.112 -16.6181 1.01386
-10.5345 -17.2596 1.10274
-10.9442 -17.8963 -1.58743
-10.3127 -18.1604 -1.36966
-11.6852 -17.5511 -1.63935
-10.9366 -17.8701 -1.4718
-10.9658 -17.8577 -1.4681
-10.6933 -17.9601 -1.35713
-12.7293 -17.0187 -1.73566
-13.1899 -16.6443 -1.77052
-14.1812 -16.3323 -1.92547
-10.6726 -17.9442 -1.17523
-10.7377 -17.8989 -1.17414
-11.743 -17.43 -1.35629
-11.5792 -17.4922 -1.31338
-9.85065 -18.2804 -0.958856
-11.2635 -17.6289 -1.19515
-9.74343 -18.3296 -0.889788
-12.1291 -17.2283 -1.33111
-12.3406 -17.0848 -1.2814
-9.45972 -18.4138 -0.709602
-14.8231 -15.8969 -1.65748
-9.59083 -18.3402 -0.716044
-10.1456 -18.0868 -0.795966
-14.57 -15.9871 -1.54195
-11.485 -17.4421 -0.998125
-11.7203 -17.3192 -0.98597
-9.93821 -18.1592 -0.623996
-12.3728 -16.9852 -1.01817
-10.1142 -18.0732 -0.625652
-15.5537 -15.4602 -1.44547
-10.2091 -17.9936 -0.592814
-11.4941 -17.3814 -0.775119
-11.0857 -17.5583 -0.674343
-11.6871 -17.2654 -0.729218
-11.762 -17.2268 -0.725584
-11.7413 -17.2458 -0.717972
-9.59041 -18.248 -0.403726
-11.3948 -17.3979 -0.639579
-9.61434 -18.2138 -0.329743
-9.96757 -18.0173 -0.303809
-9.94701 -18.03 -0.301942
-11.4598 -17.3118 -0.436264
-10.6188 -17.6855 -0.251099
-11.4684 -17.2768 -0.342296
-11.5474 -17.2284 -0.332547
-12.3189 -16.102 -0.471475
-9.49322 -18.192 -0.0133848
-11.9801 -16.1509 -0.22729
-12.0813 -16.1115 -0.202889
-10.3697 -17.7321 0.0736401
-12.0827 -16.0742 -0.166057
-10.274 -17.7683 0.0837468
-10.3373 -17.7313 0.0872531
-15.0765 -15.3701 -0.326289
-9.12456 -18.3113 0.232041
-10.5624 -17.6087 0.131524
-10.813 -17.4754 0.129899
-10.931 -17.4227 0.122573
-10.929 -17.4186 0.136639
-11.3404 -17.171 0.202584
-9.98163 -17.8358 0.34968
-9.15518 -18.2177 0.470312
-9.22694 -18.1798 0.475277
-12.7083 -15.8593 0.296698
-9.49453 -18.0364 0.557014
-11.4538 -17.0387 0.507596
-12.6556 -15.8483 0.460587
-10.6806 -17.3792 0.69576
-10.2943 -17.5505 0.783228
-9.41887 -17.9816 0.803991
-9.03957 -18.1674 0.840392
-10.3013 -17.5284 0.828297
-9.04488 -19.182 1.05375
-10.3204 -17.5059 0.962619
-10.4035 -17.4513 0.965552
-10.0742 -17.5933 0.969104
-12.6282 -15.7655 0.902146
-8.95036 -18.1725 1.00486
-10.5317 -17.3419 1.03843
-9.33448 -17.9576 1.09697
-10.3246 -17.427 1.13574
-9.32934 -17.9414 1.12786
-9.36413 -17.9159 1.15127
-10.1937 -17.4986 1.18408
-11.4782 -16.4765 1.16642
-9.79381 -17.6854 1.22635
-9.87382 -17.6239 1.25344
-9.67918 -17.7255 1.2597
-10.3432 -17.3694 1.2862
-12.2842 -15.8211 1.27843
-12.2855 -15.7633 1.3119
-11.9162 -15.9863 1.29649
-11.8891 -16.0017 1.30411
-12.3477 -15.6409 1.32071
-11.4232 -16.4299 1.38542
-8.89812 -18.0808 1.36971
-10.0749 -17.4446 1.49652
-9.88919 -17.5518 1.51468
-9.99578 -17.489 1.52893
-9.76413 -17.6053 1.52463
-9.9923 -17.4837 1.57704
-12.9564 -15.3378 1.70486
-12.2009 -15.4607 1.61795
-12.1448 -15.5258 1.64252
-12.161 -15.4316 1.6487
-9.45198 -17.7266 1.61236
-12.1456 -15.4359 1.67444
-12.1385 -15.4687 1.6792
-9.43941 -17.7257 1.6516
-12.0925 -15.5617 1.74192
-12.1927 -15.3691 1.72995
-11.9668 -15.701 1.76616
-11.963 -15.7321 1.79338
-11.4025 -16.3394 1.81858
-8.76789 -19.0879 1.87574
-10.4811 -17.1462 1.85058
-12.8883 -15.309 1.98703
-10.5328 -16.578 1.83043
-10.0382 -17.3238 2.04848
-10.0335 -17.2981 2.05083
-9.77656 -17.4116 2.04607
-10.0591 -17.2857 2.08874
-10.3401 -17.0803 2.27986
-9.68353 -17.4135 2.19071
-11.4392 -15.6247 2.29452
-10.21 -17.1304 2.36148
-10.1568 -17.1626 2.36009
-12.1817 -15.1758 2.49206
-11.6244 -15.4794 2.45182
-11.1532 -15.7349 2.38896
-8.80684 -17.8694 2.27164
-9.93963 -17.2074 2.53378
-8.77576 -17.8459 2.40502
-9.6925 -17.3082 2.63224
-9.50542 -17.3992 2.64862
-9.80494 -17.2367 2.77985
-10.0297 -17.0862 2.81951
-9.79637 -17.2361 2.78821
-9.24899 -17.5294 2.71623
-10.2397 -16.0645 2.81038
-9.99887 -17.0531 2.97151
-10.1825 -14.5307 2.52777
-10.0103 -17.0373 3.04226
-10.181 -14.4946 2.57538
-10.1739 -14.5091 2.61699
-9.74422 -17.1784 3.06645
-9.44036 -17.3038 3.10211
-8.98556 -17.552 3.06273
-9.9939 -18.2995 -1.27753
-10.189 -18.1972 -1.25957
-11.1886 -17.7246 -1.41234
-11.204 -17.7029 -1.40054
-11.2853 -17.6672 -1.39237
-10.2428 -18.134 -1.16686
-13.1561 -16.6639 -1.78426
-11.6265 -17.5029 -1.42323
-13.079 -16.8079 -1.713
-11.6216 -17.5051 -1.38309
-11.895 -17.3372 -1.36827
-14.6605 -16.0558 -1.8964
-10.9264 -17.7821 -1.13949
-10.5525 -17.9325 -0.986987
-10.1694 -18.1028 -0.91281
-9.35753 -18.4717 -0.731847
-9.38557 -18.4497 -0.735601
-9.77043 -18.2688 -0.767165
-14.8218 -15.899 -1.67983
-16.0896 -15.3233 -1.89222
-11.5815 -17.459 -1.07176
-12.5718 -16.2997 -1.16551
-12.0723 -17.1256 -0.992487
-9.97507 -18.133 -0.634088
-10.0749 -18.0856 -0.60863
-15.4871 -15.4856 -1.41623
-11.8167 -17.1966 -0.752506
-10.2302 -17.9429 -0.494017
-10.4265 -17.873 -0.473797
-10.5536 -17.7802 -0.45966
-12.229 -16.0256 -0.746668
-9.73863 -18.1402 -0.292102
-12.406 -15.9252 -0.724524
-11.8288 -17.1329 -0.55605
-10.9804 -17.5382 -0.440595
-11.8739 -17.1151 -0.552771
-9.95668 -18.0252 -0.285059
-13.337 -15.4298 -0.769531
-10.5067 -17.7478 -0.262218
-10.6049 -17.6873 -0.217301
-9.71467 -18.0953 -0.0740254
-9.73054 -18.0834 -0.0648282
-11.5237 -17.1829 -0.136363
-10.123 -17.8471 0.0293336
-11.9769 -16.1747 -0.216731
-10.3065 -17.7508 0.0760826
-12.004 -16.1721 -0.0464423
-10.2663 -17.6911 0.365448
-10.2072 -17.6794 0.489148
-9.81126 -17.8682 0.586369
-10.2449 -17.6391 0.598821
-9.42676 -18.0135 0.655277
-12.7831 -15.7673 0.50086
-9.06405 -18.2036 0.713305
-9.4215 -18.0131 0.70997
-12.8077 -15.7427 0.578986
-12.8414 -15.7011 0.673877
-9.26231 -18.0614 0.824332
-9.55167 -17.9077 0.819749
-10.2462 -17.5448 0.90363
-9.01383 -19.1867 1.08976
-10.4348 -17.4339 0.971466
-10.0492 -17.5963 1.0743
-10.2039 -17.4974 1.12553
-13.6088 -15.308 1.13097
-10.0557 -17.5386 1.20264
-11.5949 -16.3967 1.23399
-9.90632 -17.6116 1.25426
-10.244 -17.4232 1.27998
-10.4556 -17.3139 1.28941
-10.4222 -17.2843 1.41565
-13.745 -15.2256 1.52105
-11.3095 -16.4584 1.4491
-12.3771 -15.7532 1.5226
-9.79985 -17.594 1.50574
-11.9015 -15.9389 1.56596
-10.1484 -17.4011 1.5643
-12.1716 -15.4983 1.63326
-9.11655 -17.9063 1.59339
-9.46557 -17.7149 1.62696
-9.68322 -17.6052 1.64542
-8.98998 -17.9725 1.60731
-12.1372 -15.4495 1.68529
-9.67598 -17.6032 1.6592
-9.19186 -17.871 1.62632
-9.02715 -17.9461 1.63551
-9.65752 -17.6202 1.73035
-8.94904 -17.9578 1.71576
-11.5867 -16.2069 1.88325
-10.4725 -16.6089 1.8019
-9.49091 -17.6151 1.90895
-10.3284 -17.1559 2.02882
-10.016 -17.339 2.04002
-10.3458 -17.0813 2.26557
-10.0853 -16.3737 2.10719
-9.27239 -17.6664 2.17311
-9.68547 -17.4444 2.28063
-9.60526 -17.4804 2.28234
-10.2266 -17.1183 2.37173
-10.0411 -17.2202 2.3545
-9.46121 -17.5625 2.27901
-9.43282 -17.5192 2.36647
-10.0709 -17.1479 2.54565
-10.056 -17.1571 2.5606
-9.07467 -17.6921 2.41029
-9.18601 -17.6068 2.5201
-9.91953 -17.1568 2.77638
-10.0319 -17.0913 2.79821
-9.94264 -17.1431 2.78634
-10.1978 -16.1244 2.68208
-9.77555 -17.1674 2.95529
-10.2058 -14.4452 2.54752
-10.7763 -13.8273 2.63081
-10.1535 -14.5461 2.61847
-9.83918 -17.1229 3.08838
-10.1218 -14.6425 2.65191
-8.84808 -17.6754 2.88915
-10.1236 -14.6217 2.66145
-9.92418 -16.1934 2.94328
-9.38743 -17.3408 3.06539
-9.24729 -17.4293 3.07172
-8.80265 -17.6808 3.01092
-10.1294 -14.4594 2.77512
-10.382 -15.7678 3.21469
-10.3309 -15.7911 3.22356
-9.76109 -16.2014 3.10624
-9.89364 -16.8499 3.32425
-9.19859 -17.2276 3.24225
-9.89927 -14.7948 2.9753
-10.1163 -14.0852 2.89633
-8.62218 -17.5223 3.20858
-8.2417 -17.7358 3.11778
-10.6423 -13.4888 3.08484
-10.2274 -18.1895 -1.25601
-9.6155 -18.3942 -0.998348
-11.6098 -17.5147 -1.40609
-11.5225 -17.5582 -1.39018
-9.66653 -18.3894 -0.99455
-15.8803 -15.5187 -2.2034
-12.8248 -16.9119 -1.53206
-14.6021 -16.0592 -1.83455
-10.591 -17.9057 -1.00176
-11.3442 -17.5504 -1.08818
-10.6849 -17.8408 -0.947068
-16.1637 -15.2765 -1.92592
-15.1813 -15.7144 -1.70784
-10.377 -17.9579 -0.801402
-12.5213 -16.3179 -1.15805
-12.4073 -16.372 -1.11404
-11.5017 -17.3938 -0.796821
-10.2425 -17.9767 -0.594843
-10.2048 -17.9657 -0.539339
-10.5395 -17.7871 -0.506295
-10.4819 -17.8215 -0.489235
-10.7498 -17.666 -0.407364
-13.4256 -15.3677 -0.763103
-9.59032 -18.184 -0.174752
-10.5638 -17.7187 -0.277068
-9.24003 -18.3415 -0.102067
-12.1637 -16.2323 -0.457981
-10.7234 -17.6549 -0.211859
-10.7412 -17.6431 -0.194167
-10.6906 -17.6514 -0.180308
-9.80161 -18.0419 -0.00670481
-11.3726 -17.2703 -0.16161
-11.4832 -17.2056 -0.147205
-12.226 -15.998 -0.184267
-9.16065 -18.2988 0.200828
-12.1623 -16.023 -0.107607
-10.7492 -17.5096 0.121634
-10.8873 -17.458 0.129109
-10.991 -17.3638 0.176447
-9.51595 -18.0851 0.296475
-9.68437 -18.0053 0.342423
-10.3818 -17.6342 0.374043
-10.6319 -17.4864 0.410265
-10.2106 -17.6544 0.604638
-9.06143 -18.1848 0.74153
-10.5633 -17.4295 0.709963
-13.714 -15.3433 0.606936
-10.9618 -17.2043 0.752101
-9.3433 -18.0289 0.856894
-9.37201 -18.0041 0.864509
-12.7433 -15.711 0.892424
-8.99025 -18.1569 0.974243
-10.6342 -17.3301 0.983491
-10.2414 -17.5036 1.02678
-9.22602 -18.0186 1.04435
-11.8813 -16.0683 1.04963
-10.2336 -17.4789 1.11244
-10.2047 -17.4994 1.11174
-13.5838 -15.3243 1.1683
-10.1911 -17.494 1.20105
-11.4886 -16.4711 1.19185
-11.3129 -16.5514 1.19783
-11.8968 -15.9881 1.34528
-12.4398 -15.723 1.60325
-9.90253 -17.5252 1.55803
-11.2939 -16.4458 1.61604
-9.74006 -17.5914 1.58707
-9.701 -17.6139 1.60329
-12.1038 -15.475 1.77454
-11.9652 -15.6866 1.79516
-12.0614 -15.5194 1.78311
-9.8191 -17.5232 1.75492
-10.1218 -17.3546 1.79951
-11.7896 -15.8982 1.84493
-11.946 -15.676 1.83954
-10.2652 -17.2828 1.82485
-10.0002 -17.3467 1.95077
-9.37486 -17.6964 1.91703
-10.028 -17.3275 1.9851
-10.4311 -17.0977 2.10001
-11.6727 -15.6439 2.24798
-12.1488 -15.2507 2.31811
-11.1609 -15.7877 2.22414
-11.3978 -15.6414 2.27733
-9.65698 -17.4489 2.23266
-10.1641 -17.1605 2.31866
-10.2949 -17.0968 2.34941
-9.34732 -17.6225 2.25511
-9.29589 -17.6393 2.25285
-10.0469 -16.3627 2.21436
-9.8672 -17.2383 2.53117
-9.04432 -17.7064 2.41424
-9.37009 -17.514 2.4682
-10.108 -16.1737 2.67243
-9.29275 -17.4491 2.81515
-10.2591 -14.3321 2.47584
-10.1451 -14.6953 2.51515
-10.2588 -14.2285 2.50995
-10.1692 -14.4794 2.62167
-10.1803 -14.4472 2.62477
-8.74911 -17.7295 2.87995
-9.83443 -17.1108 3.13083
-10.1238 -14.5363 2.7193
-9.2982 -17.383 3.09158
-9.70678 -17.1329 3.19517
-9.00412 -17.539 3.05132
-9.38804 -17.3095 3.15956
-9.17765 -17.2352 3.27117
-8.6164 -17.5129 3.22745
-8.51168 -17.5697 3.20178
-10.8747 -17.9174 -1.55093
-10.0456 -18.2641 -1.27618
-11.0475 -17.8059 -1.42145
-11.5905 -17.5183 -1.34738
-9.81161 -18.314 -0.955053
-15.3955 -15.7111 -2.07212
-12.7763 -16.956 -1.49647
-10.1985 -18.0975 -0.928655
-12.4075 -16.3468 -1.38282
-12.3525 -16.4007 -1.12668
-12.3065 -16.4346 -1.10802
-11.2247 -17.5024 -0.649107
-10.6079 -17.7609 -0.460201
-9.87317 -18.0719 -0.271145
-10.0087 -18.0076 -0.286155
-11.4918 -17.1858 -0.116496
-12.0285 -16.0754 -0.13885
-12.2144 -15.9988 -0.142933
-11.9842 -16.1924 -0.112862
-12.0209 -16.1416 -0.0268223
-12.0278 -16.1967 -0.0177096
-12.6378 -15.9486 0.0601277
-13.0846 -15.5352 0.0444186
-10.2289 -17.7144 0.363715
-13.1937 -15.4938 0.135038
-10.8461 -17.3351 0.448978
-13.0369 -15.6246 0.348492
-9.89409 -17.8124 0.632458
-10.9682 -17.1995 0.753641
-10.9004 -17.2289 0.753344
-11.8631 -16.3969 0.747704
-11.7812 -16.0337 0.708384
-9.89784 -17.7259 0.940461
-13.5702 -15.2933 1.48455
-11.8585 -15.9458 1.5256
-12.8792 -15.3828 1.64384
-9.23868 -17.8613 1.55401
-11.1819 -16.5223 1.63267
-12.1445 -15.5221 1.67478
-12.1108 -15.4429 1.73287
-12.0897 -15.4967 1.80221
-10.013 -17.359 1.89008
-9.33007 -17.7075 1.93534
-9.98144 -17.3788 2.02721
-10.1833 -17.2071 2.07675
-10.1867 -17.1505 2.2996
-9.36928 -17.6066 2.24496
-10.0589 -17.2063 2.37751
-9.5005 -17.5172 2.31104
-9.99231 -17.1981 2.45239
-10.0137 -17.1837 2.52844
-10.1152 -17.1174 2.57417
-9.7382 -17.3025 2.5721
-9.63886 -17.3513 2.55914
-10.2194 -14.5284 2.40614
-10.1644 -14.6612 2.42044
-10.4103 -15.9826 2.81768
-10.2764 -14.3287 2.50253
-9.75954 -17.145 3.05273
-9.42986 -17.2862 3.15962
-9.02719 -17.5092 3.08761
-8.85098 -17.6043 3.08753
-9.87224 -16.0059 3.31291
-8.3189 -17.6815 3.15406
-8.30657 -17.6351 3.3808
-10.8777 -17.916 -1.44605
-11.0565 -17.8103 -1.48599
-11.0265 -17.8294 -1.45883
-12.2023 -17.2099 -1.50573
-9.9641 -18.2209 -0.95928
-11.7595 -17.3659 -1.22141
-12.1806 -16.4607 -1.08214
-10.3515 -17.9241 -0.587817
-11.9242 -16.2169 -0.881923
-11.7518 -16.6189 -0.79854
-11.965 -16.3214 -0.818715
-12.7416 -15.9343 -0.906702
-9.94417 -18.035 -0.292255
-12.0701 -16.3066 -0.36049
-13.1229 -15.4933 0.165036
-11.0083 -17.279 0.452077
-10.8666 -17.2796 0.74544
-11.7278 -16.1499 0.713893
-9.75618 -17.801 0.862134
-10.5834 -17.3663 0.983556
-11.58 -16.4752 1.02332
-10.2809 -17.4501 1.11252
-10.0235 -17.5601 1.22898
-11.3664 -16.5251 1.21921
-11.2733 -16.466 1.51931
-10.3158 -17.2846 1.61315
-11.9751 -15.6422 1.844
-10.2143 -17.2841 1.81719
-11.9496 -15.7787 1.92795
-12.724 -15.3706 2.08711
-9.75092 -17.4633 1.94381
-9.22721 -17.7544 1.90025
-9.94661 -17.3493 2.06259
-9.94437 -17.3317 2.13141
-10.354 -17.0426 2.20104
-12.0546 -15.2853 2.31311
-12.6093 -14.9495 2.42021
-10.9686 -15.8726 2.26088
-10.2818 -17.0916 2.36785
-9.66175 -17.3724 2.50439
-8.76233 -17.8599 2.39126
-8.69964 -17.8782 2.40266
-10.1339 -16.1522 2.67359
-9.79281 -17.1388 2.92593
-9.78543 -17.1571 2.9755
-9.69631 -17.1872 3.0313
-8.71032 -17.7201 2.91442
-8.476 -17.7435 3.06407
-9.83814 -18.2971 -0.971049
-10.3722 -17.9221 -0.545852
-10.5022 -17.8708 -0.555604
-10.4447 -17.8654 -0.522986
-11.9622 -16.1962 -0.791272
-10.9423 -17.595 -0.440073
-11.5034 -16.5521 0.0586805
-11.4982 -16.5541 0.0992858
-11.9893 -16.1509 0.217429
-11.3629 -17.0934 0.486593
-11.4271 -16.528 0.513185
-11.8116 -16.0905 0.763606
-12.7992 -15.7251 0.863695
-12.3446 -15.7016 1.299
-10.5995 -16.6946 1.37165
-11.1794 -16.5197 1.55383
-12.0967 -15.5941 1.86015
-9.82257 -17.4396 1.94092
-11.3543 -15.8474 2.18087
-10.5184 -15.8749 2.49673
-10.859 -13.7674 2.64031
-10.5822 -13.9427 2.61561
-9.47156 -17.2697 3.1545
-10.3841 -15.6633 3.18804
-9.65869 -16.173 3.09854
-9.45631 -17.0808 3.29956
-9.13776 -17.2485 3.26104
-9.91041 -14.8923 3.14336
-8.28635 -17.7338 3.1625
-8.64684 -17.5258 3.44109
-15.9108 -15.3251 -1.50647
-11.7139 -17.2173 -0.728178
-10.1703 -17.7503 0.342126
-13.9007 -15.2653 0.262828
-9.84499 -17.7322 0.888642
-9.67922 -17.8237 0.911765
-12.5393 -15.7846 0.861282
-10.2226 -17.5411 0.976491
-10.3069 -17.4773 0.997144
-12.4029 -15.6183 1.30209
-10.9906 -16.6416 1.53643
-11.4452 -16.3547 1.70864
-9.33275 -17.5976 2.23756
-9.19982 -17.433 3.08747
-8.51489 -17.5689 3.21489
-8.30492 -17.645 3.32611
-11.9564 -16.1247 0.126526
-12.669 -15.8322 0.40834
-11.3293 -16.445 1.6953
-9.41142 -17.6593 2.01161
-10.0559 -17.0201 3.07387
-9.52041 -17.3018 3.06226
-10.4834 -17.6982 -0.251093
-12.4699 -15.8911 0.347241
-8.81321 -18.3402 2.17721
-11.8193 -16.5536 -0.854223
-11.9863 -16.5355 -0.511149
-12.0818 -16.3267 -0.498721
-12.0876 -16.0732 -0.228411
-10.4625 -17.3354 1.15447
-9.57895 -17.2664 3.05986
-10.3864 -15.5613 3.13422
-12.8327 -15.8591 -1.05073
-12.0546 -16.0555 -0.0926324
-10.1201 -16.9036 2.80644
-11.4956 -16.8365 0.110335
-16.4433 -15.2164 -2.19584
-14.7765 -16.0533 -2.10981
-14.6568 -16.0534 -1.89497
-14.2877 -16.2591 -1.91457
-14.5367 -16.0948 -1.81213
-14.1944 -16.3319 -1.92148
-13.9036 -16.4681 -1.93102
-13.4936 -16.532 -1.9365
-14.2187 -16.2451 -1.80114
-14.1916 -16.2798 -1.82018
-15.4418 -15.515 -1.41695
-14.2178 -16.259 -1.78619
-14.2215 -16.2374 -1.76802
-13.3463 -16.5952 -1.8774
-13.3536 -16.5914 -1.83958
-13.2161 -16.6398 -1.81169
-13.1431 -16.6595 -1.82165
-13.1795 -16.6551 -1.80249
-14.3491 -16.1476 -1.55326
-13.0727 -16.8374 -1.86548
-13.1737 -16.6378 -1.72451
-13.2026 -16.6218 -1.71126
-13.1848 -16.6563 -1.71648
-12.7814 -17.002 -1.7868
-12.8112 -16.9855 -1.74346
-13.5148 -15.3157 -0.736835
-12.8261 -16.9118 -1.52736
-12.6575 -16.9602 -1.41562
-15.1302 -15.344 -0.341899
-14.7996 -15.5386 -0.404148
-11.7595 -17.4839 -1.58188
-14.8188 -15.5418 -0.38306
-12.4059 -17.0624 -1.27174
-12.3647 -17.0947 -1.28429
-11.3534 -17.6929 -1.62142
-11.4794 -17.6062 -1.52696
-11.2388 -17.7527 -1.60241
-12.9262 -15.7649 -0.399357
-11.4758 -17.5951 -1.47912
-11.7238 -17.4396 -1.37776
-11.7166 -17.4399 -1.36309
-12.7286 -15.8732 -0.419834
-11.4958 -17.5685 -1.4085
-11.5422 -17.5397 -1.38045
-12.5389 -15.9831 -0.444283
-11.3799 -17.622 -1.4043
-11.5821 -17.4961 -1.31295
-11.1798 -17.7372 -1.43172
-11.1631 -17.7525 -1.43311
-13.0069 -15.5901 -0.111981
-11.2887 -17.6518 -1.36754
-11.2251 -17.7002 -1.39798
-11.2305 -17.7021 -1.37852
-10.9848 -17.8629 -1.48113
-10.9691 -17.8588 -1.46497
-10.9539 -17.8612 -1.45396
-10.6615 -18.0398 -1.57637
-12.9897 -15.5872 -0.0512933
-13.1864 -15.4841 0.0926354
-13.0846 -15.5298 0.0790608
-11.4375 -17.5159 -1.13604
-10.6935 -17.993 -1.46292
-12.082 -16.404 -0.469785
-11.2589 -17.6264 -1.1933
-10.5559 -18.0773 -1.48542
-11.7186 -17.3074 -0.946617
-11.4744 -17.4385 -0.995497
-11.8345 -17.2096 -0.82859
-12.2062 -15.9839 -0.119084
-11.9728 -16.1509 -0.227101
-10.3024 -18.2147 -1.5142
-10.3373 -18.2041 -1.49745
-12.2151 -15.9825 -0.101546
-11.381 -17.4996 -0.990197
-13.0004 -15.7436 0.164595
-11.3819 -17.4834 -0.947293
-11.6956 -17.2739 -0.747029
-11.7434 -17.2441 -0.714527
-11.3335 -17.4844 -0.809381
-10.4765 -18.0434 -1.21363
-12.0469 -16.2688 -0.00972724
-10.1861 -18.202 -1.25896
-10.5112 -17.9833 -1.09355
-10.0294 -18.2919 -1.27787
-10.6456 -17.8603 -0.949924
-10.2024 -18.1369 -1.12342
-12.7827 -15.7619 0.518836
-10.4763 -17.9685 -0.976282
-10.4081 -17.9995 -0.992532
-12.6221 -15.9634 0.438091
-9.9488 -18.2914 -1.17619
-10.1446 -18.1191 -0.925136
-9.98654 -18.191 -0.952862
-10.6613 -17.7554 -0.577278
-11.4921 -17.1968 -0.118211
-13.6602 -15.3063 1.34009
-10.1493 -18.0801 -0.740996
-10.3484 -17.9173 -0.606401
-11.0163 -17.4686 -0.229127
-11.3858 -17.2048 -0.0173955
-10.5918 -17.7723 -0.454598
-10.0568 -18.1048 -0.728322
-12.8621 -15.5322 1.18385
-10.4242 -17.8696 -0.473817
-10.2716 -17.9451 -0.54034
-10.6362 -17.688 -0.302405
-10.1056 -18.0524 -0.594631
-13.0432 -15.3614 1.45275
-10.8218 -17.6395 -0.176972
-11.4688 -17.1084 0.230509
-9.93857 -18.1558 -0.62309
-12.9995 -15.3971 1.4733
-10.2337 -17.9192 -0.413368
-12.8888 -15.443 1.44333
-11.883 -16.0635 0.981696
-11.9001 -16.0638 1.00324
-12.3379 -15.6345 1.33803
-11.0692 -17.3132 0.205087
-11.0585 -17.3064 0.240666
-11.5113 -16.9982 0.509603
-12.2708 -15.7348 1.35837
-12.2771 -15.7798 1.33694
-11.4349 -17.0494 0.491896
-13.3795 -15.2895 1.85852
-10.7857 -17.4874 0.145717
-9.94728 -18.0365 -0.302044
-12.2035 -15.4593 1.60494
-12.0215 -15.9246 1.33405
-11.8948 -16.0006 1.28074
-12.9333 -15.2777 1.95927
-10.3224 -17.7422 0.0737097
-10.3261 -17.7343 0.0955071
-12.7759 -15.3603 1.94133
-11.0864 -17.1891 0.57692
-10.1993 -17.8287 0.0742489
-10.1036 -17.8429 0.0639815
-11.4927 -16.4786 1.16446
-11.5903 -16.4039 1.26252
-11.9706 -15.6696 1.77819
-11.735 -16.0096 1.56099
-11.9479 -15.6758 1.81675
-11.954 -15.7023 1.81005
-9.78983 -18.0373 0.0170934
-9.57133 -18.1785 -0.0875403
-10.7778 -17.294 0.742877
-11.9669 -15.7895 1.87794
-11.9684 -15.7822 1.89321
-10.6469 -13.9655 2.43474
-9.49709 -18.1948 -0.0135671
-9.39532 -18.2525 -0.0710235
-12.3983 -14.8684 2.6796
-12.3682 -14.8997 2.65722
-12.3828 -15.0369 2.59177
-10.5271 -17.3911 0.851101
-10.3941 -14.0742 2.49354
-10.4187 -14.0508 2.53175
-10.3098 -17.5376 0.775184
-9.6475 -18.0272 0.32515
-11.5677 -16.2369 1.89431
-10.2997 -17.5303 0.82968
-10.5276 -16.7117 1.33515
-11.3992 -16.3384 1.81905
-10.5306 -17.3426 1.03787
-9.78967 -17.8843 0.519531
-11.5299 -15.5583 2.30586
-9.84791 -17.8045 0.698612
-10.1791 -14.4889 2.57378
-10.2138 -17.4883 1.13303
-10.2075 -17.5053 1.12215
-10.1985 -17.5072 1.13177
-10.1477 -13.9971 2.8675
-10.3452 -17.372 1.28655
-10.1545 -14.5493 2.61676
-10.1523 -14.5054 2.64866
-10.9155 -15.9014 2.2564
-9.37989 -18.0451 0.676107
-9.41849 -18.0145 0.708192
-10.1268 -14.631 2.64077
-10.1331 -14.4902 2.75443
-10.5747 -17.1664 1.63057
-10.2632 -17.3498 1.56119
-10.3457 -16.2153 2.18814
-10.4791 -17.1458 1.85305
-9.21953 -19.2895 0.286177
-10.0494 -17.4615 1.54783
-9.64035 -17.7428 1.26129
-9.99398 -17.4787 1.56561
-9.13059 -18.1033 0.89577
-9.99813 -17.478 1.57943
-9.88217 -17.55 1.54257
-9.31994 -17.9744 1.09211
-9.03662 -19.3074 0.349025
-10.294 -15.3224 2.82917
-9.95495 -17.4513 1.69884
-9.63627 -17.6901 1.48838
-9.69289 -17.6483 1.54915
-9.38872 -17.8113 1.43184
-9.86506 -14.7752 3.10418
-10.2687 -16.0781 2.69054
-10.1589 -17.213 2.14977
-10.0252 -17.3173 2.0466
-10.1538 -17.2153 2.16135
-9.19356 -17.9202 1.42879
-9.87893 -17.3681 2.05013
-10.0596 -17.2158 2.34767
-8.92771 -18.0726 1.37385
-9.96664 -17.278 2.28799
-10.1065 -17.1591 2.42513
-9.21051 -17.8635 1.67929
-9.67949 -17.4096 2.20344
-9.04273 -19.1839 1.06807
-10.078 -17.141 2.56352
-9.88825 -17.2085 2.61733
-9.80086 -17.2382 2.77426
-9.8055 -17.2259 2.79053
-9.68454 -17.1703 3.15399
-9.67475 -17.1579 3.17478
-8.69056 -17.7348 2.94108
-15.9488 -15.4842 -2.21429
-14.8156 -16.0567 -2.14117
-14.7505 -16.0876 -2.12619
-14.18 -16.3605 -2.03696
-15.1543 -15.7017 -1.60209
-15.1163 -15.7404 -1.61395
-15.5234 -15.4819 -1.42052
-13.3893 -16.5641 -1.88911
-14.8194 -15.8793 -1.51993
-13.2246 -16.639 -1.8518
-14.9428 -15.7656 -1.40411
-13.0619 -16.7033 -1.85096
-15.309 -15.5003 -1.19292
-13.3108 -16.5558 -1.71686
-13.5312 -16.5418 -1.63418
-13.0773 -16.807 -1.71439
-13.0305 -16.8557 -1.69658
-12.7558 -17.0129 -1.77112
-12.9236 -16.9028 -1.67716
-12.7933 -16.9332 -1.54028
-12.5553 -16.3001 -1.15891
-12.2731 -17.2078 -1.55451
-12.6447 -16.9614 -1.39688
-15.2018 -15.3422 -0.319024
-11.7381 -17.4779 -1.59794
-12.2283 -16.0246 -0.747867
-12.4698 -17.0255 -1.2817
-12.4386 -17.0406 -1.2772
-11.4003 -17.6464 -1.55744
-11.1706 -17.7749 -1.6039
-12.8248 -15.8305 -0.425702
-11.6672 -17.4878 -1.38724
-11.2915 -17.6943 -1.52367
-11.6735 -17.4728 -1.36628
-11.515 -17.5562 -1.39131
-11.4095 -17.6064 -1.40171
-10.8902 -17.936 -1.61569
-11.0069 -17.8501 -1.51237
-11.3196 -17.6227 -1.34577
-11.1862 -17.7265 -1.41253
-12.1756 -16.1863 -0.491334
-10.6368 -18.0615 -1.60802
-13.1092 -15.5227 -0.031904
-13 -15.5688 -0.0238425
-11.7108 -17.3469 -1.0567
-10.7679 -17.9669 -1.45546
-13.0593 -15.5551 0.0588864
-10.7295 -17.9703 -1.44876
-10.6211 -18.0533 -1.49545
-10.5627 -18.0849 -1.51048
-10.6464 -18.0651 -1.48241
-10.5813 -18.0679 -1.49177
-11.3838 -17.5419 -1.10896
-11.3616 -17.5466 -1.09502
-11.9904 -16.1315 -0.21885
-11.9906 -16.1281 -0.197169
-11.9652 -16.1617 -0.207972
-11.646 -17.3276 -0.878822
-11.9781 -16.1208 -0.169805
-10.3507 -18.1668 -1.45081
-11.6467 -17.3148 -0.806053
-11.7586 -17.2207 -0.723233
-10.7043 -17.9269 -1.18732
-10.6416 -17.965 -1.20155
-11.5411 -17.358 -0.760009
-10.6702 -17.941 -1.17344
-11.5047 -17.3848 -0.773827
-11.973 -16.1217 0.0947964
-11.9541 -16.1167 0.119016
-10.8323 -17.7653 -0.878971
-10.5467 -17.9251 -0.988092
-11.4833 -17.2586 -0.353629
-13.8941 -15.1905 1.13425
-10.4946 -17.9163 -0.843638
-10.2149 -18.0917 -0.916012
-11.1961 -17.4157 -0.363579
-11.5542 -17.1668 -0.152832
-11.5319 -17.1605 -0.102306
-10.6711 -17.767 -0.552635
-10.1288 -18.089 -0.782639
-12.9605 -15.4445 1.13202
-12.9338 -15.4767 1.11298
-10.5519 -17.7906 -0.533235
-9.78484 -18.3313 -0.945369
-10.1529 -18.0626 -0.726298
-10.2456 -17.9853 -0.651672
-10.5604 -17.7791 -0.47683
-10.0957 -18.0824 -0.720287
-11.3117 -17.2659 -0.0395981
-10.1329 -18.0575 -0.664385
-13.5981 -15.2892 1.47015
-10.177 -18.012 -0.615521
-13.531 -15.329 1.46416
-13.4938 -15.3439 1.47471
-11.3282 -17.164 0.20398
-13.4563 -15.3055 1.64167
-10.509 -17.7446 -0.245965
-12.8244 -15.4754 1.44552
-11.0442 -17.3505 0.104861
-12.9406 -15.3732 1.59133
-9.51747 -18.3759 -0.704782
-10.2191 -17.9124 -0.302859
-10.2666 -17.894 -0.26863
-11.9166 -16.0488 1.06644
-9.36806 -18.4605 -0.744383
-12.9442 -15.3387 1.70574
-12.2859 -15.8061 1.31896
-11.8406 -16.0921 1.06664
-9.6387 -18.2316 -0.458638
-11.9042 -15.9872 1.27153
-12.1684 -15.5055 1.61044
-10.4677 -17.6739 0.114079
-11.8659 -16.0083 1.31812
-12.1486 -15.6466 1.6411
-11.4493 -16.5436 1.05442
-11.2645 -17.0574 0.758427
-10.1843 -17.8408 0.085081
-12.7895 -15.299 2.10163
-12.7577 -15.3314 2.09564
-9.59209 -18.188 -0.19098
-10.0887 -17.8304 0.146316
-9.84592 -18.0474 -0.0285819
-11.9663 -15.6807 1.79331
-11.2795 -16.5708 1.24363
-10.0815 -17.8091 0.273655
-11.4234 -16.4324 1.38554
-11.9421 -15.8118 1.86102
-11.9114 -15.8373 1.83976
-11.9493 -15.8035 1.89016
-11.7593 -15.9209 1.82727
-10.5636 -17.4295 0.710514
-10.2103 -17.6795 0.491105
-10.4983 -17.4818 0.681433
-11.8159 -15.856 1.96429
-10.2404 -17.6383 0.60067
-11.2671 -16.4823 1.52149
-11.2863 -16.449 1.54808
-12.3645 -14.8907 2.68264
-11.2904 -16.4453 1.61663
-10.6636 -17.2955 1.00427
-11.5531 -16.2377 1.86567
-11.1773 -16.5274 1.60326
-10.4336 -17.4306 0.914359
-10.4126 -17.4434 0.917786
-9.48925 -18.1059 0.28667
-11.5468 -15.5547 2.29413
-11.4648 -16.2855 1.91048
-9.85888 -17.8367 0.620952
-11.4732 -15.5906 2.34063
-10.2006 -14.4396 2.54692
-10.2198 -17.5023 1.06964
-10.2169 -17.494 1.08799
-10.1954 -17.5053 1.08301
-10.9407 -16.5781 1.8736
-10.1526 -17.5191 1.12036
-10.3801 -17.3468 1.29624
-11.2458 -15.6706 2.46005
-10.2031 -17.4914 1.17404
-10.0511 -17.5973 1.07579
-10.9045 -15.914 2.26061
-10.4207 -17.283 1.41494
-10.1238 -14.6412 2.65112
-10.6638 -16.0074 2.34614
-10.2539 -17.3579 1.52712
-10.676 -15.9939 2.3715
-10.2705 -17.3325 1.55562
-10.3723 -16.2048 2.20809
-9.9723 -17.4933 1.55455
-10.1188 -16.2977 2.33086
-10.2667 -15.2921 2.93424
-9.23709 -17.9778 1.18428
-9.67451 -17.6538 1.55934
-10.3927 -16.0062 2.71018
-9.01977 -18.1001 1.11848
-10.4844 -15.92 2.85743
-9.58304 -17.6419 1.67275
-10.0135 -17.3491 2.05266
-10.0016 -17.2959 2.18379
-10.3383 -15.9601 2.99952
-9.97561 -17.2861 2.26372
-9.70876 -17.4658 2.04843
-9.19421 -17.8741 1.6047
-10.0476 -16.1533 2.88581
-10.1376 -16.053 3.0376
-10.069 -17.1524 2.54529
-9.66844 -17.4256 2.20546
-9.32133 -17.7234 1.92961
-9.17214 -17.7795 1.93722
-9.1406 -17.7969 1.92644
-9.98925 -17.1256 2.82479
-9.44368 -17.5282 2.32502
-9.76462 -17.2908 2.63878
-9.8225 -17.2235 2.77669
-9.8297 -17.2136 2.79428
-9.45087 -17.4866 2.51621
-9.19562 -17.5796 2.67992
-9.67221 -17.1486 3.1918
-9.43536 -17.3277 3.07089
-8.76723 -19.0885 1.87325
-8.76083 -19.0965 1.88554
-9.1949 -17.2269 3.24523
-9.17909 -17.228 3.25492
-9.0801 -17.4927 3.08548
-9.17297 -17.2269 3.26936
-8.72627 -17.7101 2.96909
-8.23104 -17.6694 3.36585
-15.9085 -15.517 -2.20642
-15.5689 -15.6212 -2.01063
-15.1263 -15.8476 -2.07003
-14.5075 -16.1343 -1.89478
-14.4646 -16.1724 -1.90393
-15.1724 -15.6976 -1.66122
-15.6483 -15.3989 -1.40284
-13.2055 -16.6582 -1.87165
-14.095 -16.2838 -1.6394
-13.1365 -16.6669 -1.78388
-13.8813 -16.39 -1.62778
-13.1996 -16.6899 -1.76886
-12.5334 -16.3276 -1.15782
-12.6785 -16.9854 -1.50972
-12.1489 -16.4718 -1.10532
-12.132 -17.2623 -1.4903
-12.1963 -16.0196 -0.767082
-12.1606 -17.211 -1.38638
-11.437 -17.63 -1.54504
-12.7617 -15.8582 -0.381684
-12.5678 -15.9699 -0.410974
-13.1418 -15.4964 -0.0890572
-12.2973 -16.043 -0.432958
-11.0404 -17.8141 -1.4776
-12.9709 -15.6139 -0.107079
-11.0539 -17.8025 -1.4283
-13.2067 -15.49 0.0106628
-13.147 -15.5283 0.00181937
-10.8027 -17.9574 -1.47962
-10.7491 -17.9788 -1.48152
-12.0797 -16.1765 -0.317906
-10.5125 -18.1049 -1.49571
-12.2083 -15.9974 -0.178598
-10.4898 -18.1283 -1.48874
-12.0924 -16.0576 -0.200552
-11.9618 -16.1511 -0.259588
-10.3001 -18.2154 -1.53861
-10.2615 -18.2414 -1.55308
-12.0782 -16.0611 -0.174312
-11.9627 -17.1349 -0.757341
-10.2571 -18.2281 -1.5029
-13.0685 -15.6762 0.188035
-12.0958 -16.0789 -0.0275831
-12.9495 -15.7497 0.247899
-10.6656 -17.9436 -1.19168
-12.882 -15.7661 0.328442
-11.3999 -16.5329 -0.206818
-11.4932 -17.3454 -0.637559
-11.9542 -16.0905 0.122427
-9.96048 -18.3255 -1.28936
-9.78899 -18.4231 -1.33631
-11.1451 -17.5242 -0.638441
-10.2041 -18.1158 -1.01729
-10.72 -17.7653 -0.73344
-10.3637 -17.998 -0.911673
-12.7914 -15.5157 0.833781
-12.7595 -15.5582 0.833224
-11.5217 -17.1673 -0.133986
-11.388 -17.2478 -0.175783
-11.3681 -17.2694 -0.164675
-12.115 -15.8677 0.747859
-10.8049 -17.6322 -0.407636
-9.60248 -18.4113 -1.00146
-13.048 -15.423 1.21787
-10.4799 -17.8258 -0.487784
-10.1583 -18.0069 -0.590124
-10.7254 -17.6412 -0.269218
-10.2845 -17.9264 -0.47984
-12.4812 -15.8174 1.08704
-10.7701 -17.6058 -0.194493
-10.2386 -17.9413 -0.458631
-12.9163 -15.4174 1.45055
-11.8552 -16.4104 0.752215
-12.3152 -15.6725 1.3331
-12.2873 -15.7531 1.32893
-12.1878 -15.5087 1.58684
-12.1696 -15.4862 1.63125
-9.63726 -18.226 -0.396597
-12.1728 -15.3765 1.75646
-12.0954 -15.5352 1.71315
-11.8816 -15.9502 1.4753
-12.105 -15.5891 1.73407
-11.8587 -15.9825 1.47517
-12.0766 -15.5267 1.76871
-11.2076 -17.0576 0.7995
-11.9111 -15.9357 1.57508
-9.84223 -18.0106 0.017804
-9.74408 -18.0829 -0.0388317
-10.5113 -16.5971 1.00313
-10.1371 -17.7655 0.302566
-10.2205 -17.717 0.364326
-10.246 -17.7063 0.389089
-11.8268 -15.8868 1.81014
-10.5645 -17.4436 0.686539
-11.7 -15.9589 1.83282
-12.3977 -15.0437 2.54763
-11.8423 -15.833 1.98383
-11.7763 -15.8678 1.97682
-11.2744 -16.4704 1.54753
-9.58766 -18.0591 0.262918
-11.5946 -16.2127 1.908
-9.50963 -18.0894 0.298051
-9.50859 -18.0801 0.317752
-11.4909 -16.2616 1.92744
-11.4333 -15.6311 2.28749
-10.1741 -21.6446 -1.1121
-9.86477 -17.7866 0.722892
-10.8387 -16.6897 1.64751
-10.5509 -17.2746 1.30362
-10.5014 -17.3001 1.26855
-11.0681 -15.8225 2.2476
-10.5504 -16.5837 1.79398
-10.4544 -16.6362 1.76796
-10.1252 -14.5355 2.71893
-10.1295 -14.5192 2.74483
-9.99914 -17.5824 1.25461
-9.04745 -18.2049 0.706101
-10.0817 -16.3843 2.07934
-9.39181 -17.9004 1.13687
-10.2739 -17.2826 1.83082
-8.984 -18.1913 0.86189
-10.1236 -17.3494 1.79984
-10.4372 -17.0968 2.09778
-10.3274 -17.1527 2.08834
-9.70216 -17.6211 1.57755
-9.60397 -17.6986 1.48877
-10.3995 -16.0116 2.69228
-9.66504 -17.6448 1.57259
-9.62228 -17.6569 1.56605
-9.68598 -17.6084 1.64132
-10.4286 -15.9679 2.80811
-9.37183 -17.7919 1.53068
-8.91647 -18.2569 1.08874
-10.421 -15.9184 2.95735
-10.3016 -17.0894 2.36961
-10.4551 -15.8926 3.00926
-10.3617 -15.9439 2.98889
-10.3392 -15.9713 2.97861
-10.49 -15.747 3.17057
-10.3647 -15.934 3.02898
-10.4612 -15.733 3.18013
-10.1087 -17.1899 2.33563
-10.0968 -17.1791 2.41037
-9.96187 -17.273 2.3065
-8.9981 -17.9647 1.63216
-9.35163 -17.6425 2.07831
-9.49981 -17.526 2.27594
-9.82027 -17.1204 3.0492
-8.81714 -19.0287 1.8754
-9.31421 -17.3887 3.06799
-8.81667 -17.7639 2.65909
-8.7323 -17.771 2.72988
-8.5463 -17.5499 3.21493
-8.5639 -18.6252 2.91503
-14.5618 -16.0901 -1.81399
-13.4415 -16.5311 -1.86985
-14.5628 -16.0239 -1.55179
-13.2899 -16.5859 -1.72362
-13.5854 -16.5327 -1.67528
-13.4103 -15.3671 -0.769364
-13.4135 -15.4204 -0.748002
-13.505 -15.3368 -0.657651
-12.5532 -17.0599 -1.57738
-12.6797 -16.9876 -1.51527
-12.1652 -17.2634 -1.56515
-11.9497 -17.4085 -1.62349
-12.5422 -17.0008 -1.29002
-11.9056 -16.1826 -0.835425
-11.9096 -16.2118 -0.820617
-11.9425 -16.3133 -0.810225
-11.5808 -17.5398 -1.42031
-12.2357 -17.0854 -1.11507
-12.2109 -15.9975 -0.128446
-12.1633 -16.0107 -0.101027
-11.8232 -17.1717 -0.746994
-11.9695 -16.1372 -0.148615
-11.7911 -17.2088 -0.737825
-12.0147 -16.2409 -0.0917399
-12.0386 -16.273 -0.0678163
-11.4431 -16.5124 -0.166079
-11.3743 -17.416 -0.656426
-11.5028 -17.2519 -0.350403
-10.6602 -17.7771 -0.704875
-11.2667 -17.3547 -0.344719
-10.3345 -17.9656 -0.779037
-9.95483 -18.2257 -0.959143
-11.495 -17.2086 -0.149972
-10.5508 -17.8103 -0.55922
-9.81324 -18.3224 -0.953028
-12.8709 -15.5237 1.08501
-12.6637 -15.7718 0.934085
-11.7743 -16.081 0.714854
-12.9258 -15.4922 1.29885
-10.1515 -17.9685 -0.54862
-11.4046 -17.1317 0.205744
-12.3518 -15.647 1.57583
-11.8983 -15.987 1.33224
-12.1101 -15.4819 1.73581
-12.7165 -15.3643 2.06486
-11.8094 -15.9436 1.64891
-10.0748 -17.7874 0.324271
-12.2832 -15.1597 2.35235
-11.7884 -15.898 1.82996
-11.2987 -16.4755 1.44303
-10.521 -17.4548 0.718738
-10.6023 -17.3315 0.976169
-10.5735 -17.3665 0.982642
-9.7938 -17.8769 0.531184
-11.829 -15.3608 2.48115
-9.94569 -17.7722 0.642816
-9.89442 -17.8119 0.63405
-9.5094 -18.0194 0.54854
-10.505 -17.2956 1.30585
-10.228 -17.477 1.10969
-10.0624 -17.6013 1.00126
-10.4075 -17.3444 1.26095
-10.1233 -14.7677 2.4348
-10.4152 -17.3287 1.29371
-11.1984 -15.713 2.39636
-10.1485 -14.7114 2.54066
-10.3286 -17.3902 1.29802
-10.217 -15.1495 2.51506
-10.0785 -14.7184 2.70346
-10.4837 -16.1171 2.30321
-10.2977 -16.2583 2.15638
-10.5318 -15.8905 2.46566
-10.1113 -16.3646 2.10189
-9.32035 -17.9832 1.16513
-10.0065 -17.3571 1.9216
-9.95283 -17.3772 1.90609
-9.6401 -17.6238 1.65464
-10.4043 -15.9847 2.81723
-10.0372 -17.1986 2.36768
