-0.265998 0.048167 -0.200334
-1.76647 0.288509 1.17844
-0.386695 -0.0415189 0.360952
-0.149669 -0.0401374 0.396138
0.666824 0.190398 -0.0871495
-1.29911 0.471703 1.86016
1.3516 -0.518186 -0.26521
1.49254 -0.551278 -0.163126
-0.015304 0.302727 1.51436
0.696611 0.0196363 1.0164
0.493338 -0.195491 -2.84702
1.30347 -0.291324 -2.98617
-1.52567 0.430813 -0.610797
0.669654 -0.280595 -2.23398
1.45108 -0.402789 -2.03162
-0.541474 0.0699518 -0.394676
-0.665971 0.182874 0.581458
-0.189285 -0.0547921 0.38293
-0.0938038 0.310777 1.57112
1.70226 -0.604975 0.113349
2.24813 -0.653301 -0.316041
1.72807 -0.722521 1.42014
3.06388 -0.782758 1.75178
3.43225 -0.837946 1.87518
-1.18813 0.36497 -0.415501
-2.54659 0.274078 0.524624
-0.302348 0.342329 1.49142
0.816213 0.221019 1.22156
0.962359 0.187044 1.1709
-1.39537 0.362357 -0.476599
-0.027232 -0.0939606 0.604561
-2.35139 0.211839 1.18116
-2.61841 0.542985 0.0436229
-2.81813 0.510131 0.211315
-2.52595 0.304866 0.496944
-1.80508 0.347813 0.693481
-1.68316 0.282491 1.19841
1.07846 -0.373729 -1.65193
-1.16149 0.46421 1.69341
-0.553694 0.387171 1.54085
0.0597081 0.304863 1.40151
-1.53395 0.744489 -1.64182
-1.11785 0.604261 -0.92838
-1.43939 0.400516 -0.564442
-0.335472 -0.150621 -1.94339
-1.53796 0.330948 0.257073
-1.78537 0.337731 0.850542
1.18827 -0.344716 -2.00538
-0.289296 -0.0300719 0.233338
-0.335766 -0.028683 0.301033
-0.367764 -0.0542447 0.638581
1.27981 -0.489861 -0.745503
-1.90387 0.355199 0.727195
-1.71837 0.30718 1.02798
-1.78716 0.287576 1.24054
-1.70255 0.258533 1.2965
-1.27546 0.503283 1.00257
-0.649089 0.198725 0.419339
0.433986 -0.338102 -0.820222
-0.640472 0.168496 0.951106
-0.53439 0.135033 0.926185
-0.574906 0.126771 1.01443
-0.513609 0.369573 1.63012
0.184356 -0.123896 0.498718
-0.3062 0.350716 1.49315
1.33015 -0.485431 -0.777705
1.56362 -0.607309 0.340511
-0.59725 0.383158 1.6249
-2.40001 0.913643 -1.35408
-2.68225 0.513383 -0.342454
-1.25027 0.33785 -0.16703
-2.35853 0.165767 1.1717
-0.331117 -0.0584709 0.196627
0.145977 -0.137019 0.480738
-2.50038 0.332283 0.477417
-0.990803 0.595076 -1.00972
-1.66351 0.270532 1.35361
-0.726701 0.162909 0.959229
-0.692532 0.162846 0.903502
-0.27524 -0.152508 -1.89964
-1.67357 0.268754 1.31884
-0.654202 0.162619 0.950166
1.40624 -0.362498 -2.31075
-2.40215 0.262519 0.536731
3.30298 -0.806775 1.6716
-2.72696 0.544677 -0.3728
-1.48695 0.343927 0.18069
0.600496 0.153739 -0.157524
-0.622222 0.0793193 -0.164168
-2.08624 0.515442 -0.189895
-0.584137 0.241589 -0.926275
-3.68971 0.346931 -1.56564
-1.98106 0.692553 -0.745587
-0.34083 0.0244969 -0.16369
-0.314111 -0.0847334 0.920466
-2.49357 0.330565 -0.180419
1.32834 -0.3833 -1.87321
2.43976 -0.705461 -0.0222975
-2.39029 0.24168 0.482654
-0.226228 -0.0565559 0.454779
0.390005 -0.354433 -0.587876
-2.61046 0.568892 -0.539143
-2.56507 0.293569 0.540688
-2.48016 0.310124 0.486007
-0.270191 -0.0282667 0.130542
-2.16407 0.675315 -0.45054
-1.87362 0.411068 0.141242
-1.22352 0.299915 -0.0366361
-1.68238 0.283199 1.20609
-0.737826 0.199122 0.581883
1.35289 -0.535038 -0.204167
-0.560349 0.146084 0.859777
0.594528 -0.2555 -2.29574
1.78566 -0.724364 1.29248
-2.50728 0.331682 0.443253
-1.79526 0.424828 -0.15084
-1.7929 0.401701 0.00431471
-1.65032 0.264856 1.36127
-1.57813 0.344456 0.393858
-0.984089 0.607823 -1.03658
-1.12024 0.340432 -0.33439
-0.522437 0.128949 1.07139
0.764769 -0.328355 -1.66137
1.3497 -0.48359 -0.814127
2.43689 -0.707083 -0.012732
-2.44845 0.664086 -0.654059
-2.52131 0.303334 0.53114
-1.19018 0.152127 0.602344
2.17702 -0.719104 0.902692
3.37904 -0.837922 1.92125
-1.45024 0.376431 0.386243
-0.284936 -0.0493565 0.471882
-0.387768 -0.0598205 0.662154
-0.308097 -0.121089 -2.25345
1.90503 -0.771329 1.80808
1.43761 -0.383582 -2.18103
2.15101 -0.575089 -0.977387
-1.73888 0.278613 1.37581
-1.65941 0.274783 1.28601
-1.40037 0.377825 0.02089
0.699928 1.45796 2.10001
-0.416553 -0.0104001 0.181496
-0.278651 -0.147972 -1.93069
-1.36768 0.572454 2.09836
0.776008 1.37718 2.18083
1.32362 -0.534387 -0.235933
2.12491 -0.775445 1.56049
2.17983 -0.79146 1.63236
2.57536 -0.828142 1.70665
3.02946 -0.774441 1.74684
3.03642 -0.779484 1.6903
1.06658 -0.454026 -0.408265
3.31978 -0.794538 1.65209
-1.05598 0.320283 -0.231658
2.18295 -0.732859 0.951959
2.44585 -0.711629 0.0695986
-1.00181 0.61577 -0.688775
-0.734785 0.222097 0.334438
-1.61264 0.346244 0.397879
-0.997466 0.301918 -0.00360115
0.391064 1.94705 2.54027
-0.669203 0.163957 0.819956
-1.1483 0.341963 -0.293573
1.37031 0.10105 1.80208
0.167597 -0.300344 -1.04325
0.443937 -0.350176 -0.829876
1.25415 -0.293966 -2.94199
0.733436 1.43624 2.21896
1.40116 0.0853212 1.94852
-0.282513 -0.144614 -1.93307
-0.309977 -0.121377 -2.24781
1.36018 -0.543582 -0.155196
1.58122 -0.610331 0.338189
1.485 -0.462506 -1.23309
1.01692 -0.47642 -0.394437
2.34996 -0.79655 1.21733
2.00485 -0.641319 0.0381509
3.10595 -0.777088 1.85178
2.44388 -0.715716 0.135477
2.4792 -0.704939 0.0804436
-1.42472 0.371357 0.067104
-0.695522 0.330956 -1.14252
0.401127 -0.357688 -0.573592
1.23749 -0.521174 -0.0143044
-0.189503 -0.0308495 0.567649
-1.24081 0.646056 -1.09398
-1.45996 0.410356 0.424573
0.0119257 -0.0468593 -0.142637
3.23277 -0.801631 1.79892
3.33275 -0.810675 1.62572
-1.13822 0.330765 0.12298
-1.79634 0.306323 1.09964
0.574082 1.65664 2.25106
-2.85483 0.727108 -0.542864
-2.00957 0.740006 -0.789078
-0.514793 0.120771 1.05792
-0.786994 0.192443 0.722288
-0.606257 0.156378 0.879476
-0.902327 0.255555 0.227698
-0.350636 -0.0573009 0.628279
0.332182 -0.327792 -0.701415
1.29154 -0.564673 0.202474
2.29476 -0.649459 -0.341151
2.34336 -0.667069 -0.348393
0.272809 1.94604 2.46839
-0.563493 0.126203 1.09879
-0.548484 0.133759 1.00896
1.3196 0.0907078 1.92881
-0.231776 -0.0344794 0.106094
1.08547 -0.547339 0.486532
0.394782 -0.361986 -0.529924
1.64566 -0.698269 0.937036
0.448346 -0.345735 -0.82564
0.963031 -0.447359 -0.581323
2.43418 -0.808702 1.37885
1.96233 -0.657424 0.272592
2.83679 -0.856344 1.12765
2.85504 -0.848905 1.1291
1.71516 -0.541035 -0.70854
0.497629 1.72922 2.26004
-2.30536 0.744028 -0.717315
-0.0608056 -0.0367049 -0.179836
1.59555 -0.673867 0.859834
0.548989 -0.332582 -1.20664
1.85259 -0.657724 0.579479
1.31756 -0.530643 -0.156067
3.20064 -0.801182 1.75671
-1.14888 0.631038 -0.990431
0.839532 0.216765 1.15971
1.86874 -0.775044 1.72882
1.55403 -0.652493 1.09682
1.38149 -0.59115 0.771366
-1.30937 0.277272 0.222582
1.91498 -0.643952 0.131035
-2.24025 0.70923 -0.590388
-0.949342 0.242053 0.706757
-1.32072 0.280676 0.392951
0.506923 1.74731 2.28717
-1.77139 0.29043 1.22898
-0.803706 0.411914 1.60875
-2.5148 0.291642 0.353353
-1.02284 0.441908 0.957192
-0.643425 0.150966 0.946397
0.455391 0.239627 1.41352
1.32618 0.12176 1.66041
1.29224 -0.559078 0.208589
1.57579 -0.604981 0.308194
0.454868 -0.345809 -0.821578
-1.7652 0.29677 1.32641
0.0610389 0.287227 1.56212
-0.601324 0.140529 1.04719
-3.611 0.29252 -1.22207
-0.797631 0.232226 0.320221
0.738083 0.204544 1.42139
1.09092 0.157581 1.25499
0.543004 -0.187062 0.518407
1.58928 -0.669757 0.85918
-0.293935 -0.146229 -1.94417
1.288 -0.381545 -1.84517
-1.74521 0.280281 1.14497
-0.672638 0.149728 0.966804
-0.574788 0.130354 1.00723
-1.30275 0.270417 0.23355
-0.19561 -0.0992656 0.736052
0.854138 0.206975 1.20985
0.905085 0.197734 1.225
-0.0922789 -0.0467874 -0.214019
2.15683 -0.751503 1.21617
3.16524 -0.806831 1.94288
2.35471 -0.795307 1.24096
1.56131 -0.6083 0.353788
2.47775 -0.72232 0.145285
1.07387 -0.412188 -1.31527
1.89287 -0.626517 0.112574
-0.282003 -0.0727835 0.516525
3.36189 -0.828613 1.88292
2.44215 -0.701963 0.0767529
-1.23815 0.212692 0.337962
-1.43624 0.496507 1.76315
-1.07219 0.470105 0.999586
-2.5328 0.293689 0.345589
-0.876409 0.317485 0.930129
-1.86419 0.387467 0.447727
-0.987178 0.17748 0.764637
-0.47733 0.131279 0.899301
1.31871 0.122183 1.65637
1.75916 -0.765512 1.82336
-0.196895 -0.0827191 0.722594
0.288948 -0.181398 0.796724
1.30909 -0.521006 -0.202555
0.989026 -0.452544 -0.974658
0.593502 1.67632 2.33877
-1.67601 0.263612 1.37365
-1.82787 0.318655 1.0522
-2.36957 0.223833 0.753687
-1.94992 0.370908 0.581985
-1.06644 0.451803 0.885125
-0.606802 0.169738 0.644619
-0.713312 0.186364 0.587529
-0.437665 -0.00172418 0.125764
-0.176091 -0.032773 0.117918
1.29882 -0.584161 0.763973
1.43082 -0.6225 0.729214
2.34408 -0.752448 0.831729
1.86537 -0.639621 0.0851264
0.855812 -0.356105 -1.58671
0.367962 -0.222022 -2.50602
-0.536304 0.372995 1.58198
-0.923931 0.387868 1.01585
-0.610142 0.137136 1.04818
-1.31474 0.293975 0.312729
-0.73362 0.2278 0.440802
-0.615605 0.188651 0.416827
3.09092 -0.802754 1.94399
1.53684 -0.647329 1.06858
2.53367 -0.810112 1.26803
2.00764 -0.660901 0.494211
2.13194 -0.663704 0.467959
0.223519 -0.252732 -1.59785
-0.000810117 0.302514 1.5687
-0.164415 -0.117438 0.755628
-1.68366 0.445574 -0.543542
-0.184747 -0.0243735 0.0959361
0.185899 0.28625 1.31193
-1.53884 0.411259 -0.470241
-0.0950812 -0.0263293 -0.261868
-0.586544 0.300709 -1.00258
-0.753376 0.175556 1.03002
-0.305526 0.20453 -0.640097
-1.5271 0.251487 1.20747
-1.83346 0.309525 1.07943
-1.22915 0.389458 1.12027
1.66077 -0.694407 1.26757
2.22842 -0.768431 1.06008
2.17151 -0.741497 0.837107
-0.719269 0.262309 0.105965
2.19389 -0.74235 0.820368
2.66424 -0.799627 0.919608
-1.55947 0.39867 -0.361215
-2.02343 0.642073 -0.581202
-2.2983 0.761313 -0.716431
1.28734 -0.549128 0.130609
-0.942178 0.537612 -0.879631
1.22342 -0.500787 -0.407157
0.700026 -0.404585 -0.595372
0.161774 -0.297242 -1.03787
0.173749 -0.270741 -1.21109
-0.749612 0.40558 1.6241
-0.45656 0.371933 1.4883
-0.58843 0.120059 1.09235
-1.05644 0.454086 0.923111
2.48874 -0.821266 1.53563
2.15004 -0.760532 1.37204
1.66133 -0.683815 1.16117
2.24932 -0.758342 1.10734
-0.632653 0.189192 0.404864
-0.699707 0.22302 0.38536
-0.445558 -0.0392183 0.425117
0.767365 -0.0438679 0.696683
1.43664 -0.621103 0.832793
-2.75435 0.536946 -0.282334
1.47504 -0.617241 0.737351
2.13152 -0.745518 0.842806
-0.533334 0.0417243 0.109249
-1.62579 0.435298 -0.514204
-0.195925 -0.0192648 -0.229669
1.45846 -0.572898 0.18911
1.6996 -0.612333 0.129851
2.02429 -0.649451 0.0593194
2.41804 -0.695221 -0.0308572
0.955346 -0.449088 -0.637721
0.464155 -0.354092 -0.813536
1.73813 -0.530914 -0.84736
0.175539 -0.21716 -1.91716
-0.269051 -0.131891 -2.19378
2.43484 -0.833214 1.60297
-0.226841 -0.085703 0.721797
1.58776 -0.68687 0.915069
-0.197037 -0.0221893 -0.224406
1.86497 -0.607655 0.130964
-1.12873 0.61159 -0.93624
1.01553 -0.435386 -0.98774
-0.318848 -0.134724 -1.94445
1.63873 -0.437942 -1.70119
-0.42121 0.358655 1.51529
-0.0793585 0.340638 1.51666
-0.205656 0.386347 1.38149
1.7711 -0.738906 1.7219
-1.91558 0.410343 0.448138
-1.97766 0.413579 0.389499
-0.0614724 -0.0428991 0.388833
-1.82344 0.462476 -0.564804
1.29324 -0.469155 -1.02715
-0.650225 0.667533 -1.81855
0.48175 0.237079 1.37353
-1.59023 0.421415 -0.609179
-0.141173 -0.0261271 -0.286739
-1.67362 0.322914 -0.031864
-0.0848316 0.243191 -0.549454
-2.50094 0.339133 0.195655
-1.1026 0.3644 0.104076
0.657375 0.0197279 0.274937
-1.36023 0.396495 -0.473064
-0.814974 0.122213 0.828052
-0.990293 0.368521 1.09766
1.84956 -0.77434 1.78525
-0.358496 0.343351 1.53701
-0.395471 0.359429 1.52514
0.862565 0.201596 1.21837
1.47419 -0.65642 1.01547
1.55269 -0.657257 0.989367
1.59083 -0.659356 0.963144
-0.594098 0.143037 0.908078
-0.280386 -0.0956459 0.89332
-1.10637 0.47656 0.899125
-0.58414 0.176363 0.891558
1.67028 -0.666428 0.877511
2.96329 -0.847479 0.858949
-1.12458 0.479757 0.861053
1.38044 -0.615384 0.823706
1.45578 -0.612819 0.718853
1.73286 -0.640247 0.379603
-0.834889 0.272255 0.152328
-3.43218 0.168545 -0.131963
2.07947 -0.618836 0.00430246
1.94072 -0.617989 -0.171452
-1.61123 0.431799 -0.509133
1.72343 -0.560799 -0.520474
-2.24891 0.738495 -0.717557
0.0506691 -0.294289 -0.710255
-0.0130532 -0.270787 -0.997373
-4.08176 0.374043 -1.36983
1.27631 -0.485769 -1.0064
0.715269 -0.34137 -1.15645
0.187445 -0.266328 -1.20735
1.70785 -0.506873 -1.10952
0.657645 -0.330198 -1.50324
-1.39615 0.752903 -1.68417
0.232014 -0.239474 -1.74162
1.48158 -0.415437 -2.04893
0.0985081 -0.166605 -2.35682
0.656943 1.50687 1.97639
1.29163 0.111979 1.77856
0.173372 0.28913 1.35695
-1.0572 0.454356 0.918092
2.98821 -0.860074 0.898854
-2.65419 0.255501 0.825653
1.50379 -0.624999 0.666831
1.43828 -0.592933 0.419347
-0.0384582 -0.0622923 0.358818
2.26877 -0.689665 0.0394699
2.52604 -0.698243 -0.116451
1.35276 -0.538532 -0.287119
-3.76998 0.267184 -0.719349
-0.152584 0.197367 -0.542988
-2.26418 0.740859 -0.676707
1.76563 -0.54157 -0.580941
-1.52266 0.437807 -0.768758
1.49526 -0.516454 -0.778156
-0.940066 0.591873 -1.01304
0.189867 -0.234431 -1.893
1.99838 -0.495558 -1.68665
1.88952 -0.498445 -1.76195
1.24226 -0.373696 -1.88301
1.3214 -0.364462 -2.07057
2.16448 -0.785719 1.71912
1.22065 0.134146 1.67579
-0.770537 0.40726 1.60029
1.02747 0.190689 1.14564
1.77359 -0.681201 0.951033
1.72618 -0.651443 0.502724
1.72281 -0.631105 0.486182
-0.222553 -0.0130868 -0.223993
0.746123 -0.371548 -1.19918
0.800971 -0.373911 -1.21103
-0.0632071 -0.184571 -1.87297
1.74762 -0.358288 -2.44478
2.19856 -0.761033 1.35464
-0.0334615 0.112827 1.25672
-0.965954 0.390822 1.04796
1.67068 -0.687276 0.93421
1.97473 -0.684912 0.811773
2.46016 -0.699972 0.118058
1.22244 -0.529265 -0.00143582
1.32286 -0.512258 -0.080874
0.720117 -0.293232 -2.48415
1.81145 -0.751967 1.81729
2.58824 -0.861381 1.6622
0.413262 -0.158593 0.43865
-2.19283 0.698369 -0.66637
-0.0685942 0.192697 -1.33195
-1.37562 0.208309 0.240543
-0.35819 0.301928 -0.938945
0.961502 -0.345783 -1.60627
1.9408 -0.811332 1.74829
1.92861 -0.628549 0.086394
-1.05142 0.505329 -0.978677
3.24986 -0.832665 1.80641
1.92423 -0.766754 1.68848
0.0198152 -0.0450689 0.416116
2.94119 -0.8695 1.14273
2.9435 -0.839464 0.908399
-0.515231 0.355837 1.73927
0.0692372 0.291046 1.53088
0.594875 0.230092 1.36723
-0.98333 0.42241 1.69461
0.265494 0.278635 1.35201
-0.288687 0.347588 1.47825
0.191501 0.291348 1.35978
2.97593 -0.904943 0.639459
1.60713 -0.675793 0.923931
0.745649 0.0888779 1.03238
2.02037 -0.644356 0.531028
2.54819 -0.729309 0.397507
-0.988567 0.389841 1.05719
-1.11923 0.477601 0.895727
-2.45446 0.214359 0.906891
-1.21349 0.357683 0.514891
-0.1333 -0.0499526 0.168738
-1.96488 0.420285 0.43689
-1.87302 0.393209 0.4127
-1.91732 0.418777 0.417234
-0.791853 0.24482 0.166441
1.28013 -0.524867 -0.330216
1.68327 -0.579295 -0.513703
-2.57023 0.310478 0.241339
2.32145 -0.614007 -0.666388
-2.58606 0.333463 0.21571
-1.46828 0.381591 -0.000101936
0.483389 -0.374967 -0.521695
2.44309 -0.583254 -1.03282
0.873358 -0.409561 -0.912932
1.77182 -0.580521 -1.12816
0.177873 -0.289746 -1.10903
0.911076 -0.397259 -1.21567
-2.19844 0.691848 -0.603999
1.39221 -0.448788 -1.35538
-3.84499 0.27069 -0.707468
-0.938082 0.534147 -0.883308
-3.48726 0.21886 -0.801297
-0.98223 0.55531 -0.890835
-2.16923 0.738776 -0.761634
0.934041 -0.35962 -1.55866
0.992041 -0.377537 -1.5917
0.931179 -0.327943 -1.58824
-3.50755 0.216132 -1.1947
0.424867 -0.27575 -1.69154
1.04376 -0.357952 -1.82278
-0.498994 -0.138197 -1.72296
-0.436796 -0.141467 -1.74128
-0.181058 -0.176411 -1.82743
0.335017 -0.242216 -1.95614
-2.4312 0.979015 -1.36944
1.1113 -0.336363 -2.06861
-0.400127 -0.154073 -1.94999
-1.18517 0.786095 -1.52852
-0.312802 -0.13807 -1.96378
2.27294 -0.48575 -2.2779
-0.244758 -0.135666 -2.09149
0.684993 -0.288513 -2.21516
-0.31832 -0.118983 -2.15232
0.689384 -0.255249 -2.27939
1.85662 -0.421967 -2.47268
-0.0837562 -0.149095 -2.35012
1.98643 -0.421222 -2.52499
0.586612 -0.239551 -2.50823
1.37533 -0.30028 -3.00464
1.29098 -0.285435 -3.00739
1.78587 -0.34885 -3.06747
2.01985 -0.684436 0.545646
0.730351 -0.0414589 0.879668
0.807767 -0.0516448 0.8611
1.55014 -0.616885 0.597844
-1.57374 0.297849 1.23632
-0.785068 0.280228 0.984682
-0.931884 0.355561 0.983592
-1.12366 0.504313 1.0401
-2.21704 0.194753 1.11655
-1.19502 0.198171 0.63085
1.49066 -0.570095 -0.107523
1.35844 -0.528557 -0.325204
-0.800719 0.28248 0.125494
-0.311607 0.0299868 -0.341978
1.50665 -0.526951 -0.763884
2.32264 -0.591978 -0.974592
-3.36226 0.150977 -0.146893
-3.36695 0.188888 -0.153991
0.270738 -0.316574 -0.733905
-3.64215 0.218493 -0.344775
2.08951 -0.547639 -1.19367
-1.97955 0.6671 -0.528591
-2.2529 0.693509 -0.503834
-2.25436 0.741993 -0.669743
0.186063 -0.288678 -1.37843
-3.82491 0.243288 -1.08095
-0.273383 0.314097 -1.32789
1.88933 -0.470651 -1.7826
1.55235 -0.398777 -1.74184
0.298393 -0.27974 -1.63107
0.751849 -0.330118 -1.75677
1.12174 -0.370739 -1.84227
0.91719 -0.336309 -1.81914
-3.82363 0.327526 -1.42627
1.31175 -0.355386 -2.06589
-0.306089 -0.136241 -1.90761
-2.5489 0.978003 -1.35262
-0.466504 -0.104526 -1.92559
-1.40067 0.827245 -1.49221
1.94151 -0.439457 -2.16499
-1.20206 0.808558 -1.53927
1.16797 -0.342586 -2.18692
-1.76466 0.77152 -1.60431
-0.147024 -0.13222 -2.30336
-0.263815 -0.122445 -2.30296
0.167868 -0.184632 -2.42695
1.0046 -0.299044 -2.64276
1.06828 -0.290226 -2.65332
1.45776 -0.332232 -2.73192
1.19881 -0.284339 -2.88188
0.818219 -0.239194 -2.87759
-0.168657 2.15877 3.0124
2.57518 -0.827109 1.6727
2.84561 -0.83541 1.15322
2.98876 -0.833333 0.877217
-0.194414 0.319782 1.63779
0.428473 0.240509 1.48389
1.09502 0.0600222 1.00897
-0.777566 0.211889 1.02015
1.92071 -0.647542 0.0856742
-0.170958 -0.0170185 0.535129
-0.908915 0.262591 0.191625
1.26679 -0.529375 -0.414249
-0.765625 0.307025 0.0209114
0.554926 -0.378079 -0.540656
0.660819 -0.35354 -0.560588
0.576467 -0.38112 -0.807038
0.808057 -0.393142 -0.889454
-2.01627 0.635565 -0.55164
1.08498 -0.405972 -1.24764
-3.594 0.249878 -0.73846
-2.4321 0.699498 -0.722541
0.523106 -0.278123 -1.74882
-2.46417 0.965451 -1.24667
1.33223 -0.378485 -2.01389
1.09512 -0.333221 -2.03673
-0.215312 -0.147259 -1.91125
0.661274 -0.274917 -2.04835
0.932557 -0.308086 -2.14156
-0.900386 0.732643 -1.62899
1.31783 -0.370425 -2.22912
1.5898 -0.361781 -2.39334
-0.226745 -0.12212 -2.28428
-0.370694 -0.0879164 -2.43088
0.742297 -0.237687 -2.85976
-1.3189 0.468953 1.68905
0.957864 0.055532 1.03747
1.79381 -0.667002 0.631408
-2.39927 0.204272 1.19839
1.33354 -0.527815 -0.22525
-1.47007 0.313532 0.0783386
-2.14966 0.658706 -0.634174
-0.969662 0.570841 -1.2836
0.316281 -0.227038 -2.12319
-0.885136 0.788869 -1.7269
-0.812389 0.800509 -1.75013
1.65156 -0.35983 -2.78652
1.05595 -0.278241 -2.94841
2.97839 -0.763563 1.97283
1.52322 0.0394668 2.09406
-0.549823 0.13351 1.08417
-1.20137 0.462292 0.559347
-0.922415 0.454195 -0.0872508
-0.596609 0.0796354 -0.344455
0.238622 -0.320944 -0.750944
0.5742 -0.361154 -1.1513
-2.75805 0.920402 -1.21193
1.17756 -0.353037 -1.98738
-1.09809 0.826761 -1.68108
0.967362 -0.253307 -2.91603
1.50787 0.101045 2.1222
0.202678 2.03448 1.99587
0.671412 -0.102319 0.850895
-1.17467 0.365775 1.06269
-0.919806 0.381465 0.986116
-2.53361 0.305795 0.28498
-1.39702 0.351782 -0.0044061
-1.94383 0.366568 0.0588872
0.901904 -0.265432 -2.59093
0.367662 1.91191 1.98142
0.63286 0.225541 1.39696
0.898578 0.0909009 1.03208
-1.18796 0.39167 1.01718
-0.67472 0.0857107 0.882525
-1.08438 0.557569 -1.07204
0.211216 -0.129824 0.483534
-1.34732 -0.0312859 0.610962
-1.32812 0.189186 -0.187886
-1.43426 0.364886 -0.285871
-1.6223 0.748455 -1.63541
-0.309538 -0.124647 -2.19979
0.613182 -0.24251 -2.33598
-0.0170268 -0.151577 -2.14588
-0.32577 -0.14528 -1.88498
-0.281431 -0.157439 -1.89283
1.431 -0.377709 -2.202
-3.91328 0.338347 -1.17327
-3.57149 0.284538 -1.21731
-0.244885 -0.166304 -1.8308
-3.22994 0.226612 -1.22597
-3.27887 0.236062 -1.20844
1.18366 -0.35393 -2.00715
-3.08893 0.209769 -1.17232
-3.07021 0.204162 -1.16407
-3.5003 0.261747 -1.04587
-3.83292 0.306819 -0.902535
-3.40767 0.247501 -0.974571
1.60267 -0.410687 -1.89496
-3.5165 0.23468 -0.824918
-3.61394 0.246895 -0.790831
-3.70547 0.265738 -0.742831
-1.03734 0.581271 -0.958365
-1.11346 0.598969 -0.922958
0.856455 -0.378757 -1.56981
0.750688 -0.365964 -1.51849
0.23535 -0.27521 -1.25697
0.2739 -0.275761 -1.23937
-0.691879 0.160891 -0.880536
0.134196 -0.267984 -1.16248
-0.651481 0.157118 -0.871128
-2.46471 0.39433 -0.475961
-2.47287 0.392422 -0.46169
-2.78088 0.578599 -0.293106
-2.49684 0.390306 -0.40624
0.085268 -0.271734 -1.03292
-1.57634 0.428014 -0.511216
0.00673093 -0.276441 -0.998586
0.319726 -0.318937 -1.05427
0.333417 -0.315942 -1.04583
-2.63715 0.397593 -0.258005
-2.6287 0.39028 -0.250272
-2.64012 0.396031 -0.238745
0.956116 -0.402446 -1.06117
-3.38464 0.151686 -0.139161
-3.34342 0.146581 -0.138185
1.18519 -0.449032 -0.979187
-0.567215 0.125599 -0.443911
-0.351293 0.0662376 -0.38559
2.42225 -0.597851 -1.05168
-2.59265 0.352414 0.185999
-1.41208 0.379983 0.0162368
-1.42508 0.375928 0.0294902
2.27876 -0.593123 -0.885266
-2.77085 0.358227 0.319739
-2.81936 0.377042 0.340194
-2.79597 0.361467 0.350535
0.0701291 -0.00739729 -0.234027
-2.87919 0.372101 0.49945
-2.8805 0.367373 0.538293
-1.34859 0.436192 0.474983
1.29091 -0.50455 -0.210098
2.72846 -0.68995 -0.517947
-0.857648 0.223015 0.466791
0.257104 -0.0764876 0.206062
0.280287 -0.0822261 0.230372
-1.16346 0.150212 0.628018
-0.181173 -0.0341199 0.388409
-1.23263 0.171166 0.698617
-0.0965592 0.0487335 0.486821
-1.75576 0.308498 0.935415
-2.43258 0.313231 1.08615
-1.02573 0.330738 0.793579
-2.34689 0.29613 1.11501
1.48034 -0.575593 0.132902
-2.38925 0.301413 1.14069
1.5293 -0.583863 0.170007
1.14245 -0.540123 0.285648
-0.860838 0.317266 0.935763
-0.916571 0.322768 0.949746
2.04762 -0.645869 0.162716
-0.85463 0.314674 1.00005
-1.45693 0.303705 1.13737
-1.61409 0.270418 1.17404
-0.739576 0.15994 0.976958
1.26343 -0.570237 0.53309
-1.66986 0.266056 1.33531
-0.539761 0.120655 1.06608
-1.66859 0.258384 1.35058
1.5036 -0.634278 0.691402
1.42618 -0.614282 0.798199
0.561878 0.250896 1.18095
2.06792 -0.727942 0.86312
1.9441 -0.717052 0.90209
0.256554 0.269826 1.50351
2.89412 -0.833519 0.896918
2.91925 -0.89747 1.51279
-0.526757 2.0641 2.53237
1.34051 -0.310785 -2.76322
-0.428053 -0.0935036 -2.32433
1.63503 -0.355244 -2.65759
-0.226353 -0.127005 -2.31167
0.0974614 -0.169529 -2.36313
1.72755 -0.365608 -2.63982
0.120805 -0.166473 -2.35114
1.34877 -0.322993 -2.56324
1.72012 -0.372958 -2.57608
-0.269499 -0.11868 -2.18992
0.585036 -0.243814 -2.3474
-0.202643 -0.135888 -2.18881
-0.326317 -0.116461 -2.15188
0.600276 -0.253094 -2.31843
-0.270442 -0.127924 -2.11729
-0.132476 -0.148854 -2.09369
0.487609 -0.252177 -2.14077
1.02728 -0.313325 -2.23294
0.466387 -0.25263 -2.13111
0.0473686 -0.18954 -2.04592
-0.300452 -0.145816 -1.96779
1.38272 -0.358692 -2.26411
-0.400192 -0.133513 -1.90924
-2.74954 0.830858 -1.1467
1.02676 -0.334826 -2.17311
0.537125 -0.263815 -2.04225
1.30968 -0.355468 -2.15567
-0.252029 -0.162439 -1.84407
-0.0509964 -0.18555 -1.79597
-3.63062 0.270747 -1.09053
-4.00901 0.327356 -1.00822
-2.11693 0.711215 -1.08277
0.841326 -0.300821 -1.92665
1.45094 -0.409762 -2.05733
1.29279 -0.391288 -1.93232
-0.318683 -0.175544 -1.61056
-1.01241 0.609982 -1.04522
-1.1646 0.632154 -1.01007
-1.00709 0.611136 -1.0294
-0.89921 0.581694 -1.03707
1.04822 -0.363957 -1.70006
-2.38629 0.746185 -0.742282
-1.18264 0.614655 -0.969321
-1.99482 0.722531 -0.804603
0.245521 -0.266936 -1.52378
-0.967373 0.571908 -0.982813
-2.1752 0.731572 -0.713458
0.389798 -0.286232 -1.49068
-3.56393 0.247178 -0.694622
-3.75091 0.244203 -0.596799
0.111419 -0.25658 -1.28435
1.98659 -0.510749 -1.56864
-3.53701 0.208838 -0.388917
-0.537868 0.139574 -0.809633
0.353838 -0.319432 -1.05591
-0.464375 0.112036 -0.763557
-2.59734 0.389693 -0.272768
-3.3065 0.141205 -0.157505
0.987782 -0.40448 -1.04998
0.693207 -0.390133 -0.720621
1.74902 -0.543869 -0.793583
-2.52426 0.298245 0.232801
1.72871 -0.538219 -0.785148
0.954513 -0.443868 -0.597086
-2.78147 0.358703 0.333856
1.61731 -0.52238 -0.708012
1.60342 -0.528117 -0.627175
0.0999383 -0.0133771 -0.184728
1.52314 -0.51847 -0.58474
1.24073 -0.486308 -0.507877
1.4973 -0.518244 -0.514929
-2.87776 0.35679 0.579427
1.41646 -0.53571 -0.216223
0.208206 -0.0816006 0.156123
-0.772333 0.217901 0.432869
1.36298 -0.537194 -0.137372
-2.43984 0.244363 0.925682
-0.180594 0.00750641 0.478593
-2.40203 0.31769 1.04745
-1.92344 0.344224 0.967236
0.4952 -0.127769 0.36117
-1.83747 0.31758 0.951665
-0.721317 0.182019 0.701377
-1.21273 0.496149 0.884919
-1.151 0.497361 0.890675
-0.327725 -0.0600982 0.621993
-2.13077 0.169046 1.06315
-0.369272 -0.0626349 0.643055
1.71683 -0.614789 0.109058
-1.06576 0.470926 0.91736
1.5335 -0.593779 0.195392
2.05359 -0.650366 0.0812766
1.52208 -0.606189 0.205188
-1.32153 0.41686 1.08647
-0.671003 0.157461 0.929765
-0.63759 0.154907 0.925034
-2.26772 0.159167 1.29257
-1.86278 0.30316 1.22466
-0.654009 0.15511 0.93573
-1.76245 0.293352 1.20658
-2.30782 0.162843 1.33273
-2.29084 0.153541 1.3346
1.54295 -0.619436 0.371472
1.61031 -0.620097 0.366325
2.49799 -0.724109 0.159427
0.452334 -0.188294 0.723962
1.33141 -0.601795 0.50826
2.00017 -0.667639 0.532843
1.49916 -0.624745 0.722073
1.54987 -0.631335 0.721003
1.49798 -0.621787 0.763564
2.12813 -0.703057 0.613791
1.58863 -0.661739 0.776929
-1.55021 0.5121 1.7766
-0.290463 0.352399 1.46521
-1.67032 0.520573 1.82056
-0.318788 0.350241 1.47734
-1.04312 0.440486 1.6653
0.240106 0.282177 1.35261
-0.525448 0.375398 1.56083
0.476376 0.253419 1.30717
1.67439 -0.687715 0.934226
-0.0766697 0.309802 1.45349
0.464327 0.253687 1.32201
-1.43501 0.489557 1.82025
-1.40514 0.479855 1.88576
0.121398 0.284085 1.49283
-0.775337 0.397059 1.72933
-0.149197 0.318221 1.57144
-1.21015 0.45958 1.85236
1.1213 0.161616 1.25437
0.259658 0.26448 1.48471
0.875113 0.18252 1.36269
-0.728281 0.380443 1.7889
-0.623242 0.373791 1.7947
1.86068 -0.730084 1.36274
2.84885 -0.883147 1.14943
2.1543 -0.762739 1.47993
2.72027 -0.850446 1.47812
2.87163 -0.891776 1.49863
1.34072 0.0990419 1.92138
1.34673 0.100576 1.93402
2.88444 -0.880903 1.55146
-0.512364 2.0691 2.45778
0.239763 1.97097 2.26178
0.228595 1.97047 2.28296
0.226616 1.96471 2.34938
0.291532 1.95669 2.3405
3.34396 -0.816964 1.61197
-0.14695 2.00563 2.56287
0.28799 1.94365 2.47546
0.469812 1.9926 2.63749
1.30358 -0.333648 -2.68033
0.647737 -0.265401 -2.24041
0.584133 -0.276489 -2.19657
1.87935 -0.427989 -2.37202
-0.386716 -0.133721 -1.94882
0.0538869 -0.200245 -1.90397
0.850001 -0.322163 -2.02302
-1.43728 0.613303 -1.23748
1.43853 -0.385726 -1.99247
0.717446 -0.31434 -1.73818
-3.31919 0.217149 -0.866352
1.06891 -0.353033 -1.71777
-3.61398 0.25955 -0.72964
-1.05904 0.569884 -0.93752
-3.7196 0.246188 -0.595452
0.124099 -0.25939 -1.30588
0.301354 -0.276789 -1.23176
1.7839 -0.50916 -1.50848
-1.7188 0.452862 -0.591039
1.05822 -0.404701 -1.3364
-3.54306 0.203334 -0.368055
1.70629 -0.481646 -1.42697
0.889551 -0.389247 -1.19776
0.509288 -0.335711 -1.11415
-0.0190631 -0.275246 -0.997543
0.216824 -0.300646 -1.0231
1.49675 -0.470165 -1.12068
0.433009 -0.342987 -0.850763
-0.369872 0.0727204 -0.454918
1.3426 -0.472515 -0.913268
-0.358651 0.0699273 -0.403424
1.36557 -0.502273 -0.758722
-2.55809 0.327058 0.206647
0.705624 -0.424866 -0.602304
0.96635 -0.450681 -0.585166
1.25402 -0.482975 -0.538652
0.12548 -0.0352389 -0.0909394
0.743585 0.216495 -0.0272695
0.764459 0.210257 -0.0238129
2.60915 -0.665646 -0.591652
-0.00055268 -0.0753095 0.145387
-2.42649 0.233412 0.750456
-2.37975 0.229092 0.738862
-2.36669 0.219014 0.752376
-2.18582 0.194567 0.837938
1.27115 -0.537071 0.0708688
-0.0771835 0.0449882 0.479041
1.98595 -0.629378 -0.0366625
-0.159853 -0.00169255 0.557163
-0.05295 0.0109549 0.541597
1.64393 -0.609618 0.138975
1.50089 -0.58983 0.177739
1.28127 -0.565313 0.232754
-0.663587 0.171022 0.79339
2.03044 -0.659648 0.0836712
1.48112 -0.581648 0.230469
-0.896527 0.320743 0.946155
-1.74116 0.293509 1.16255
0.0500867 -0.133228 0.708625
-1.50286 0.274276 1.13349
-0.611858 0.1561 0.911694
0.0366455 -0.135113 0.732791
1.93924 -0.660059 0.276498
1.99441 -0.653583 0.266536
1.57402 -0.623079 0.377685
1.45945 -0.606104 0.431676
1.60371 -0.619748 0.397815
0.876878 -0.0650265 0.701075
-1.87826 0.34929 1.55984
1.40413 -0.612856 0.676497
1.43834 -0.615818 0.674038
2.22502 -0.714155 0.479439
1.85947 -0.665126 0.597718
1.54458 -0.638796 0.684173
2.48512 -0.751544 0.504982
1.92765 -0.672152 0.675361
1.48806 -0.631168 0.806452
1.5865 -0.648759 0.79525
-1.5426 0.398029 1.66187
0.671752 0.229277 1.19815
0.826011 0.201726 1.18907
0.802443 0.20299 1.20177
1.67034 -0.671826 0.948417
2.10366 -0.739297 0.861787
-0.646192 0.390386 1.67126
-0.789383 0.403033 1.71932
-1.23997 0.459479 1.84783
-0.0796592 0.309284 1.55917
-0.0413558 0.306175 1.55207
0.0133753 0.30138 1.53914
0.733457 0.194793 1.4286
2.61777 -0.795148 0.902946
-1.24151 0.455425 1.98321
1.83057 -0.715867 1.18584
1.9848 -0.726878 1.19104
2.59813 -0.811945 1.28803
2.76803 -0.857356 1.31819
2.37863 -0.805581 1.46762
1.33571 0.118049 1.76695
2.48393 -0.82521 1.50739
2.74295 -0.857582 1.46977
2.9197 -0.902723 1.49801
2.53484 -0.853699 1.61598
0.256343 1.97176 2.25864
3.15799 -0.877209 1.5593
0.254865 1.96304 2.29432
-0.165023 2.01592 2.44668
0.243507 1.96057 2.33139
0.259606 1.96091 2.36016
-0.493909 2.05287 2.63433
-0.132278 2.00212 2.55814
0.273022 1.95057 2.46484
1.60483 -0.342884 -2.78622
0.0562584 -0.200155 -2.3004
-0.243324 -0.148291 -2.01911
1.03515 -0.311912 -2.22408
1.06857 -0.319816 -2.23011
0.0565451 -0.203324 -1.90615
-3.75205 0.298861 -1.11861
0.406208 -0.265669 -1.68858
-1.13805 0.622904 -1.01178
0.559404 -0.301278 -1.59153
-2.23831 0.728142 -0.677661
-2.18773 0.712861 -0.693604
0.3124 -0.296948 -1.41843
-3.76491 0.255793 -0.55847
-2.19358 0.687409 -0.576216
0.366754 -0.293263 -1.21927
-1.3634 0.40832 -0.667443
-1.7381 0.453076 -0.579146
-2.847 0.585497 -0.284693
0.00862703 -0.248867 -1.04243
0.169861 -0.30225 -1.04191
1.44615 -0.460765 -1.23123
-1.80268 0.436454 -0.287099
-1.32497 0.37165 -0.376511
-2.49153 0.33106 -0.186448
-3.17906 0.139043 -0.121994
-1.22282 0.347525 -0.326716
-2.14774 0.608859 0.187654
0.468052 -0.369533 -0.547889
0.506313 -0.363816 -0.555078
0.98371 -0.452654 -0.491625
1.50102 -0.519751 -0.497758
-0.72632 0.233713 0.16953
-1.29149 0.284766 0.321427
1.27146 -0.50205 -0.264764
-1.72098 0.341302 0.64955
-1.82994 0.354488 0.684962
-2.48016 0.248667 0.931171
-1.86585 0.350771 0.834642
-2.36272 0.232569 0.925654
-1.76805 0.32613 0.839194
-0.824397 0.196649 0.7135
-1.91972 0.338185 0.990979
2.45698 -0.689954 -0.0936356
-0.16643 -0.0802238 0.606782
1.97872 -0.653361 0.0647888
2.04417 -0.652947 0.0669412
2.07802 -0.647391 0.0589348
2.45921 -0.711884 0.110591
-1.88555 0.302733 1.25875
-0.0855877 -0.133979 0.811815
0.893034 -0.0702237 0.603989
1.64254 -0.620294 0.35353
1.44395 -0.602524 0.419083
1.36555 -0.602059 0.506618
0.767443 -0.0421505 0.728455
-0.611528 0.13457 1.08067
-1.74252 0.274528 1.36395
1.67582 -0.614456 0.458351
-1.64849 0.261495 1.34547
1.51468 -0.613083 0.56932
1.63073 -0.6674 0.883577
0.26947 0.273926 1.36441
-0.640383 0.388207 1.68596
-0.512229 0.36154 1.67446
0.582077 0.229016 1.399
-0.629811 0.373593 1.78192
2.11505 -0.765994 1.38309
2.74778 -0.856077 1.43637
2.20976 -0.791887 1.62923
2.21862 -0.805228 1.66267
-0.105343 1.99962 2.53212
0.410157 1.99835 2.66906
0.733106 -0.254879 -2.53085
0.37821 -0.239349 -2.13944
-3.47452 0.266003 -1.36355
-3.57841 0.28661 -1.24517
-3.43382 0.239499 -1.23635
0.566058 -0.280094 -1.79338
-3.63014 0.259468 -0.967322
-2.07863 0.731701 -0.763985
-2.55473 0.595912 -0.742351
-0.901039 0.567323 -0.976139
1.02604 -0.373687 -1.51162
-2.08783 0.673417 -0.605531
-2.22787 0.67565 -0.568888
1.76983 -0.474537 -1.60638
-3.1946 0.149553 -0.147787
-3.24739 0.144665 -0.136094
0.412821 -0.355826 -0.800579
0.673997 -0.379675 -0.848699
-2.57264 0.335653 0.506175
-1.81458 0.379079 0.45335
-2.00555 0.368867 0.751158
-0.113684 -0.0519566 0.370085
-1.81953 0.336254 0.831583
-0.221159 -0.0322532 0.446261
-0.746809 0.184089 0.710123
-1.87908 0.32219 0.983371
-0.0214814 -0.0862403 0.612203
2.44041 -0.696501 0.0691971
1.66677 -0.610235 0.314643
-1.50853 0.248911 1.17707
-1.32129 0.353976 1.16698
1.22142 -0.578239 0.510759
1.83191 -0.630723 0.3683
-0.551766 0.115847 1.08208
1.50778 -0.608597 0.616248
0.78924 0.0760883 1.07285
-1.44209 0.500736 1.76427
-1.36829 0.480563 1.89109
0.608424 0.227455 1.37836
-1.16952 0.450282 1.8906
2.71851 -0.836015 1.17855
2.09609 -0.76872 1.51725
1.88862 -0.770395 1.74292
2.41126 -0.708129 1.89449
3.06123 -0.783601 1.79305
1.84983 -0.398414 -2.46931
-1.12457 0.582287 -1.29302
0.808717 -0.325059 -1.78866
0.452523 -0.266067 -1.70699
-1.00299 0.606961 -1.02618
-2.15437 0.744633 -0.756555
-1.11687 0.617708 -0.948002
-1.0658 0.605763 -0.954323
-3.81479 0.273546 -0.533682
-2.04767 0.673615 -0.621907
-1.55091 0.429423 -0.783465
-2.85571 0.653695 -0.429198
-2.59099 0.386565 0.14159
-1.59175 0.360317 0.0675094
-1.46772 0.326283 0.225866
1.59997 -0.542412 -0.545135
0.741734 0.196057 -0.0654201
-0.253744 -0.0238249 0.21683
0.638163 0.131592 0.0954084
-0.874686 0.236311 0.474974
-0.825142 0.205535 0.679756
2.22219 -0.667888 0.0189553
-0.92088 0.363198 1.03082
-0.907201 0.303501 1.06772
1.46283 -0.624735 0.712834
0.740815 0.097989 1.03116
0.0506254 0.308851 1.34032
0.00378753 0.304723 1.37164
1.23579 0.149898 1.18653
-1.41961 0.48033 1.88893
-0.737744 0.397131 1.73461
2.23603 -0.779343 1.09656
2.38765 -0.783009 1.0632
2.4215 -0.819019 1.1276
2.24801 -0.761147 1.37337
0.452883 1.801 2.24422
-0.0719073 1.99929 2.42454
-1.29342 0.414075 -0.666339
-1.59278 0.4405 -0.554939
1.49879 -0.475695 -1.07952
-2.57618 0.316023 0.229412
-2.21742 0.488292 0.212091
1.30973 -0.499198 -0.483729
-1.42344 0.402992 0.517127
-1.22566 0.341878 0.494848
-0.981014 0.447062 1.64144
1.16365 0.167075 1.08397
0.75598 0.204942 1.22522
0.307506 0.275012 1.3525
0.523841 0.237362 1.39036
3.36641 -0.828456 1.83363
3.09496 -0.801798 1.91866
-0.978226 0.752955 -1.57979
-0.982484 0.484426 -1.50997
-2.28041 0.722162 -0.967234
1.41066 -0.367045 -1.91971
-3.67822 0.249809 -0.769707
-0.262672 0.242419 -0.898933
-1.0631 0.327105 -0.255742
-0.755037 0.240206 0.258005
-1.8099 0.329956 0.866987
-1.14949 0.514505 1.03609
2.02815 -0.621591 0.144073
0.379902 -0.15335 0.629543
-0.0184578 0.307019 1.46514
-1.4901 0.243662 0.124472
-0.864913 0.239443 0.399443
-0.78965 0.214985 0.668474
-0.133485 -0.101955 0.682172
-0.0466035 -0.0972042 0.716988
-1.69289 0.274815 1.29533
-2.30574 0.313498 0.116339
-2.17577 0.402637 0.23914
-1.9636 0.440154 0.206526
-1.38412 0.330728 0.145755
3.29515 -0.8554 1.56841
-0.7731 0.411343 -0.626283
-0.864527 0.268877 -0.267006
0.218734 1.967 2.45743
-3.66023 0.271504 -1.12284
-3.57665 0.279677 -1.22028
-3.51588 0.236593 -0.824372
-3.23023 0.231654 -1.22584
-3.13409 0.261026 -1.22116
-3.09038 0.209405 -1.17265
-3.07734 0.207214 -1.19202
-1.88993 0.77738 -1.57266
-2.64038 0.395625 -0.23937
-2.6105 0.396276 -0.261414
-1.62275 0.748956 -1.63648
-2.49671 0.394184 -0.40708
-2.88061 0.374053 0.497587
-2.88437 0.365206 0.536743
-2.5965 0.369876 0.0236703
-2.88088 0.358868 0.580048
-2.59094 0.35367 0.18232
-2.43489 0.2542 0.561982
-2.40067 0.316745 1.06659
-1.15982 0.618908 -0.950286
-0.905082 0.580046 -1.03738
-1.45028 0.371226 0.0390575
-1.42471 0.37586 0.0285612
-1.59436 0.34949 0.379533
-1.70867 0.329082 0.678305
-1.87073 0.294908 1.25393
-1.39023 0.445399 0.452283
-0.310515 -0.127707 -2.20371
-0.303392 -0.125109 -2.1548
-0.255898 -0.125675 -2.14342
-0.680412 0.169464 -0.891993
-1.73438 0.271344 1.35934
-0.650334 0.161575 -0.870283
-1.6702 0.260315 1.35144
-0.131772 -0.142765 -2.16286
-0.133565 -0.148768 -2.09342
-1.27079 0.462775 0.866681
-1.24235 0.487819 0.873155
-1.4606 0.294558 1.13509
-1.23069 0.49042 0.892755
-1.27312 0.471939 1.05128
-0.401187 0.0943161 -0.588145
0.486013 -0.204632 -2.55887
-0.35247 0.0673967 -0.386955
-0.870647 0.313513 1.00573
-0.846072 0.320733 0.983636
-1.13935 0.443068 1.81936
-0.732673 0.160717 0.964173
-0.94525 0.425605 1.65077
0.236554 -0.285297 -1.19004
-0.465417 0.129254 0.883655
-0.541633 0.120552 1.06644
0.0564455 -0.0172492 -0.228908
0.503603 -0.303715 -1.35882
0.0697625 -0.00900673 -0.235689
0.641363 -0.299599 -1.62298
0.0797597 -0.00827568 -0.220471
1.06034 -0.298161 -2.44814
-0.527215 2.06394 2.5318
-0.579442 0.37069 1.50183
0.406838 -0.329067 -0.996893
1.06535 -0.353184 -1.96039
-0.316136 0.349752 1.47517
0.279928 -0.0829553 0.229343
1.75011 -0.3754 -2.58657
0.115308 1.98404 2.31202
0.0991058 0.288098 1.50341
0.214142 1.98286 2.14786
0.30318 0.273175 1.32306
0.260682 1.96061 2.33689
0.560752 0.252322 1.1818
0.753686 -0.0255176 0.872599
1.3247 -0.515549 -0.356948
0.73272 0.209358 1.34769
0.937291 0.19252 1.18734
1.49832 -0.6237 0.721002
1.96597 -0.717892 0.889421
-4.0678 0.327516 -0.956766
-3.64778 0.262359 -0.904573
-3.63344 0.247153 -0.757377
-2.75125 0.832223 -1.14678
-3.53393 0.221748 -0.406242
-3.09104 0.208496 -1.19163
-1.9891 0.78415 -1.55645
-2.36037 0.723172 -0.71278
-2.21513 0.709268 -0.682472
-1.62699 0.754433 -1.64848
-2.09107 0.697908 -0.715506
-2.85057 0.351229 0.431993
-1.20741 0.599692 -1.30631
-1.17789 0.622272 -1.00085
-1.1701 0.623306 -0.982322
-1.01066 0.611483 -1.04608
-1.86275 0.382356 0.441944
-1.84258 0.364787 0.45795
-1.06492 0.524508 -0.890069
-0.869684 0.59833 -1.06328
-1.5334 0.224284 -0.120263
-2.26946 0.157662 1.29032
-1.52382 0.360937 0.0312686
-2.16098 0.160046 1.10448
-1.48973 0.382272 0.0309051
-1.54266 0.335241 0.283679
-1.509 0.318783 0.249707
-0.383856 -0.102687 -2.27737
-1.50375 0.328343 0.494526
-0.326236 -0.121318 -2.19889
-1.7138 0.294291 1.05237
-1.75975 0.294267 1.17596
-0.29247 -0.122526 -2.20216
-0.271986 -0.118362 -2.19426
-0.201324 -0.134049 -2.31768
-0.25863 -0.124801 -2.16185
-0.226414 -0.123234 -2.2032
-0.458137 -0.133101 -1.72608
-0.211661 -0.128076 -2.19715
-0.326735 -0.144699 -1.95109
-0.17321 -0.116848 -2.21688
-0.666242 0.167149 -0.883708
-0.907372 0.328698 0.0344784
-0.538259 0.139646 -0.81128
0.0949651 -0.170351 -2.36547
0.0465177 -0.193124 -2.04842
0.04067 -0.19078 -2.01875
-1.43729 0.490645 1.82124
-0.703416 0.218724 0.281513
-0.711252 0.21313 0.389851
-0.351519 0.0410505 -0.352273
-0.800783 0.196189 0.704206
-0.76618 0.193188 0.706156
-0.290993 0.0624031 -0.375753
0.189669 -0.259117 -1.58692
-1.24336 0.453605 1.98053
-0.565602 0.192386 0.3892
0.217215 -0.262662 -1.55702
0.246244 -0.266334 -1.54538
0.381425 -0.257281 -1.71297
-0.720457 0.163895 0.951593
-0.794638 0.191627 1.14866
-0.112375 0.0331619 -0.372538
-0.0712162 0.0227417 -0.358542
-0.618776 0.14812 0.935761
1.02508 -0.273185 -2.74158
-0.449503 0.130108 0.890574
-0.329849 -0.0619144 0.618217
-0.310416 -0.062533 0.625601
-0.674096 0.390521 1.70862
0.395946 -0.321821 -0.971372
0.411192 -0.329869 -0.977257
-0.419447 0.0975165 1.06907
-0.197242 -0.0206077 0.537851
0.125634 -0.033014 -0.092146
-0.312722 2.05371 2.28249
0.747947 -0.357501 -1.51288
-0.511809 0.367654 1.63932
-0.0500014 0.0156477 0.539699
-0.396948 0.362473 1.49495
-0.380436 0.360591 1.50131
0.405606 -0.358558 -0.557082
-0.114734 -0.108411 0.742787
0.587697 -0.403365 -0.472642
1.31222 -0.382866 -1.94765
1.41121 -0.390016 -1.98009
1.34506 -0.3918 -1.81998
-0.0516014 0.315075 1.53825
-0.100109 1.99678 2.58373
1.37302 -0.403098 -1.74159
0.494618 -0.12656 0.360468
0.195989 0.288433 1.34513
0.226544 1.97109 2.28166
0.240148 1.97016 2.26129
0.259917 0.263961 1.48198
0.258979 1.95859 2.35752
0.772797 -0.050409 0.734216
0.632568 0.230938 1.27849
2.21478 -0.497082 -1.93239
1.75074 -0.548585 -0.814586
1.7481 -0.540415 -0.793975
1.10143 0.16766 1.08775
1.52109 -0.603353 0.207142
1.54168 -0.616686 0.369719
1.87091 -0.60481 -0.262256
1.92195 -0.597953 -0.183667
1.99389 -0.642875 0.00744521
1.33943 0.100341 1.91985
2.8402 -0.859301 1.1482
-3.6493 0.276123 -1.0369
-3.46933 0.264754 -1.33272
-3.64167 0.259847 -0.876585
-3.43114 0.248366 -1.26513
-2.35558 0.773769 -0.724644
-2.18508 0.706291 -0.599947
-2.06363 0.714398 -0.766394
-2.67442 0.262825 0.798183
-2.65825 0.263511 0.808579
-1.82947 0.437943 -0.277997
-1.1648 0.631537 -1.01408
-1.97714 0.422565 0.415579
-1.8745 0.412105 0.378697
-1.05979 0.565158 -0.941321
-1.02795 0.563631 -0.85722
-2.1311 0.168688 1.06377
-2.09078 0.153874 1.08639
-1.40507 0.385112 -0.00456022
-1.81278 0.335065 0.849415
-1.31184 0.261386 0.314847
-0.379429 -0.107343 -1.93343
-1.20693 0.371464 0.565848
-0.00539074 -0.150635 -2.39074
-1.53315 0.419069 1.68062
0.0569384 -0.187944 -2.06473
-0.729833 0.274003 0.0868354
-0.730254 0.272912 0.110488
-0.704739 0.27127 0.0839532
-0.726307 0.236215 0.166655
0.0465481 -0.213382 -1.66846
-0.842829 0.312372 0.939345
-1.07772 0.461993 1.59756
-0.5184 0.0117518 0.116495
-0.823143 0.277926 1.04188
0.524424 -0.258818 -2.06425
0.776205 -0.257529 -2.56989
-0.974135 0.411009 1.69481
-0.669058 0.137525 0.966489
0.299306 -0.282351 -1.23258
-0.2378 -0.0391542 0.172539
-0.153393 -0.0393574 0.0245271
0.355951 -0.337362 -0.743273
0.0301071 -0.0727092 0.147477
0.962222 -0.329442 -1.90285
-0.227281 -0.115022 0.924434
-0.335373 0.337572 1.61158
1.60456 -0.345319 -2.78913
1.40286 -0.362689 -2.32451
0.634184 -0.394262 -0.56839
0.00795796 0.305153 1.40703
1.86344 -0.422503 -2.40678
0.255152 1.97132 2.25758
1.47302 -0.456554 -1.29629
0.740727 0.00183369 0.89859
0.740494 0.00899555 0.924075
0.565596 0.225724 1.38552
2.1883 -0.467075 -2.26784
0.759144 0.0357014 0.94921
0.757237 0.0360689 0.974735
1.30796 -0.508196 -0.330739
1.32992 -0.517605 -0.341642
1.33934 -0.519825 -0.321205
0.877368 0.199331 1.21969
1.50747 -0.558909 -0.137711
1.79548 -0.562038 -0.63135
1.85496 -0.600649 -0.312158
1.49911 -0.601712 0.548717
1.59769 -0.616991 0.399645
1.80442 -0.641334 0.410884
1.99933 -0.637253 0.0277501
1.82889 -0.659505 0.578161
2.07628 -0.645039 0.0606159
1.83767 -0.639345 0.656409
1.87699 -0.657265 0.590674
2.55637 -0.8218 1.3863
2.82399 -0.862133 1.15707
-3.77338 0.252357 -0.557927
-3.22468 0.208747 -0.856063
-3.08325 0.17503 -0.925865
-2.31984 0.736938 -0.862498
-1.9797 0.728817 -0.840377
-2.54285 0.267629 1.01629
-2.50889 0.241212 0.950593
-2.47343 0.247559 0.9295
-2.01322 0.431699 0.394408
-1.87244 0.414803 0.417081
-1.03862 0.571232 -0.947845
-1.9015 0.35289 1.55872
-0.714086 0.114294 -0.750089
-1.51415 0.262625 1.17665
-1.60698 0.515151 1.81458
-1.2289 0.389216 1.12138
-0.308793 0.041535 -0.122959
-0.266475 0.0831932 -0.127652
0.160041 -0.290345 -1.07938
-0.209157 -0.0439887 0.406022
0.744194 -0.318909 -1.73787
0.441009 -0.324136 -1.08956
-0.171179 0.33915 1.45552
0.794837 0.200594 -0.0192308
1.93479 -0.437555 -2.22572
0.777107 -0.0405948 0.800032
0.896052 -0.0609703 0.602608
0.914836 -0.0479169 0.625004
1.59751 -0.523422 -0.813079
1.26076 -0.530515 -0.0529152
0.7694 0.205739 1.31184
1.68544 -0.540743 -0.793103
1.27483 -0.544938 0.101159
0.926504 0.195151 1.20753
1.58635 -0.587184 -0.16743
1.19433 0.169539 1.05153
1.67964 -0.638402 0.700486
2.36795 -0.701897 1.87811
-3.477 0.264051 -1.37098
-2.22729 0.683737 -0.564601
-1.96084 0.699061 -0.826632
-2.52035 0.312679 0.485783
-1.78501 0.401609 -0.0874218
-1.73228 0.407327 -0.163363
-1.59845 0.333268 0.0727474
-1.81523 0.336553 0.829114
-1.13247 0.363198 -0.451683
-1.13618 0.343963 -0.281721
-1.78739 0.300159 1.10973
-0.968806 0.360903 -0.181501
-0.290397 -0.143894 -2.00459
-1.25198 0.278128 0.652122
-1.54507 0.407289 1.64812
-0.23307 0.339153 -1.10962
-1.43716 0.505991 1.77031
-1.00867 0.390602 1.03356
-0.181811 -0.0279986 0.382123
-0.2194 -0.0407278 0.518697
1.03502 -0.308267 -2.25633
1.06505 -0.321139 -2.27007
0.41142 -0.354744 -0.803933
0.749371 -0.35386 -1.50918
0.667827 0.200171 -0.0739748
0.750919 0.216132 -0.0898625
1.738 -0.462239 -1.67924
0.678512 0.219257 1.36441
0.635218 1.5092 1.98005
2.24384 -0.633505 -0.5005
2.18649 -0.736053 0.968403
2.20464 -0.750954 1.01059
2.33323 -0.792302 1.04854
2.24585 -0.782044 1.33327
2.41175 -0.798524 1.39054
2.71155 -0.834827 1.17557
-3.5174 0.275629 -1.27888
-3.47486 0.27032 -1.26492
-1.9895 0.719545 -0.81496
-2.08305 0.151738 1.34967
-1.77927 0.295997 1.17932
-1.61204 0.258619 1.33478
-1.24322 0.513568 1.00512
-0.253689 -0.0298432 0.156551
-0.45909 0.116825 0.94611
-0.232336 -0.0933557 0.85943
0.328105 2.07029 1.92602
1.31401 -0.508423 -0.493199
0.700316 0.0364791 1.01468
1.25077 -0.501959 -0.231633
0.438372 1.92588 2.54145
2.28425 -0.638667 -0.505747
2.75698 -0.833316 0.970926
2.60708 -0.84929 1.61191
3.08589 -0.792723 1.91449
-2.92021 0.757146 -1.20635
-1.75626 0.448708 -0.498881
-0.626578 0.620568 -1.78243
-1.17302 0.52942 0.927725
-0.743026 0.396425 1.73897
0.0230934 0.296322 1.32587
0.784896 -0.000302411 0.917887
1.0964 0.157302 1.26406
-2.42329 0.733443 -1.10722
-2.45856 0.630439 -0.690475
-2.54201 0.541575 -0.614226
-2.24747 0.708722 -0.637833
-0.991352 0.607238 -0.966724
-0.864885 0.520635 -1.05426
-1.83446 0.33387 0.774885
-1.46495 0.347931 0.054418
0.318005 -0.180704 -2.62702
0.789877 -0.0470361 0.763879
1.11852 0.174335 1.18032
2.4356 -0.704212 0.0368093
2.23508 -0.72446 0.890323
-2.37226 0.291908 0.0428185
-1.07335 0.317291 -0.281821
-0.215447 0.220987 -0.969504
1.47289 -0.424254 -2.06512
3.06221 -0.795736 1.84538
-2.39449 0.27799 1.00502
-1.38442 0.341888 0.143263
-0.261034 -0.0395581 -0.0613077
-0.334568 -0.00564306 0.169847
3.30697 -0.865011 1.56295
-0.183302 -0.0254158 0.472215
-1.91022 0.416503 0.14055
-1.57616 0.383238 -0.449031
-1.06739 0.276873 0.332849
0.304781 1.96558 2.56943
-4.04179 0.327804 -0.956813
-3.73729 0.259924 -0.623244
-3.71968 0.255227 -0.628447
-2.88276 0.360211 0.579039
-2.87183 0.359773 0.555158
-2.416 0.31775 1.06202
-2.40091 0.316523 1.06638
-2.38665 0.312808 1.07315
-3.51602 0.238096 -0.825433
-2.78643 0.363906 0.311434
-2.75836 0.369207 0.285234
-2.74857 0.363008 0.295846
-3.50286 0.261372 -1.04768
-3.57688 0.28521 -1.21708
-2.43784 0.253007 0.564442
-3.40946 0.256506 -1.19557
-2.57393 0.347151 0.193957
-2.55813 0.346735 0.188086
-2.6077 0.37819 -0.0161567
-3.28043 0.233695 -1.2112
-2.6405 0.395993 -0.239542
-1.40477 0.482338 1.88494
-2.62974 0.392433 -0.249483
-2.60098 0.393689 -0.272304
-1.66147 0.260273 1.34255
-2.04558 0.401396 0.489125
-2.02167 0.393021 0.501676
-1.79076 0.327819 0.844179
-1.46924 0.283016 1.13487
-1.03111 0.447658 1.65442
-0.774101 0.402671 1.72876
-1.39198 0.440821 0.43591
-1.30744 0.420352 0.578329
-1.26832 0.407095 0.570483
-1.28381 0.410884 0.530134
-1.26353 0.245912 0.667607
-1.24431 0.398243 0.581481
0.258992 1.95882 2.35809
-1.46922 0.369434 0.0407016
-1.3629 0.343477 0.254102
-1.19615 0.355932 0.542901
-1.45148 0.370022 0.0396359
-1.18452 0.281095 0.45329
-0.869242 0.310865 1.00536
-0.871673 0.320802 0.986823
-0.501964 0.363793 1.64722
-1.57711 0.427279 -0.512575
-0.534052 0.121505 1.05691
-0.840283 0.246622 0.209579
-1.62459 0.748519 -1.63696
0.0972465 0.283181 1.49999
-1.01508 0.61014 -1.04536
-1.2029 0.80331 -1.51914
0.302328 0.271883 1.3426
-0.0698314 0.0365653 0.524929
-0.07941 0.0425712 0.493989
-0.0673782 0.0396658 0.505904
-0.692245 0.161301 -0.879896
-0.652094 0.16316 -0.870949
-0.219936 0.065339 -0.123275
-0.392754 0.088682 -0.554865
-0.402662 0.0936683 -0.588065
-0.387683 0.0968371 -0.591734
-0.46476 0.112285 -0.763944
0.242458 -0.0856006 0.21389
0.14468 -0.0444566 -0.00371223
0.157967 -0.0427483 -0.00544401
0.26712 -0.077985 0.217251
0.278484 -0.0823587 0.228877
0.0786093 -0.0105384 -0.220589
0.0805817 -0.00513639 -0.244677
0.875773 0.181363 1.36049
-0.735237 -0.0455182 -2.29195
-0.413511 -0.131798 -1.79332
-0.363175 -0.142686 -1.9385
-0.262797 -0.158002 -1.85846
0.37824 -0.362997 -0.54181
-0.457648 -0.0676942 -2.44937
-0.309601 -0.129179 -2.20406
0.0474244 -0.212788 -1.62099
-0.134579 -0.149799 -2.09397
-0.229416 -0.123752 -2.31168
0.350143 -0.316148 -1.05626
0.258111 -0.285228 -1.43018
0.242989 -0.268156 -1.5243
0.0673374 -0.19751 -1.93366
0.0326391 -0.197504 -2.03736
0.179859 -0.211448 -2.09262
1.87978 -0.724199 1.24572
0.480322 -0.257026 -2.12063
1.32335 -0.514992 -0.356667
0.591604 -0.256025 -2.26883
2.65983 -0.848159 1.43518
1.96782 -0.611042 -0.182204
1.04588 -0.300529 -2.44916
2.47183 -0.781037 0.78671
1.45313 -0.389643 -2.13183
1.86898 -0.424474 -2.43595
-3.71098 0.256804 -0.732757
-3.91091 0.340715 -1.17294
-3.6014 0.240083 -0.771505
-3.19166 0.133182 0.0280437
-2.29297 0.157023 1.33594
-2.89465 0.795362 -0.503638
-0.514221 2.06156 2.52846
-0.512763 2.06867 2.45824
-2.77452 0.559233 -0.287507
-3.43396 0.248385 -1.21795
-3.43244 0.248445 -1.26786
-2.52288 0.2964 0.231527
-2.62024 0.375268 -0.121356
-2.75227 0.834932 -1.14594
-0.312442 2.05339 2.28353
-0.153251 2.0072 2.57877
