-1.70855 0.273178 1.36282
-0.662757 0.211964 0.19186
0.978488 -0.293388 -2.36678
-1.01837 0.418117 0.950263
-1.62468 0.258378 1.33087
1.30316 -0.321772 -2.73087
-0.992826 0.405569 0.969098
-0.701007 0.213867 0.40915
-0.656243 0.193336 0.427301
1.03928 -0.316771 -2.22778
-0.79493 0.194656 0.712172
-0.520262 0.00580203 0.113743
1.42461 -0.337323 -2.55284
1.36349 -0.335532 -2.4806
-1.38056 0.575716 2.06542
0.829291 -0.329353 -1.80965
-1.08143 0.458637 1.62018
0.747203 -0.319189 -1.67514
1.84454 -0.366839 -2.94188
-1.03776 0.447862 1.63035
-0.803364 0.211747 1.0158
0.966701 -0.336192 -1.83874
0.42484 -0.308611 -1.16182
-0.547255 0.149366 0.691166
-0.759583 0.170396 0.983754
0.778172 -0.355883 -1.58969
-0.727352 0.165107 0.959598
-0.766253 0.167615 1.01687
-0.6521 0.161886 0.896802
1.87304 -0.390106 -2.84018
0.544699 1.6374 2.00184
-0.296654 -0.0278971 0.200438
-0.136009 -0.0466275 -0.00352275
-0.710652 0.14616 0.974619
-0.466825 -0.0224347 0.420745
0.409433 -0.323224 -1.05377
0.439581 -0.319895 -1.08273
-0.448011 -0.0363784 0.424329
1.31424 -0.360158 -2.06275
1.44385 -0.373854 -2.21463
-0.768771 0.406329 1.58154
1.11367 -0.381981 -1.84453
-0.539034 0.130321 0.929239
1.44688 -0.384269 -2.15364
-0.619074 0.135724 1.08047
1.40953 -0.374814 -2.01042
1.87638 -0.427706 -2.39276
0.628345 1.57097 2.311
0.00722501 -0.0639384 0.404643
1.33958 -0.416392 -1.71301
0.0298365 -0.086577 0.420748
1.42415 -0.398864 -1.71027
0.0248885 -0.0852423 0.497588
0.028683 -0.0860474 0.529249
1.13977 -0.409007 -1.30085
-0.266852 -0.094449 0.882076
2.22033 -0.438006 -2.63927
1.05398 -0.406946 -1.1728
0.0141511 -0.0956314 0.591038
0.0277261 -0.101366 0.562346
1.99373 -0.438858 -2.23519
0.0382496 -0.143836 0.707299
1.6976 -0.450582 -1.74331
1.4214 -0.454546 -1.34743
1.68011 -0.467302 -1.65084
0.702482 1.01908 1.91031
2.19807 -0.472485 -2.25636
0.949732 -0.439706 -0.631152
0.264419 0.278449 1.35644
0.946837 -0.436917 -0.605077
1.47767 -0.453648 -1.25541
1.87101 -0.469381 -1.76462
1.3052 -0.47204 -0.990924
0.283162 0.256491 1.46096
0.834339 -0.450939 -0.286264
0.481601 0.242761 1.24535
1.71415 -0.483866 -1.41844
0.878925 -0.483269 -0.292943
1.89904 -0.488625 -1.5411
1.30747 -0.485938 -0.771525
1.84572 -0.495155 -1.43984
1.89402 -0.515426 -1.52275
1.10935 -0.47635 -0.411172
0.596287 0.228848 1.38205
1.98958 -0.51338 -1.55606
1.19321 -0.490308 -0.392046
0.751422 0.783134 2.23581
0.891931 0.194745 1.20735
1.08248 -0.490375 -0.0793956
0.899264 0.181835 1.23729
1.14627 -0.51085 -0.0253741
1.34532 -0.52525 -0.262952
1.09243 -0.505939 0.109606
1.4836 -0.525624 -0.40671
1.18867 0.169348 1.06009
2.13852 -0.552545 -1.19899
0.728016 0.184931 1.93613
2.33282 -0.587147 -1.29726
1.28262 -0.559932 0.196661
1.54882 -0.581386 -0.143296
0.87921 0.17376 1.93729
1.03634 0.151746 1.71408
1.18567 -0.574803 0.730817
1.55653 -0.605769 0.360965
1.2173 0.106224 1.89565
1.32084 0.112389 1.79057
2.26235 -0.625448 -0.615205
1.78543 -0.609619 0.108069
1.55442 -0.618152 0.603317
1.28219 -0.626777 1.06363
1.90635 -0.643959 0.131432
1.9292 -0.642493 0.144415
1.92291 -0.645295 0.270222
1.47254 -0.650077 0.99665
1.50288 -0.654881 1.00559
2.0147 -0.652034 0.255977
2.10191 -0.656944 0.16514
1.62428 -0.671209 0.891579
1.64499 -0.680946 0.913207
1.87722 -0.656098 0.664124
2.25459 -0.670842 0.0775856
1.51322 -0.674862 1.2601
2.64883 -0.691683 -0.404045
2.45653 -3.4217 -3.77173
1.9112 -0.6686 0.82836
2.76041 -1.51198 -1.60232
2.45818 -0.702083 -0.0186273
1.5634 -0.714807 1.5035
2.24806 -0.712733 0.474532
1.74111 -0.732408 1.44641
1.76958 -0.740152 1.41522
2.77179 -0.723525 -0.160091
2.67038 -0.736324 0.100327
2.46661 -0.741899 0.470986
2.19958 -0.732924 0.942319
1.63491 -0.620425 2.05773
2.16291 -0.76049 1.02854
2.79069 -0.756648 0.179114
1.87197 -0.767177 1.83235
1.89416 -0.77063 1.80312
1.90118 -0.764446 1.84567
2.36152 -0.782122 1.07065
2.40912 -0.785418 1.07392
2.9092 -0.780124 0.276309
2.98446 -1.64197 -0.802548
2.97163 -0.861092 0.203566
2.17073 -0.805728 1.68007
2.39278 -0.80749 1.46782
2.96447 -0.99198 0.271172
3.03555 -1.53631 -0.239453
2.55826 -0.846363 1.64363
2.64797 -0.856542 1.63197
3.06587 -0.848142 0.898636
2.86854 -0.890225 1.55348
2.96951 -0.892295 1.46013
3.24794 -1.7474 -0.0342477
3.25617 -1.75926 -0.0245403
3.00781 -0.892163 1.43124
3.01744 -0.893159 1.4464
3.43785 -0.838052 1.88222
-3.9892 0.461442 -2.86712
-3.66643 0.414443 -2.88753
-4.135 0.449283 -2.43243
-3.39847 0.36858 -2.74498
-3.33179 0.36019 -2.75274
-3.87741 0.40067 -2.20231
-2.39285 0.799358 -1.98355
-2.31099 0.817889 -2.00838
-2.58067 1.00392 -1.30646
-2.17563 0.31013 -2.74232
-1.85736 0.287625 -2.80479
-1.96103 0.258637 -2.75801
-1.82983 0.275319 -2.83171
-1.30955 0.697729 -2.24117
-1.31291 0.692532 -2.21032
-1.54973 0.599423 -2.13533
-1.52976 0.58685 -2.16328
-1.55944 0.618676 -2.06592
-1.73903 0.141712 -2.78594
-1.55234 0.566617 -2.04693
-1.58977 0.10406 -2.79517
-1.42804 0.0722005 -2.61129
-1.08211 0.049419 -2.88053
-1.23322 0.0545048 -2.68902
-1.52005 0.631871 -1.20644
-0.827006 0.634025 -1.69002
-2.01006 0.511332 -0.570716
-0.551789 -0.0486565 -2.83516
-1.12672 0.61994 -0.999746
-1.07084 0.611295 -1.00164
-1.84788 0.472799 -0.537753
-1.78434 0.46821 -0.57031
-1.08835 0.588776 -0.964908
-0.899349 -0.0267822 -2.25301
-0.990973 0.594906 -1.00162
-0.934273 0.591894 -1.04637
-1.01662 0.50993 -0.842766
-0.854807 0.443364 -1.07917
0.00469246 -0.11533 -2.82048
-0.180457 -0.112769 -2.63838
-0.20867 -0.117907 -2.5989
-0.150569 -0.118731 -2.62211
-0.15689 -0.12012 -2.58811
-0.108177 -0.119853 -2.58553
-0.0697427 -0.140615 -2.62412
-2.5256 0.333337 0.445093
-1.74855 0.514878 0.099798
-2.59496 0.303699 0.516018
-1.70421 0.484155 0.0836436
-1.53874 0.356924 -0.346956
-0.811452 0.422458 -0.705888
-0.489291 -0.117181 -1.9268
-0.812648 0.394115 -0.680475
-0.191487 0.410036 -1.17858
-1.97452 0.39355 0.486698
-0.389312 -0.125252 -1.92207
-1.82347 0.377562 0.362787
-0.267329 -0.146164 -1.87894
-1.84298 0.355686 0.701751
-0.645434 0.401065 -0.165313
-1.82917 0.312462 0.903442
0.995923 -0.26096 -2.91259
-1.85129 0.31221 0.954636
-0.616536 0.3718 -0.173706
0.683126 -0.252152 -2.508
0.798726 -0.253594 -2.60214
-1.21309 0.359738 0.529947
1.26212 -0.282174 -2.97883
-1.15483 0.302315 0.501878
1.30267 -0.288262 -3.00077
-0.786602 0.276071 0.126768
1.30354 -0.294915 -2.9454
0.670368 -0.275091 -2.22012
-0.0677106 -0.234204 -1.36686
-0.0294071 -0.240198 -1.34355
-1.53666 0.27455 1.24831
-0.99205 0.431083 0.981277
1.33055 -0.325926 -2.73431
-0.998838 0.323795 0.937268
-0.767413 0.204089 0.595916
0.0155846 -0.258858 -0.998959
0.401028 1.88853 2.21468
-0.218277 0.0587226 -0.146107
1.23846 -0.322583 -2.35264
-0.646932 0.187976 0.565634
-0.742393 0.187826 0.705845
-0.719151 0.170995 0.686367
1.28078 -0.339546 -2.34176
1.70484 -0.368647 -2.79021
0.423597 1.86043 2.37328
0.985508 -0.333533 -1.87031
-1.13933 0.442333 1.79943
-0.762484 0.173763 1.05892
-0.751405 0.154188 1.02672
-0.181062 -0.0422263 0.157061
0.55243 -0.351258 -1.12059
1.3134 -0.375005 -2.03159
-0.138341 -0.0515455 0.167523
-0.649866 0.139947 1.09124
-0.48087 0.130972 0.90683
-0.575325 0.135371 1.08421
0.0171396 -0.0760172 0.16149
0.179619 -0.371839 -0.442599
0.675414 1.46132 1.96326
-0.507355 0.359721 1.65235
0.758942 0.198831 -0.0141438
0.790393 0.194484 -0.0635054
0.72904 1.42218 2.07921
0.0402942 -0.095683 0.455736
-0.300367 -0.0822384 0.903884
0.042967 -0.100801 0.489941
0.037989 -0.104788 0.525983
0.0750526 -0.110193 0.475375
-0.00056572 0.306278 1.37376
1.97614 -0.486669 -2.19368
-0.0233031 0.310537 1.50692
0.0664174 0.294334 1.5041
0.111787 0.291971 1.45555
1.73834 -0.425493 -1.70652
0.0871364 0.288447 1.53344
2.22262 -0.476265 -2.24804
1.28673 -0.461487 -1.01774
1.32876 -0.46578 -1.01663
1.42494 -0.463436 -1.09027
0.591432 0.233327 1.35802
0.893479 -0.0642638 0.665282
0.915101 -0.0675512 0.732759
1.00921 -0.494395 -0.0351411
0.873646 0.193841 1.2282
1.30565 -0.509877 -0.322829
1.10986 -0.499338 -0.0542359
1.34164 -0.524361 -0.315279
1.17667 -0.514005 -0.0260253
1.34336 -0.530756 -0.243126
1.72069 -0.540023 -0.694898
1.34557 -0.545508 -0.10954
2.11596 -0.55454 -1.15462
0.826051 0.19151 1.74279
0.786987 0.184557 1.87105
0.799466 0.173178 2.03083
0.753977 0.1641 2.09234
0.872618 0.479573 2.51101
0.859758 0.158675 2.05705
0.865518 0.219282 2.33134
1.53422 -0.598933 0.291845
2.47084 -1.13206 -1.79946
2.47861 -1.16746 -1.82806
0.933252 0.201006 2.445
1.23339 -0.614455 1.07373
1.7308 -0.639398 0.366071
1.72349 -0.63447 0.392436
1.34811 -0.617068 0.992381
2.23723 -0.638928 -0.33103
2.26263 -0.644654 -0.375725
2.6216 -1.34636 -1.90919
1.7862 -0.62856 0.357473
2.63443 -1.34606 -1.8791
1.78849 -0.638188 0.389704
1.58167 -0.647431 0.700232
1.91141 -0.643024 0.235972
1.97101 -0.641092 0.149631
2.3327 -0.688998 -0.325934
1.97032 -0.656871 0.299704
1.58511 -0.659502 0.922466
1.6023 -0.671382 0.917895
1.59735 -0.65746 0.962242
1.50145 -0.672835 1.23438
2.41059 -0.702749 0.0812048
1.57129 -0.712884 1.57422
2.69801 -0.720908 -0.138687
1.63088 -0.71191 1.60654
2.26858 -0.718836 0.645017
2.79367 -0.723336 -0.174166
1.61103 -0.616068 2.07666
1.7117 -0.745666 1.74989
2.13988 -0.762745 1.39162
2.5547 -0.849209 1.62747
2.94628 -0.866507 1.23013
2.9641 -0.882631 1.38012
3.09216 -0.777393 1.77273
-5.05856 0.618246 -2.7121
-4.17715 0.451018 -2.22304
-2.53234 0.980925 -1.38742
-2.30974 0.298457 -2.74234
-2.38711 0.931801 -1.39667
-2.29603 0.934547 -1.45557
-1.76885 0.93701 -1.82984
-1.99429 0.272552 -2.71569
-1.80676 0.806254 -1.63542
-1.57604 0.59191 -2.04302
-1.64143 0.12507 -2.77225
-1.2099 0.558414 -1.97742
-0.821825 0.773633 -1.72156
-1.04991 0.533401 -1.99665
-0.96555 0.503344 -1.95425
-0.822127 0.639225 -1.72067
-0.769256 -0.00938395 -2.69488
-1.11837 0.609709 -0.952317
-0.908561 0.452452 -1.2979
-0.532023 -0.0524502 -2.51553
-0.932524 0.579165 -0.965457
-1.76689 0.429991 -0.440394
-0.839848 0.570901 -1.00413
-0.21325 -0.101913 -2.66076
-0.153933 -0.115604 -2.6778
-0.875904 0.511322 -0.867837
-1.72984 0.479021 0.0470071
-0.617103 -0.0651932 -1.83113
-0.818801 0.49127 -0.650812
-0.628435 -0.0649841 -1.78736
0.553433 -0.171569 -3.02219
-1.27857 0.357892 -0.356965
0.445556 -0.170445 -2.8107
0.363739 -0.186688 -2.72588
-1.64231 0.284748 0.107171
-0.257991 -0.150221 -1.98741
1.01057 -0.25948 -2.9489
-0.292831 -0.199449 -1.47733
-1.3021 0.247021 0.434623
-0.112375 2.01154 2.33694
0.478509 -0.245003 -2.15236
-0.857352 0.243302 0.2179
-0.615469 0.0442926 -0.357166
-1.07694 0.489059 0.959457
0.0808502 -0.240735 -1.43219
-0.597683 0.0524862 -0.216847
-0.744135 0.216778 0.313875
-0.707593 0.217122 0.426591
-1.18869 0.472119 1.66908
-0.705482 0.166024 0.638287
-0.607335 0.183775 0.552545
1.21197 -0.342531 -2.18519
1.362 -0.352797 -2.36017
-0.620571 0.164819 0.804663
-0.596148 0.151367 0.93219
-0.723958 0.399482 1.54198
0.600109 -0.33808 -1.17563
-0.567237 0.385668 1.52431
-0.56019 0.298357 1.3893
-0.488624 0.117425 1.05622
-0.522747 0.375625 1.53027
0.660039 1.49149 2.03643
0.223268 -0.343809 -0.408725
0.771232 0.217671 -0.0433273
0.764323 0.181446 0.00282499
0.697492 -0.384723 -0.741217
0.697679 1.46994 2.24336
0.739011 1.44262 2.22253
0.149642 -0.138089 0.564383
1.97239 -0.4665 -2.14961
0.0985114 0.297941 1.38086
0.114384 0.282096 1.50269
0.322548 0.267442 1.31833
0.812039 -0.453036 -0.311221
1.34094 -0.49184 -0.76976
0.64277 0.32892 1.57793
0.643884 0.324178 1.61248
0.721272 0.209398 1.37997
0.747942 0.204113 1.35178
0.958628 -0.503361 0.00807021
0.94794 -0.0647536 0.742886
0.744468 0.737079 2.23596
1.05746 -0.503258 -0.014572
1.63606 -0.521411 -0.76277
1.1105 -0.499054 -0.0194452
1.31097 -0.514127 -0.236756
1.68459 -0.548329 -0.782389
1.18591 -0.526817 0.0215495
1.50852 -0.535059 -0.418229
1.3305 -0.526742 -0.137298
0.821244 0.166576 1.88208
0.829313 0.171619 2.03974
0.810733 0.251266 2.39524
0.833707 0.227168 2.39156
0.973575 0.183408 2.45525
1.53884 -0.611976 0.540967
1.54755 -0.615991 0.572772
1.60158 -0.616782 0.553959
1.88019 -0.637895 0.144469
2.26319 -0.637671 -0.411689
1.80484 -0.658916 0.578476
1.3674 0.143407 2.35213
1.47953 -0.666283 1.27293
1.52759 -0.675877 1.19772
1.65356 0.0950482 2.31312
1.66186 -0.710833 1.50691
2.35347 -0.717366 0.453265
1.79378 -0.743657 1.40371
2.16711 -0.735829 0.885139
1.73977 -0.722988 1.61063
1.58021 -0.601073 2.08217
1.7825 -0.731294 1.597
1.78111 -0.733238 1.62977
2.17739 -0.738551 0.988307
2.21205 -0.737412 0.970502
1.79557 -0.742819 1.70527
1.79108 -0.762501 1.75563
1.88371 -0.767424 1.75637
2.48877 -0.813423 1.2799
2.5603 -0.844889 1.67275
2.82775 -0.883691 1.57435
2.95699 -0.885783 1.42027
3.08366 -0.776531 1.74811
3.3039 -0.79615 1.71766
3.36714 -0.805455 1.72671
3.37966 -1.6224 1.09143
3.37494 -1.67131 1.05577
3.43838 -0.834634 1.84188
3.47556 -1.32159 1.56035
-4.58962 0.52269 -2.75934
-4.13453 0.382466 -2.24467
-1.84327 0.210655 -2.78084
-1.11381 0.58147 -2.02649
-1.00496 0.52208 -1.97236
-0.83228 0.661919 -1.73979
-1.76302 0.388271 -0.0657431
-1.72971 0.365623 -0.116082
-1.87179 0.414901 0.440432
0.460909 -0.188982 -2.79871
-0.178763 -0.162942 -1.36265
-0.261833 0.155058 -0.533236
-1.05584 0.428939 0.912087
-1.31253 0.484174 1.86822
-0.0487443 -0.277318 -0.735829
-0.287326 -0.0223165 -0.0084887
-0.628106 0.172165 0.75401
1.09692 -0.359061 -1.90899
-0.534047 0.264969 1.38648
-0.544986 0.376138 1.62514
0.787039 0.211777 -0.137358
0.583281 -0.367189 -0.486853
0.0530052 0.306151 1.38285
-0.184313 0.0416256 1.27729
0.453992 0.254758 1.27516
2.04187 -0.461419 -1.82041
1.56473 -0.496442 -1.07181
1.94327 -0.512592 -1.53648
1.13847 -0.497438 -0.387257
1.27941 -0.503477 -0.352581
1.04619 -0.536255 0.0367557
1.16077 0.168866 1.08935
0.783717 0.196335 1.76426
1.23969 -0.00114279 1.04181
1.55023 -0.537027 -0.148876
0.84301 0.160595 1.96806
0.793889 0.324929 2.32181
1.22433 0.141308 1.6486
0.841469 0.229534 2.4316
1.46162 -0.630595 0.720257
1.62577 -0.639923 0.717293
2.20863 -0.711329 0.503073
1.52244 -0.707708 1.62023
2.45733 -0.700595 0.157075
2.51332 -0.707349 0.178329
1.70102 -0.722189 1.48492
1.6054 -0.74888 1.75791
1.92692 -0.783157 1.74933
2.22146 -0.807671 1.72033
2.78427 -0.849474 1.17578
2.83742 -0.849334 1.15453
2.90993 -0.890419 1.53287
3.02069 -0.768851 1.76068
3.05047 -0.776137 1.77143
3.1334 -0.778989 1.79131
3.04869 -0.789405 1.96012
3.34868 -0.802066 1.68905
-1.57832 0.602286 -2.11929
-1.70073 0.767582 -1.66197
-1.55123 0.569722 -2.11105
-2.8443 0.660679 -0.426659
-0.858999 0.367787 -1.16879
-0.160947 0.386273 -1.19122
0.328191 -0.18429 -2.6331
-1.37788 0.335635 -0.0497661
-0.288433 -0.137957 -1.92709
-1.35563 0.312362 0.170872
-1.31707 0.285251 0.178261
-1.349 0.262052 0.366754
-0.578854 0.053136 -0.410781
-0.751877 0.240866 0.255582
-0.242678 -0.0325718 -0.0725282
0.898838 -0.359829 -1.58565
-0.152674 0.337656 1.42359
0.749183 1.41297 2.2472
0.174223 -0.145749 0.498246
0.0754175 0.294387 1.47942
0.341455 -0.177428 0.660587
0.493688 0.239733 1.43903
1.40445 -0.494592 -0.753721
0.749948 0.207128 1.22834
0.709733 0.217752 1.3301
0.942031 1.11304 2.42341
1.093 0.178105 1.12418
2.64125 -0.700192 -1.06898
1.55364 -0.629251 0.723136
1.4857 -0.644842 1.14605
2.39877 -0.694865 0.068909
2.40171 -0.792359 1.19875
3.09392 -0.777871 1.79003
3.40655 -0.82902 1.87277
-1.62756 0.7646 -1.74971
-1.73602 0.163781 -2.84129
-2.7508 0.581322 -0.3524
-1.98165 0.528038 -0.360907
-1.93908 0.483469 -0.446784
-1.55374 0.421195 -0.624554
-0.865969 0.36008 -1.06687
-0.788157 0.303922 -1.12661
-0.66892 0.34503 -1.20533
-1.39972 0.352848 0.0322085
-1.38362 0.341364 0.123075
-0.20239 0.260873 -1.05751
-1.38725 0.38071 0.377458
-1.361 0.334639 0.353665
1.20916 -0.339641 -2.24866
0.446454 1.8446 2.38321
0.608989 1.6253 2.36837
-0.129275 -0.0949216 0.694906
0.839194 -0.00200509 0.177959
0.944923 1.33752 2.47318
0.510299 0.240184 1.34273
0.592454 0.230409 1.33236
0.949296 1.19473 2.428
0.794926 -0.0954936 0.732505
1.93202 -0.587138 -0.508522
1.88943 -0.665244 0.646033
1.46601 -0.700802 1.92245
2.17432 -0.737399 0.911046
3.21865 -0.798436 1.76039
3.1758 -0.801619 1.93078
3.22672 -0.799188 1.82214
3.29211 -0.805838 1.70137
3.234 -0.79992 1.8806
-0.938457 0.695346 -1.02715
-0.366647 0.238522 -0.970093
-0.152396 0.238187 -1.01294
-1.33607 0.259637 0.265361
-1.25814 0.405434 0.53569
0.769076 0.0242034 0.209452
1.53481 -0.697311 1.5115
3.1284 -0.780095 1.74341
3.15824 -0.80332 1.86595
3.29751 -0.795764 1.77673
-3.564 0.443716 -1.12561
-0.749935 0.398422 -1.46529
-1.11827 0.430857 -0.398501
-0.869405 0.297484 -0.0570183
-0.909414 0.251357 0.904112
0.804394 0.146445 2.07223
2.87122 -0.95261 0.0545998
-2.62471 0.698612 -0.445631
-1.64015 0.549193 -0.661207
-0.947701 0.476496 -1.41131
-1.55267 0.347748 -0.286126
-0.62261 0.309581 -0.972934
-1.64787 0.354985 0.125314
-1.28998 0.279831 -0.118753
0.843871 -0.478262 0.21077
0.932011 0.150989 2.22534
1.62683 -0.661639 0.952707
1.96154 -0.690824 0.838027
3.41321 -0.860516 1.67759
3.37512 -1.29242 1.54885
-0.975528 0.46365 -0.971801
0.847811 0.259008 2.26438
0.909149 0.32119 2.42269
1.36489 -0.622488 1.54786
1.44707 -0.705612 1.70401
-3.08533 0.639237 -0.853953
-1.36625 0.351533 0.414291
-0.109064 -0.198063 -1.26647
-0.195212 -0.0827365 -1.00996
-1.36154 0.0923903 -2.46434
1.60285 0.277729 2.02177
-0.152101 2.00598 2.54024
-0.158816 2.0318 2.26646
0.197515 1.97589 2.28578
0.562342 1.65807 2.25854
0.556658 1.66078 2.24388
0.596564 1.61409 2.24507
0.59401 1.59617 2.1474
0.671555 1.49977 2.18873
-5.45257 0.672082 -2.8011
-2.57945 0.268602 0.617674
-4.07715 0.346119 -0.994068
-1.0706 0.460139 1.58641
-2.4132 0.21542 0.7895
-1.76534 0.29137 1.19912
-1.86711 0.354755 0.672248
-4.44573 0.468033 -2.10809
-0.711525 0.384567 1.72116
-4.91633 0.599578 -2.87589
-1.22996 0.382007 1.08236
-1.17843 0.505205 0.882509
-0.591599 0.378617 1.69039
-1.13877 0.495663 0.893902
-3.59205 0.278436 -1.13271
-1.15189 0.492317 0.862282
0.727614 0.786506 2.12422
0.719301 0.789824 2.11014
-1.0655 0.477867 0.931035
-4.33289 0.489904 -2.45919
-4.46656 0.521013 -2.77293
-3.96135 0.403061 -2.0395
-1.92741 0.604161 -0.459612
0.690885 0.706535 2.02548
-1.24818 0.390153 0.5373
-0.997319 0.318022 0.934194
-0.996175 0.310992 0.918275
-1.24719 0.391164 0.50628
-0.890728 0.312062 0.985623
-0.316155 0.345831 1.47991
-1.25421 0.23855 0.666705
-1.22805 0.234601 0.667097
-1.37103 0.281952 0.408213
-1.20047 0.203671 0.730609
-1.19729 0.201164 0.715517
-0.811596 0.230255 1.0053
-1.19662 0.201381 0.64568
-1.43217 0.374537 0.0266784
-0.808125 0.220104 0.991205
-1.18404 0.173197 0.62017
-0.79308 0.177688 1.01034
-1.12598 0.268422 0.481598
-1.13597 0.263659 0.446572
-1.19172 0.136472 0.5971
-1.13082 0.241198 0.442206
-3.8785 0.448086 -2.93638
-1.26781 0.214308 0.304913
0.798716 0.286607 2.31828
-3.49123 0.358498 -2.54273
0.102875 0.285119 1.50917
-0.558271 0.140481 0.908521
-3.20519 0.305799 -2.40683
-1.20569 0.351569 -0.368847
-0.73477 0.21532 0.403544
-0.673344 0.20666 0.406101
-1.13704 0.606553 -0.918227
-1.13243 0.615226 -0.938263
0.307945 0.273702 1.33105
-3.07808 0.343818 -2.6677
-0.722534 0.239783 0.164913
0.923985 0.158061 1.99664
-0.843773 0.575496 -1.04137
0.976959 0.152789 1.88581
-0.383753 -0.0517347 0.627718
-2.7345 0.276848 -2.85949
-2.41737 0.227377 -2.59079
-2.29403 0.356355 -2.85074
-2.29155 0.346444 -2.86375
-2.26497 0.334979 -2.82476
-2.22652 0.319754 -2.77225
-2.26183 0.337772 -2.85557
-2.054 0.298844 -2.75075
-1.97644 0.296823 -2.76101
-0.346589 0.0496389 -0.354405
1.11213 0.157747 1.27811
-1.88981 0.302129 -2.85425
-1.84297 0.299927 -2.85887
1.18413 0.154444 1.23992
-1.78034 0.153861 -2.75998
0.863934 -0.0623523 0.660798
-1.34018 0.0513355 -2.48704
-1.44717 0.0841693 -2.83238
1.20971 -0.442704 1.18347
0.235424 -0.344973 -0.448431
1.34931 -0.667625 1.53554
0.349265 -0.334575 -0.682958
-0.513114 -0.0797352 -2.35602
-0.51759 -0.0770541 -2.37523
-0.278513 -0.148405 -1.93779
1.50848 -0.695951 1.50907
1.52195 -0.703286 1.51307
1.53225 -0.705303 1.52909
-0.0372833 -0.213225 -1.56477
0.150367 -0.269188 -1.22026
-0.317517 -0.120487 -2.15528
0.128301 -0.252152 -1.30141
-0.517715 -0.0696191 -2.54938
1.46348 -0.667538 1.26247
-0.263909 -0.12638 -2.13817
-0.199243 -0.153999 -2.01665
1.4149 -0.64098 1.10523
-0.300978 -0.121229 -2.2567
1.38284 -0.639985 1.045
1.43076 -0.644771 1.10966
0.0480931 -0.213327 -1.63596
0.0551601 -0.212726 -1.65089
0.0530263 -0.221078 -1.68112
-0.409483 -0.0597874 -2.70789
-0.2184 -0.130929 -2.31501
-0.355618 -0.0646297 -2.79513
-0.361041 -0.0629267 -2.82715
-0.0498147 -0.148058 -2.2418
-0.348745 -0.0656354 -2.81072
1.57493 -0.651469 0.958252
1.49195 -0.623504 0.709752
1.73717 -0.711502 1.20816
0.497139 -0.305752 -1.34435
0.0651563 -0.170739 -2.25463
-0.0381805 -0.117521 -2.75188
-0.0402809 -0.114982 -2.7728
-0.0426002 -0.114125 -2.79608
1.57289 -0.611142 0.334797
1.6124 -0.637606 0.386838
1.53686 -0.607414 0.2184
0.989192 -0.453032 -0.955704
0.0903137 -0.118965 -2.91027
1.87196 -0.648876 0.706353
1.86188 -0.641484 0.673415
0.92069 -0.398087 -1.20238
0.937053 -0.40092 -1.19584
0.9425 -0.399617 -1.20858
0.361397 -0.214272 -2.4902
0.264663 -0.167771 -2.7157
0.25857 -0.172276 -2.74461
0.286185 -0.172365 -2.72685
0.842737 -0.341254 -1.58813
0.313338 -0.168818 -2.74306
1.072 -0.417617 -1.26736
0.462266 -0.194854 -2.79929
0.494737 -0.19005 -2.82985
0.526967 -0.201629 -2.79729
1.91676 -0.647382 0.123817
1.27306 -0.429777 -1.29946
1.5647 -0.524908 -0.740757
1.03783 -0.356354 -1.92115
1.08502 -0.361945 -1.9383
0.63421 -0.194384 -2.96958
1.95989 -0.617556 -0.164114
0.738874 -0.241419 -2.80651
1.45987 -0.445747 -1.33597
1.44691 -0.441063 -1.35909
1.31778 -0.386426 -1.81901
0.980261 -0.2579 -2.88804
2.43951 -0.732701 0.197505
1.44605 -0.384506 -2.1761
1.81454 -0.494329 -1.43997
1.34343 -0.318948 -2.60008
1.85784 -0.487339 -1.53976
1.64656 -0.357964 -2.6497
2.01069 -0.49187 -1.81038
1.95538 -0.452206 -1.99212
3.55503 -1.13303 1.8569
1.71191 -0.368981 -2.63402
1.85034 -0.390613 -2.85448
2.29201 -0.474424 -2.60163
0.430398 1.99431 2.66042
0.488775 1.7647 2.28043
0.589267 1.6507 2.37506
0.532488 1.69113 2.23021
0.56654 1.65465 2.23341
0.620076 1.60055 2.34621
0.607547 1.58714 2.20352
0.659653 1.51443 2.19497
0.667292 1.50303 2.20601
-2.67831 0.256852 0.815552
-2.66556 0.257076 0.79424
-1.13761 0.45153 1.74042
-2.71945 0.525705 0.0801139
-2.31438 0.224506 0.988246
-2.86038 0.722789 -0.566398
-1.8551 0.306007 1.23643
-2.51137 0.242872 0.720329
-5.07025 0.599426 -2.44969
-4.61379 0.478768 -1.80419
-1.06167 0.455596 1.6065
-2.59791 0.325981 0.393292
-4.04275 0.333284 -1.00023
-2.51958 0.325351 0.469549
-4.88435 0.565735 -2.30898
-4.90797 0.561637 -2.35473
-0.959025 0.435785 1.61086
-1.97561 0.368594 0.728162
-3.87466 0.311442 -1.0912
0.697632 1.0283 1.89675
-2.04885 0.393402 0.483754
-2.5912 1.01472 -1.30252
0.704123 1.02083 1.90971
-1.88147 0.357094 0.68881
-4.67048 0.543323 -2.49447
-3.75855 0.284305 -1.11921
-1.85756 0.349426 0.578119
-3.70526 0.293614 -1.16172
0.750598 0.782821 2.23649
-4.24714 0.459582 -2.13662
-1.08782 0.493069 0.915377
-1.06907 0.478159 0.913878
-1.09215 0.456137 0.852481
-0.993395 0.412552 0.969461
-4.35555 0.521383 -2.81585
-1.99557 0.695052 -0.72889
-1.98907 0.719363 -0.793349
-0.431594 0.374319 1.49895
-1.99592 0.720352 -0.816482
-1.98039 0.731449 -0.848153
-0.839678 0.312802 0.950727
-1.23096 0.233439 0.692488
-0.828542 0.304618 0.968196
-1.08436 0.235942 0.780177
-1.93189 0.484266 -0.61922
-3.74389 0.407912 -2.42735
-0.822968 0.280253 0.925048
-3.75893 0.40583 -2.4603
-0.807769 0.240465 0.974806
-1.19059 0.186073 0.632287
-1.66329 0.416355 -0.339638
-1.39538 0.196924 0.270726
-1.73159 0.457029 -0.586828
0.640224 0.463446 1.95458
-0.76821 0.165445 1.0172
-1.54952 0.392545 -0.341953
-1.49168 0.456175 -0.399304
0.0325959 0.299171 1.54329
-0.692456 0.156669 0.947388
-0.678238 0.158391 0.923771
-0.796512 0.195496 0.710925
-0.632155 0.152653 0.927261
-1.49767 0.361057 -0.445613
-1.46874 0.355448 -0.429848
-3.48024 0.370825 -2.68308
-3.42943 0.37456 -2.64519
-0.861297 0.232151 0.43641
-0.548693 0.141781 0.89076
-0.526438 0.13321 0.905825
-1.69106 0.772836 -1.64913
-0.509112 0.135084 0.879401
-0.750437 0.218672 0.419932
-2.02602 0.793655 -2.15548
-0.727475 0.225609 0.376015
-0.666762 0.207372 0.386886
-3.07084 0.327654 -2.61219
-3.08375 0.331072 -2.64004
-0.626636 0.199984 0.376973
0.316442 0.27481 1.31504
-3.14781 0.341031 -2.78648
-3.07853 0.330873 -2.69743
1.19009 0.163836 2.40695
-1.01988 0.612568 -1.02758
1.23193 0.160016 2.39262
0.903531 0.162298 1.9918
0.531751 0.235496 1.4062
-0.901325 0.544987 -0.917579
1.04493 0.128809 2.08985
-0.869116 0.587353 -1.06218
-0.876588 0.589833 -1.08692
-0.850576 0.577411 -1.0634
-0.391557 -0.0621969 0.654654
-0.840515 0.562093 -1.0653
1.11199 0.114248 2.06897
0.968816 0.171784 1.73325
-0.875518 0.371908 -0.925847
1.03323 0.152083 1.71446
-1.25887 0.538983 -1.98451
0.92644 0.180753 1.30592
-0.288161 -0.0340537 0.213494
-2.07296 0.321984 -2.77096
-2.04081 0.316278 -2.7769
0.0201305 -0.0877682 0.50164
-2.01055 0.26069 -2.67365
-0.124859 -0.0619345 0.176618
0.296955 -0.1751 0.800503
0.160293 -0.126864 0.492101
0.174423 -0.13711 0.50232
0.0550684 -0.0796127 0.169094
-1.79796 0.164445 -2.74965
1.19822 0.165006 1.08907
1.18373 0.169625 1.06119
-0.709206 0.170498 -1.47494
0.770851 -0.059486 0.681606
1.28499 -0.0635187 1.2679
0.88892 -0.0652548 0.714925
-1.29619 0.0374256 -2.3887
-1.27248 0.0277603 -2.3686
-1.47899 0.107517 -2.87646
-1.45793 0.0982899 -2.86156
1.21809 -0.184722 1.06752
-0.964568 -0.0226603 -2.26157
-1.29376 0.0821157 -2.91689
-0.100678 -0.279885 -0.672529
-1.23139 0.0586066 -2.89148
-0.664186 -0.0846907 -1.97414
-0.129084 -0.0952353 -1.26086
-0.995582 0.0126495 -2.69012
-0.707157 -0.0611672 -2.17193
-0.691194 -0.0650887 -2.18479
0.212705 -0.335123 -0.46487
-0.136286 -0.218606 -1.33056
-0.123052 -0.224711 -1.30815
1.36654 -0.672495 1.53303
-0.428398 -0.121792 -1.93976
-0.103693 -0.232483 -1.318
-0.833951 -0.0244426 -2.70124
-0.100288 -0.223405 -1.34723
-0.774869 -0.0211868 -2.66169
-0.340623 -0.153206 -1.91787
1.28133 -0.626998 1.06434
-0.046439 -0.210838 -1.57998
1.54011 -0.709663 1.50914
1.55823 -0.714946 1.5411
1.71121 -0.75277 1.77862
1.07504 -0.565484 0.534533
1.4769 -0.667616 1.22164
1.5958 -0.708101 1.45318
-0.231548 -0.125425 -2.18417
1.48398 -0.670151 1.20387
1.43324 -0.644441 1.09189
1.49641 -0.677319 1.2149
1.53373 -0.679624 1.22729
1.4646 -0.652511 1.0289
1.37464 -0.618554 0.832631
1.38545 -0.622244 0.84505
1.89854 -0.766815 1.82618
1.40392 -0.62453 0.831232
1.71121 -0.728892 1.43925
-0.306511 -0.0958711 -2.58882
1.66667 -0.687591 1.28041
1.35911 -0.612803 0.706621
-0.311979 -0.0874266 -2.64341
0.0556611 -0.191888 -1.93849
1.64721 -0.677458 1.2025
-0.312482 -0.0873394 -2.66624
-0.371667 -0.0566008 -2.80835
-0.243762 -0.110136 -2.63151
0.551987 -0.342698 -1.15529
1.51166 -0.616577 0.644106
1.27658 -0.544818 0.137901
0.455596 -0.291886 -1.51557
1.86359 -0.714965 1.27809
2.12957 -0.774217 1.6272
2.40409 -0.705293 1.88591
2.17175 -0.806226 1.67863
1.56399 -0.606709 0.414422
1.49777 -0.592475 0.211035
0.194166 -0.175044 -2.47902
0.036818 -0.114465 -2.83133
1.51176 -0.587595 0.185455
1.33057 -0.522154 -0.216972
1.59909 -0.610212 0.332527
1.35904 -0.543427 -0.152126
2.49888 -0.717761 1.88183
1.35725 -0.544999 -0.171669
1.89425 -0.658056 0.82984
2.28825 -0.822787 1.67298
1.91021 -0.668241 0.829643
1.23307 -0.485918 -0.518634
0.728937 -0.314405 -1.73199
1.91058 -0.684601 0.658494
2.15439 -0.731631 0.96288
1.37104 -0.492302 -0.752252
2.44243 -0.811272 1.44596
1.0171 -0.364591 -1.62557
2.52235 -0.823407 1.50653
0.467958 -0.191249 -2.81654
0.83419 -0.314698 -2.04419
0.469826 -0.181696 -2.87809
0.969505 -0.342238 -1.8223
0.922553 -0.313083 -2.00559
2.63818 -0.857012 1.61896
2.11494 -0.681081 0.486374
1.93017 -0.656919 0.122166
2.38619 -0.780752 1.04521
2.4786 -0.812169 1.22465
0.499205 -0.178555 -2.98486
1.56168 -0.522377 -0.756911
1.06167 -0.358683 -1.83207
1.96226 -0.644737 0.0625433
1.57649 -0.528215 -0.755286
0.863617 -0.272748 -2.3198
1.10097 -0.36794 -1.86959
1.11886 -0.370753 -1.85983
0.749448 -0.22916 -2.82182
2.16087 -0.66538 0.17446
1.04339 -0.31493 -2.22095
0.757049 -0.225071 -2.88466
2.67369 -0.826854 1.18121
0.822807 -0.232103 -2.8205
1.2958 -0.383789 -1.88499
1.26915 -0.370045 -1.96334
0.866533 -0.223155 -2.96106
1.13274 -0.31024 -2.39244
2.4712 -0.742204 0.492558
2.98662 -0.891431 1.44335
2.83849 -0.848368 1.12907
0.936177 -0.241587 -3.02798
2.99558 -0.894853 1.45857
3.00467 -0.893152 1.43321
2.99401 -0.894615 1.41835
1.38391 -0.3644 -2.25768
1.43066 -0.381557 -2.17484
1.4346 -0.369909 -2.23249
2.32693 -0.661073 -0.371995
1.8885 -0.486285 -1.54103
1.35415 -0.309709 -2.755
2.1635 -0.59751 -0.955235
1.97862 -0.457616 -1.94566
2.8627 -0.754211 0.0356887
1.97167 -0.437933 -2.2269
2.72667 -0.691757 -0.533259
1.87271 -0.388177 -2.84115
2.26366 -0.482261 -2.27835
3.27119 -1.69471 1.11095
3.17211 -1.69681 0.869313
3.16706 -1.70982 -0.0374403
2.74165 -1.50519 -1.66358
0.563608 1.67536 2.34021
0.570899 1.66291 2.35927
0.629342 1.59219 2.35771
0.501379 1.68575 2.01983
0.631567 1.57822 2.3374
-1.41979 0.583515 2.06888
-1.38234 0.575343 2.06771
-5.07412 0.587424 -2.36092
-2.39563 0.21837 0.906746
-1.81567 0.298824 1.24235
-2.57623 0.338237 0.426202
-1.69966 0.274007 1.36101
-1.67436 0.266732 1.31037
-1.68945 0.279984 1.19591
-2.91687 0.856729 -1.19462
-5.04539 0.628441 -2.87879
-1.45757 0.276482 1.30053
-4.62394 0.527925 -2.46716
-0.7712 0.406603 1.58522
-1.8774 0.415059 0.361432
-2.25943 0.743738 -0.698512
-1.06194 0.486079 0.947736
-4.33696 0.504412 -2.44864
-1.02148 0.444889 1.01173
-2.13255 0.741104 -0.700962
-1.11677 0.464761 0.839479
-2.13723 0.674506 -0.607599
-1.0151 0.42505 0.950572
-1.95537 0.648044 -0.460149
-1.06034 0.434602 0.867703
-1.05639 0.412594 0.868795
-1.98775 0.64292 -0.560616
-2.00519 0.731753 -0.760386
-0.47824 0.367438 1.51822
-2.00557 0.733199 -0.789649
-4.10569 0.427287 -2.35038
-1.97392 0.703886 -0.791621
-3.8761 0.400307 -2.15719
-2.03364 0.574843 -0.635711
-3.8864 0.401367 -2.24973
-1.02774 0.336232 0.854822
-1.00552 0.312776 0.894286
-1.21069 0.374124 0.5327
-1.8454 0.445535 -0.290911
-0.839872 0.31204 0.987621
-0.820073 0.268236 0.969668
-0.149113 0.323841 1.42535
-2.3978 0.80762 -1.97135
-0.616417 0.137792 1.07907
0.766723 0.178877 2.28132
-0.482169 0.130662 0.901597
-0.848006 0.283023 0.110719
-0.704445 0.214492 0.412094
-0.548014 0.165408 0.628884
-0.535662 0.166851 0.614609
-2.07386 0.704155 -2.17472
-3.07299 0.318157 -2.65929
-1.07445 0.531885 -0.818305
-3.05602 0.311247 -2.69366
-3.02346 0.298629 -2.69957
-1.01402 0.556333 -0.890462
-0.990906 0.591379 -0.966231
-0.90334 0.588914 -1.07972
-2.90206 0.284373 -2.85881
1.37702 0.136766 2.38457
-0.269759 -0.0883855 0.855048
0.666372 0.220657 1.37238
-0.973035 0.545575 -1.37632
-0.855927 0.417692 -1.01416
-0.861072 0.431335 -1.04778
-0.854235 0.408857 -1.05604
-2.30665 0.314118 -2.7486
-2.19621 0.33675 -2.74074
0.876964 0.199869 1.22883
-0.297449 -0.0261575 0.194684
0.0160616 -0.136722 0.754046
1.25496 0.119484 1.76862
-0.480553 0.0538853 -0.34476
0.0288148 -0.0852366 0.525143
0.0224986 -0.074567 0.442763
0.00646023 -0.0636531 0.404356
-0.0246019 -0.0707574 0.365636
0.0296584 -0.0865702 0.421446
-1.85939 0.312129 -2.81687
0.155942 -0.135744 0.524932
-1.86164 0.286798 -2.80695
0.186574 -0.130816 0.479443
-0.252191 0.453009 -1.14288
0.417858 -0.196071 0.770071
-0.208564 0.390489 -1.21016
-1.79011 0.174682 -2.89164
-0.184581 0.381918 -1.20849
0.776905 -0.0616569 0.699412
-1.49659 0.0813216 -2.61788
0.868004 -0.0625138 0.681847
1.21532 -0.241048 1.10966
-0.677962 -0.0804226 -1.99721
-0.0884878 -0.243402 -1.33211
0.851617 -0.509537 0.373903
1.54597 -0.705255 1.66282
1.21079 -0.629719 1.0522
0.0148671 -0.238764 -1.36692
0.167629 -0.286368 -1.11644
1.56311 -0.713563 1.50813
1.02833 -0.537583 0.363353
0.0722227 -0.222985 -1.5995
1.80928 -0.767454 1.83412
1.79846 -0.766987 1.80647
0.1759 -0.180794 -1.56756
1.87163 -0.76385 1.83126
1.4739 -0.657454 1.05753
1.67173 -0.727788 1.45777
1.84015 -0.768686 1.75119
0.6686 -0.384927 -0.610008
1.50532 -0.655873 1.02471
1.48723 -0.659814 1.00209
1.9132 -0.777695 1.82483
-0.310275 -0.0861992 -2.60941
1.91513 -0.77162 1.79778
0.208527 -0.257157 -1.57412
-0.241608 -0.109105 -2.6042
1.77015 -0.72443 1.37014
1.78896 -0.732827 1.36831
1.27381 -0.563923 0.226389
0.0348649 -0.153303 -2.35
0.00751879 -0.152103 -2.39005
0.146147 -0.217639 -2.08404
1.29383 -0.575094 0.215508
1.89955 -0.725959 1.3337
1.27112 -0.531942 -0.0187448
2.15443 -0.794709 1.712
0.128026 -0.140484 -2.62643
1.32632 -0.521025 -0.264965
1.83411 -0.635971 0.668736
2.11196 -0.76122 1.29258
1.68683 -0.626511 0.403889
2.31092 -0.83159 1.68986
2.17036 -0.794737 1.37147
0.769245 -0.361939 -1.5045
0.167565 -0.134414 -2.81836
1.80652 -0.64534 0.471368
0.536448 -0.254111 -2.1681
0.309993 -0.155758 -2.67561
0.759395 -0.317338 -1.72612
0.304345 -0.175254 -2.71803
0.560744 -0.266678 -2.17696
0.879653 -0.355835 -1.58456
1.48383 -0.52517 -0.404312
0.647933 -0.276653 -2.20244
2.16191 -0.737746 0.916597
0.424546 -0.177674 -2.79774
0.366364 -0.154352 -2.92371
1.13634 -0.409583 -1.30175
0.608502 -0.233256 -2.45283
2.52186 -0.827546 1.53881
2.54213 -0.829794 1.52792
0.819425 -0.311267 -2.06398
1.90212 -0.644078 0.12853
2.1943 -0.713839 0.68983
2.36836 -0.780001 1.06941
2.64918 -0.856789 1.63425
2.40839 -0.788082 1.07271
1.59291 -0.529477 -0.760426
2.46428 -0.79071 1.04949
1.09497 -0.372319 -1.83728
1.11832 -0.379839 -1.84256
2.09814 -0.656105 0.165126
0.808394 -0.269852 -2.56352
0.796837 -0.255733 -2.60484
2.43019 -0.771045 0.790086
0.786396 -0.232805 -2.82435
0.830092 -0.237312 -2.77536
1.33815 -0.416341 -1.71468
1.28827 -0.373127 -1.96822
1.32881 -0.375178 -1.91192
3.32846 -0.819686 1.87358
3.01591 -0.892487 1.44748
2.67988 -0.793892 0.719435
2.45932 -0.705064 0.121803
3.33188 -0.802175 1.7227
2.26183 -0.645016 -0.375558
1.36121 -0.336348 -2.4833
2.53086 -0.712754 0.105827
1.76824 -0.4671 -1.65241
1.30492 -0.319605 -2.73252
1.33426 -0.315653 -2.73126
1.26654 -0.287048 -2.93904
3.42987 -0.820702 1.62045
3.11659 -0.87467 1.14116
2.30475 -0.621816 -0.659217
1.87229 -0.467736 -1.76505
2.83465 -0.764449 0.210526
2.90745 -0.78202 0.274685
2.74921 -0.722114 -0.152088
2.77085 -0.72328 -0.16121
1.73521 -0.380962 -2.57233
1.88762 -0.422284 -2.35976
3.23774 -1.73156 -0.0304726
3.2482 -1.74673 -0.0342089
3.23985 -1.74151 -0.0577407
0.699164 1.48031 2.285
0.768963 1.19188 2.04341
-1.14204 0.441154 1.80093
0.728809 1.17713 1.92127
-1.87704 0.330359 0.975199
-1.8784 0.337298 0.913434
-1.84678 0.320131 0.959823
-1.84794 0.318703 0.910301
-1.93241 0.415668 0.385875
-1.84449 0.355019 0.564582
-1.0493 0.465436 0.989423
-1.12715 0.480224 0.873266
-1.8166 0.384223 0.36106
-0.507047 0.360001 1.6581
-1.07241 0.456372 0.877741
-0.992384 0.430081 0.99286
-2.11619 0.705695 -0.698045
-2.10611 0.723438 -0.816424
-0.0275517 0.309836 1.51244
-0.00592967 0.307115 1.37611
-3.66253 0.418749 -2.88593
0.812522 0.210133 2.3023
-0.8013 0.221444 0.458763
-3.39784 0.368909 -2.75224
0.628794 0.37451 1.69861
-0.872876 0.258217 0.190663
-1.68665 0.758448 -1.69966
-0.645307 0.198186 0.52083
-1.09959 0.331044 -0.223153
-1.64792 0.755193 -1.716
0.740833 0.157863 2.09944
-0.813758 0.269136 0.126017
0.641713 0.315543 1.61157
0.644297 0.327247 1.5763
0.802842 0.176085 2.02983
-3.0854 0.334245 -2.73766
-1.0856 0.591534 -0.965999
0.855153 0.144726 2.099
0.852805 0.157638 2.06288
-0.610031 0.37355 -0.174709
-1.13276 0.775493 -1.56315
-0.813397 0.498422 -0.734896
1.38166 0.142547 2.3502
-0.163204 -0.115847 0.889019
-0.862094 0.444485 -1.08015
-0.923565 0.449739 -1.29708
-1.3086 0.687639 -2.21172
-1.19579 0.530984 -1.94784
1.31311 0.0949875 1.92944
-0.825981 0.631842 -1.68804
-2.18979 0.320478 -2.81933
-0.215888 -0.03854 0.186719
-1.18225 0.550145 -2.10184
-0.187557 -0.0388437 0.160614
-1.0169 0.567253 -2.02449
-2.01236 0.31065 -2.80638
0.043204 -0.0959132 0.494436
0.0390834 -0.0960495 0.45367
0.00905451 -0.0803501 0.389397
-1.95726 0.30091 -2.81333
-1.95826 0.263289 -2.76103
-1.83207 0.273823 -2.82396
-0.33747 0.247689 -0.899503
-0.238092 0.226173 -0.916481
0.687873 0.180261 -0.127115
1.60946 -0.615964 2.08028
-0.678079 -0.0780014 -2.03018
1.63116 -0.620804 2.05874
-0.288521 -0.195937 -1.47358
-0.777451 -0.0100522 -2.69316
1.17045 -0.589738 0.976162
1.56819 -0.708642 1.57616
-0.249748 -0.150362 -2.06224
1.34504 -0.617269 0.991856
1.49989 -0.67194 1.23527
-0.347377 -0.0917933 -2.43996
0.837613 -0.44969 -0.278902
1.83716 -0.746352 1.68367
1.01088 -0.488889 -0.0387762
1.03762 -0.499112 -0.0494075
1.76588 -0.738787 1.41174
-0.202185 -0.11486 -2.59643
1.59412 -0.66323 0.9586
1.58502 -0.659387 0.926664
0.602271 -0.358049 -1.13067
0.270601 -0.239326 -1.88648
-0.060675 -0.137736 -2.62057
2.13996 -0.798166 1.68892
1.86321 -0.714553 1.10966
2.20581 -0.802368 1.72762
2.18443 -0.802975 1.70088
2.13229 -0.772324 1.54719
1.55589 -0.610153 0.362077
1.85725 -0.643734 0.670822
0.774658 -0.332626 -1.61887
1.52179 -0.546841 -0.285407
2.17908 -0.732678 0.988924
2.17474 -0.728513 0.946114
2.54128 -0.84033 1.68491
2.20921 -0.737329 0.971039
0.670732 -0.27336 -2.21897
2.55029 -0.850116 1.628
0.803885 -0.300279 -2.04632
0.931223 -0.334547 -1.82178
2.42896 -0.809977 1.25159
2.35691 -0.785927 1.04906
3.04648 -0.795021 1.92974
1.72052 -0.541516 -0.69714
3.02139 -0.771836 1.78683
0.972816 -0.277323 -2.38715
1.73693 -0.539338 -0.836397
0.842748 -0.237271 -2.79743
2.35539 -0.717853 0.449868
1.06979 -0.319796 -2.34102
0.860234 -0.21964 -2.9879
1.18477 -0.322418 -2.31423
2.96436 -0.882775 1.37949
2.77851 -0.826075 0.97155
1.42939 -0.392269 -2.00647
2.40911 -0.70491 0.0836021
2.22552 -0.64397 -0.332812
3.30847 -0.799438 1.70847
2.42193 -0.705984 -0.00393698
1.97234 -0.548698 -1.1232
1.28082 -0.285607 -2.96296
2.11547 -0.553869 -1.14813
1.84116 -0.384203 -2.82978
2.22066 -0.474373 -2.24782
2.48193 -1.16258 -1.82874
0.67955 1.49569 2.25518
0.771653 1.38604 2.23668
0.736432 1.41761 2.07812
0.797438 1.15195 2.19792
-2.85337 0.652746 -0.441767
-1.85767 0.318981 1.02163
-0.750538 0.395149 1.54891
-4.17266 0.454325 -2.22329
-1.0591 0.433966 0.91344
-0.52453 0.374038 1.53639
-0.55597 0.300797 1.38711
-1.22567 0.377544 0.501306
-0.76383 0.173159 1.06162
-0.64959 0.140215 1.08811
0.80916 0.251005 2.40249
0.117584 0.284875 1.50747
-0.599376 0.151965 0.933075
0.89131 0.205003 2.45049
0.0973246 0.297119 1.38623
-1.74563 0.823531 -1.67486
0.93488 0.200352 2.44778
-0.718628 0.175969 0.640409
-2.08025 0.742078 -2.11425
-0.712529 0.206936 0.429592
-0.614206 0.175528 0.556916
-0.754329 0.214326 0.317477
-1.20859 0.640676 -1.03454
-1.31789 0.80469 -1.50943
-0.720509 0.204248 0.288645
-1.1269 0.612881 -0.961836
0.834689 0.179751 1.83006
0.820517 0.189746 1.7397
-0.869347 0.508392 -0.875544
-0.845671 0.573254 -1.00314
-1.56286 0.600991 -2.04233
-0.882885 0.388551 -0.981413
-1.36325 0.584762 -2.01514
-0.607743 0.050348 -0.213494
-0.821795 0.650757 -1.71751
-2.01113 0.275125 -2.69622
0.0695866 -0.115959 0.482023
1.05723 0.186143 1.15313
0.350824 -0.13445 0.587148
-0.206896 0.418478 -1.13784
0.761949 0.21499 -0.054191
0.787488 0.19006 -0.0577053
-1.23299 0.0536548 -2.68829
0.851718 -0.0220383 0.199992
0.853829 -0.0953085 0.17696
1.61861 -0.62665 2.11618
0.013216 -0.286296 -0.696725
0.925241 -0.513477 0.592405
-0.538942 -0.0549984 -2.51645
-0.258958 -0.15053 -1.99267
1.73826 -0.7183 1.61108
1.84015 -0.757386 1.79896
1.78255 -0.739517 1.62972
1.77617 -0.73004 1.59652
0.991273 -0.488341 0.0606918
0.955627 -0.506178 0.00891872
1.57849 -0.664349 1.16777
0.284919 -0.28416 -1.39176
1.8295 -0.736117 1.59704
1.0159 -0.500092 -0.000816852
1.06222 -0.497429 -0.0158493
1.79542 -0.741084 1.40233
1.62199 -0.681814 0.949201
-0.164182 -0.111589 -2.68138
2.12228 -0.791123 1.77234
1.32696 -0.524693 -0.139204
1.3066 -0.51563 -0.232382
1.31936 -0.509698 -0.375432
0.335153 -0.198959 -2.51039
1.53574 -0.567432 -0.149844
1.34325 -0.494621 -0.770735
2.56091 -0.845323 1.6726
2.32662 -0.791311 1.09993
0.667038 -0.25165 -2.51172
1.03939 -0.352785 -1.88164
1.63605 -0.524486 -0.761684
1.81669 -0.571654 -0.564424
3.09743 -0.776164 1.78282
3.07765 -0.776949 1.74857
2.87152 -0.881222 1.55281
3.13613 -0.77849 1.78712
0.996386 -0.258462 -2.91772
2.23372 -0.641729 -0.301821
2.25612 -0.637114 -0.416251
1.9509 -0.532199 -1.10582
2.28096 -0.633664 -0.495936
1.71561 -0.455729 -1.74595
3.58139 -2.09461 1.67516
0.42819 1.80734 2.12315
0.716272 1.45892 2.28333
0.698006 1.46572 2.24553
-0.992595 0.4563 1.6529
-1.11976 0.470782 0.91522
-1.76672 0.400242 -0.077622
0.826945 0.169115 1.89325
0.761416 0.210794 1.28497
1.29411 0.137045 1.62515
1.14128 0.163668 1.04849
0.375024 -0.164266 0.637884
1.23822 -0.000743728 1.04358
0.944916 -0.0836921 0.746782
-1.38186 0.0862392 -2.87165
1.57612 -0.597155 2.08311
-0.814258 -0.000711423 -2.65927
1.51979 -0.715545 1.75256
1.53973 -0.699489 1.60924
0.558388 -0.37566 -0.530849
1.76774 -0.748386 1.73194
1.65102 -0.712084 1.5019
1.52578 -0.673916 1.19388
1.6983 -0.720278 1.48672
1.5343 -0.655453 1.08475
-0.258466 -0.0902569 -2.65547
1.09664 -0.498896 -0.064168
1.18478 -0.524036 0.0241678
1.82948 -0.718673 1.21853
1.22288 -0.519167 -0.033928
1.6253 -0.637399 0.726157
1.28166 -0.504835 -0.347079
1.38688 -0.531031 -0.44856
1.294 -0.493012 -0.746649
0.703153 -0.24543 -2.45061
1.10141 -0.361483 -1.90615
3.04859 -0.775293 1.77183
2.83981 -0.84557 1.15197
3.3075 -0.819669 1.85712
3.34526 -0.803131 1.68917
3.3783 -0.810268 1.6764
1.94417 -0.508619 -1.53777
0.571808 1.67711 2.36152
-0.158817 0.331372 1.42629
-0.0286534 0.309192 1.48123
0.677661 0.349355 2.13263
0.0500966 0.299194 1.46837
0.575971 0.224271 1.24342
-1.61469 0.600152 -2.18976
-0.611166 0.0449741 -0.408046
-1.05877 0.505172 -1.99375
-0.207632 0.323884 -1.09315
0.859458 -0.125951 0.155411
1.5148 -0.713811 1.6091
1.64194 -0.645831 0.790017
2.11886 -0.726382 0.923339
0.383479 -0.182662 -2.68433
2.16437 -0.733454 0.915422
2.39372 -0.792701 1.19761
1.65027 -0.439012 -1.73903
2.85792 -0.791369 -0.163327
0.448455 1.84262 2.3864
0.608417 1.62415 2.37038
0.770799 1.41277 2.25301
-2.757 0.588089 -0.336974
-1.98694 0.534636 -0.353989
-2.0061 0.712814 -0.706694
-1.42879 0.353256 0.0151467
-1.37875 0.351792 0.184227
-1.2521 0.440242 -0.490406
0.509637 0.23996 1.3375
-0.859255 0.371398 -1.17576
-0.676834 0.352134 -1.20189
0.842626 0.125987 -0.110093
0.323124 -0.184232 -2.62181
3.24424 -0.798598 1.87588
3.30044 -0.79846 1.68653
2.21983 -0.631015 -0.536349
1.32976 -0.30594 -2.8809
2.64252 -0.702854 -1.06547
-1.31203 0.325711 0.376757
-1.31971 0.262157 0.261763
-1.20546 0.23393 0.365581
-1.76161 0.806085 -1.77212
-0.997521 0.308858 -0.234725
-0.841559 0.406554 -0.622433
-0.774669 0.349965 -0.65488
-0.99043 0.595177 -1.38732
1.52621 -0.699432 1.51441
0.495508 -0.181101 -2.95981
3.17202 -0.80556 1.93812
3.39424 -0.813257 1.77724
3.46798 -1.36201 1.5342
-1.4653 0.283886 0.694364
-0.914022 0.235508 0.890897
-1.16592 0.248388 0.625943
-0.897764 0.584919 -0.70084
-0.0922447 -0.00342014 0.407609
-0.375559 0.0344279 -0.224458
-0.266799 0.277699 -1.08176
0.782611 -0.262119 -2.42731
3.136 -0.794948 1.8486
-0.781258 0.246022 1.01122
-1.21501 0.272556 0.0727402
-1.05217 0.55251 -0.918721
0.713294 0.0179983 0.0972791
-0.587193 -0.0923604 -2.03302
1.3687 -0.648791 1.54171
1.44961 -0.712469 1.69199
1.87713 -0.659874 0.63101
0.277478 0.0668279 -0.227498
-0.597696 -0.140093 -1.83539
1.29238 -0.548932 1.43553
-2.54106 0.874058 -0.828423
0.836621 -0.36802 0.0908432
-1.23923 0.4182 -2.14489
-0.134759 2.1782 3.00311
-0.51773 2.06115 2.52113
-0.156121 2.03387 2.26669
-0.0220026 2.01527 2.17812
0.551048 1.66637 2.23191
0.533217 1.66894 2.13762
2.32809 0.439475 2.25383
0.727253 0.786391 2.12583
0.689155 0.707074 2.02687
0.69138 0.746906 1.99638
1.62103 0.119923 2.16194
2.47146 -0.112997 2.16944
0.922399 0.160512 1.99714
0.876853 0.160953 1.97956
-1.28559 0.472904 1.83501
-1.16151 0.444 1.82761
-1.14231 0.450744 1.73999
-0.594815 0.378291 1.6914
-0.6233 0.382539 1.68743
3.27181 -0.791982 1.94077
-0.072074 0.312356 1.54363
1.53505 -0.71458 1.73481
0.446657 0.244966 1.41205
1.50188 -0.706106 1.72448
0.201241 0.286128 1.35699
-1.77047 0.292597 1.19793
-1.72235 0.288605 1.18507
2.29916 -0.823493 1.66615
1.36815 -0.671542 1.53312
1.53049 -0.704831 1.52977
1.54193 -0.70972 1.52556
1.50729 -0.694543 1.50972
1.54344 -0.707856 1.48492
-1.05417 0.461098 1.0039
-1.07835 0.494876 0.981491
-1.08429 0.496003 0.929154
-1.10224 0.514427 0.925631
-0.821441 0.242115 1.01429
-0.810036 0.304678 0.996507
-0.891219 0.314339 0.986606
1.74662 -0.732091 1.4305
-0.799666 0.223342 0.986558
1.20356 0.164503 1.07807
-0.661384 0.154208 0.932625
-0.620751 0.153215 0.909096
1.46132 -0.667552 1.26233
1.2092 -0.442455 1.18419
1.47742 -0.674986 1.25904
1.45626 -0.66557 1.25185
3.19176 -0.917485 1.44753
1.52823 -0.682362 1.24421
2.20074 -0.773544 1.31044
-1.88546 0.357877 0.687762
1.8678 -0.7146 1.25817
-1.86659 0.358263 0.671326
-1.19853 0.203299 0.732887
-1.19915 0.18047 0.698147
-1.2296 0.234111 0.667679
1.42944 -0.644831 1.10965
-1.19097 0.185161 0.634608
-1.18374 0.172536 0.623049
-1.18207 0.161452 0.607113
1.38123 -0.63823 1.04645
-1.24955 0.391046 0.536077
-1.17836 0.151601 0.593655
-1.18068 0.142974 0.57953
-1.13502 0.272342 0.494177
-1.36571 0.415497 0.433485
-1.12519 0.271226 0.481387
-1.37863 0.415673 0.403976
2.87152 -0.849012 1.1511
-0.363386 -0.0565752 0.615957
-1.12823 0.250157 0.456733
1.57297 -0.648624 0.958904
0.864016 -0.0747705 0.725957
2.83111 -0.850982 1.11974
-1.37933 0.297222 0.376433
-1.18149 0.261089 0.402742
-1.15924 0.235587 0.381035
-1.55849 0.348307 0.289312
-0.734898 0.218458 0.40248
-0.0863634 0.0424292 0.5134
-0.674929 0.206873 0.404077
1.93682 -0.719151 0.913024
1.57701 -0.658749 0.84556
-1.55665 0.321862 0.248207
1.95734 -0.720803 0.902492
-0.627258 0.201998 0.378325
1.56469 -0.653425 0.790633
1.8916 -0.657251 0.81717
1.40469 -0.623519 0.718337
1.35772 -0.611442 0.70723
1.4881 -0.622674 0.711322
-1.59421 0.31559 0.0969853
1.87441 -0.648522 0.741811
1.86677 -0.644699 0.695762
1.86047 -0.640406 0.673885
2.5029 -0.780449 0.773767
1.17322 -0.567121 0.52211
1.18477 -0.56866 0.504698
0.855507 -0.51578 0.349079
1.6209 -0.613987 0.483683
1.73001 -0.630093 0.464577
-1.93179 0.601415 -0.456806
-1.33034 0.369025 -0.373139
2.372 -0.719011 0.443856
-1.61129 0.42591 -0.517101
2.17966 -0.673952 0.34328
1.54112 -0.600681 0.216751
-1.73617 0.454528 -0.587769
-1.76204 0.461354 -0.607336
-4.10198 0.340192 -1.00896
1.52519 -0.585554 0.177029
-2.02457 0.722173 -0.738778
1.58428 -0.598741 0.169719
-1.98535 0.717075 -0.75724
-1.99144 0.723182 -0.79737
-3.81743 0.288438 -1.10919
1.17343 -0.514792 -0.0347506
2.48869 -0.720502 0.247254
2.22481 -0.678343 0.168605
2.43801 -0.733108 0.197975
2.47955 -0.733572 0.183744
1.43133 -0.555784 -0.0957247
-0.782318 0.463907 -0.738601
2.75597 -0.752838 0.193485
1.48873 -0.56169 -0.114683
-2.11427 0.717385 -1.09134
1.20457 -0.50644 -0.196692
0.972537 -0.462573 -0.265347
0.234807 -0.343978 -0.446187
0.258436 -0.349276 -0.447743
-1.13659 0.607733 -0.919749
1.73736 -0.591436 -0.121322
-1.03974 0.596721 -0.998813
1.92768 -0.614917 -0.146633
-1.00203 0.601118 -1.00042
1.95653 -0.617246 -0.163431
-0.962357 0.581614 -1.02388
1.09636 -0.475405 -0.392951
2.45335 -0.688891 -0.055152
-0.848937 0.573307 -1.04033
1.21894 -0.505057 -0.403955
-0.85074 0.581235 -1.06663
-0.860121 0.578611 -1.0841
-0.857381 0.601167 -1.09217
2.56382 -0.705551 -0.101459
0.748181 -0.421438 -0.592342
2.58965 -0.704596 -0.122746
0.418223 -0.348547 -0.796241
0.44454 -0.353229 -0.825222
-4.89988 0.565431 -2.34435
2.79052 -0.721626 -0.225962
2.30249 -0.654099 -0.383159
0.0989786 -0.271071 -1.01469
0.118312 -0.279976 -1.01236
-5.17562 0.635141 -2.52261
-3.54504 0.342851 -2.10378
1.38305 -0.504469 -0.743814
2.36189 -0.642047 -0.469526
1.56382 -0.522798 -0.740311
0.00262756 -0.240678 -1.20485
0.51043 -0.33878 -1.11291
0.554348 -0.339863 -1.15207
-3.77211 0.415002 -2.49042
-4.95586 0.611608 -2.88369
0.644173 -0.353058 -1.16974
-3.29056 0.338272 -2.44048
-3.48423 0.363085 -2.53932
1.80634 -0.530603 -0.915433
0.926476 -0.396944 -1.21447
-0.0391959 -0.216354 -1.56665
-3.50665 0.397881 -2.68682
-3.45149 0.367457 -2.698
1.07139 -0.418151 -1.26619
0.0456008 -0.213658 -1.63474
-0.030719 -0.220928 -1.66726
-3.70515 0.431983 -2.92446
