2.13694 -0.77191 1.49988
1.00997 -0.459575 -0.643862
0.127993 -0.22128 -2.09039
2.55754 -0.848487 1.68128
2.44453 -0.807303 1.42604
2.53989 -0.851686 1.63619
2.35763 -0.789218 1.22708
0.773018 -0.347134 -1.50683
1.04291 -0.406037 -1.17858
2.35008 -0.711775 0.448135
0.799495 -0.264947 -2.57229
0.844233 -0.235044 -2.78729
0.84248 -0.237691 -2.83847
1.99107 -0.57003 -0.906765
1.42725 -0.371611 -2.15223
2.82489 -0.759387 0.208311
3.25974 -1.64084 0.901074
2.74483 -1.53202 -1.64913
-1.70214 0.314436 0.889708
-0.763951 0.385235 1.55639
-0.5423 0.268143 1.38513
-0.173826 0.307365 1.59017
-1.2219 0.235108 0.381091
-0.682121 0.158673 0.962169
0.805601 0.194666 2.28733
-0.511189 0.13556 0.927703
0.828066 0.168927 2.09776
0.82091 0.158715 2.05087
0.899523 0.155949 2.09936
0.686324 0.205027 1.3626
-0.208183 -0.027488 0.184151
-0.153156 -0.0442144 0.176777
-1.41898 0.595328 -2.03384
-2.02597 0.267838 -2.62088
1.64856 -0.725221 1.65821
1.36458 -0.622528 0.822473
1.80453 -0.736418 1.4069
0.99552 -0.492428 0.060789
1.2558 -0.538041 -0.051642
0.955961 -0.454264 -0.628665
0.48763 -0.184659 -2.80164
3.28031 -0.796979 1.87342
1.55788 -0.485668 -1.08554
1.4833 -0.480033 -1.25579
0.7019 1.44235 2.2471
-1.85622 0.382228 0.491816
-1.01635 0.312207 0.925435
-1.98839 0.538988 -0.378506
-0.779743 0.180911 1.075
-3.45978 0.338981 -2.25417
0.87211 0.173674 1.94754
0.846046 0.177323 1.87564
1.28706 0.116771 1.62512
-0.0548663 -0.273485 -0.722627
0.0408966 -0.293 -0.738961
1.59756 -0.719929 1.60893
-0.643552 -0.131318 -1.98409
1.76292 -0.745818 1.63825
1.69527 -0.719736 1.4754
1.45211 -0.650459 0.717363
1.05511 -0.500747 -0.02358
-0.333647 -0.121316 -2.34685
1.53975 -0.653834 0.671999
1.35136 -0.53527 -0.0996436
3.03524 -0.779563 1.77139
0.831167 -0.319843 -2.0167
1.80991 -0.553278 -0.616367
1.65299 -0.441539 -1.74338
1.72495 -0.428796 -1.68333
-1.10797 0.47776 0.929779
-1.35554 0.302501 -0.191202
0.896747 0.15675 1.94773
1.07583 0.120486 2.07194
0.594171 0.212376 1.32999
-1.61037 0.601041 -2.18933
-1.51503 0.573325 -2.11319
0.335616 -0.155556 0.640175
-1.81705 0.146903 -2.75039
0.695659 -0.0215535 0.207082
-1.35513 0.0718228 -2.5217
1.1949 -0.588563 0.801802
0.489448 -0.37952 -0.511444
1.6837 -0.65592 0.902336
1.52855 -0.609225 0.3856
1.02689 -0.441607 -0.530266
1.27939 -0.50566 -0.323614
2.12173 -0.729525 0.909653
3.237 -0.782315 1.74938
3.45733 -0.83651 1.85538
-2.65028 0.427979 0.071485
-1.35604 0.401495 0.385083
-0.0296662 0.297296 1.47799
0.705652 0.220318 1.40227
0.904791 0.21428 1.22438
1.51563 -0.69702 1.5682
1.53259 -0.695658 1.52009
1.11221 -0.46936 -0.398338
1.74499 -0.481365 -1.65549
-1.20232 0.235158 0.360208
1.72908 -0.676588 0.864699
2.36003 -0.658981 -0.370701
1.33773 -0.29911 -2.86887
-1.99942 0.639944 -0.173574
-0.44981 0.373225 1.53692
-1.97415 0.555835 -0.478134
-0.882608 0.238698 0.895379
2.29542 -0.648394 -0.500275
-1.26391 0.339418 0.653264
-1.6112 0.352563 0.116454
-0.289286 0.169498 -0.601729
-0.482147 0.19847 -0.847898
-3.51656 0.214666 -0.137343
-0.86726 0.422432 -1.30357
0.265165 1.9966 2.52189
-0.121506 2.18499 3.01841
-1.15332 0.44804 1.75356
-0.956251 0.426077 1.64435
-1.03363 0.451803 1.56853
-1.71002 0.285661 1.37209
1.08914 0.149889 1.8663
-1.78803 0.286482 1.20742
-0.00781871 0.319413 1.54082
-0.298142 0.355871 1.46401
-1.75685 0.291619 1.19816
-1.16335 0.489834 0.873141
-2.56083 0.280939 0.617861
0.734682 0.214755 1.37308
-0.957284 0.32016 0.962234
-1.89528 0.331823 0.696137
-1.09942 0.425608 0.813172
0.749218 0.21842 1.29474
-0.735258 0.180364 0.941918
-0.652676 0.153833 0.934166
-0.685704 0.161331 0.944702
0.673986 0.240667 1.21221
2.3979 -0.70913 1.87331
-0.524267 0.13433 0.903749
1.09326 0.153783 1.2445
-0.512098 0.14304 0.874277
2.04008 -0.777506 1.75441
1.63655 -0.703808 1.6401
-1.1932 0.170559 0.650615
-1.19304 0.178881 0.623971
1.51638 -0.69579 1.50185
1.20259 0.141087 1.15807
1.54612 -0.715052 1.50212
1.21085 0.17352 1.09674
-0.540667 0.171012 0.648305
-0.118798 -0.10706 0.785694
1.74436 -0.72761 1.42731
1.36541 -0.653018 1.30684
-0.368366 -0.075289 0.631427
-0.74521 0.219613 0.411476
1.49713 -0.691159 1.26201
-0.615628 0.203344 0.388158
-0.052761 -0.0126134 0.550807
-1.48045 0.375456 0.0439051
-1.47053 0.387862 0.0379104
-1.42471 0.371554 0.0430373
-1.44239 0.407791 0.00790863
1.78422 -0.713036 1.22193
1.87163 -0.713595 1.26494
-0.829806 0.238368 0.207137
1.77155 -0.72204 1.22322
-3.96527 0.258841 -0.706107
2.03334 -0.723697 1.27962
1.37973 -0.626018 1.03338
2.11042 -0.750941 1.24098
0.888459 -0.0444938 0.668611
-0.701663 0.269043 0.0877331
-4.10294 0.36041 -1.00665
2.75646 -0.863351 1.36277
3.00185 -0.89458 1.40342
2.95522 -0.888192 1.3988
2.22553 -0.792526 1.08866
-2.0351 0.695193 -0.638098
2.57996 -0.826634 1.22929
2.80643 -0.848796 1.26643
-1.4983 0.320784 -0.389783
1.37169 -0.62061 0.731432
1.50795 -0.638542 0.743378
-1.18738 0.343644 -0.359647
-2.13884 0.698029 -0.738259
-3.71003 0.290591 -1.14794
1.49253 -0.602394 0.731071
-1.72748 0.453812 -0.603446
-1.99504 0.709782 -0.766247
1.52678 -0.624661 0.697632
1.07712 -0.56996 0.557367
-1.98638 0.731141 -0.791112
2.36029 -0.748567 1.00519
-2.02465 0.72387 -0.825292
2.83167 -0.857284 1.1173
1.87053 -0.640073 0.704252
2.89411 -0.844263 1.10796
1.86298 -0.627361 0.660587
2.97813 -0.86391 1.08045
-4.4918 0.480852 -1.76288
1.86968 -0.675955 0.598438
-0.352084 0.0481751 -0.342423
-1.85351 0.686472 -1.159
1.59114 -0.607111 0.323804
-4.43969 0.473801 -2.10612
-0.967485 0.57677 -1.02231
2.15864 -0.674272 0.365852
-4.68703 0.541184 -2.49272
2.04759 -0.636883 0.2273
2.0216 -0.634021 0.15948
2.0811 -0.648096 0.190808
0.482088 -0.383118 -0.529149
-3.75274 0.41901 -2.41575
2.50403 -0.714925 0.251236
1.32788 -0.512594 -0.281339
-3.42896 0.367673 -2.3454
-3.3601 0.340502 -2.38575
-3.34983 0.347904 -2.42573
0.0201603 -0.272446 -0.986162
-3.18933 0.324018 -2.4136
1.94123 -0.634679 -0.173969
1.23179 -0.481757 -0.511997
2.43843 -0.676237 -0.066169
-2.55176 0.238549 -2.5448
-1.03138 0.553655 -1.9835
2.28559 -0.643498 -0.363695
-0.118877 -0.201523 -1.54374
2.79644 -0.715297 -0.211633
0.912224 -0.37405 -1.18712
-1.2628 0.0357708 -2.3649
-0.353447 -0.139717 -1.92488
-1.26935 0.0230949 -2.37898
-0.351516 -0.13908 -1.93443
-0.778403 -0.0453356 -2.15608
-1.34492 0.052375 -2.51224
1.05783 -0.411447 -1.34515
2.75289 -0.697587 -0.494476
2.53087 -0.623132 -0.608448
2.71997 -0.689021 -0.533477
-0.968482 -0.00411594 -2.37907
1.05402 -0.405827 -1.36704
2.68989 -0.682448 -0.554583
-0.32381 -0.11524 -2.16268
-1.42693 0.0823058 -2.84042
-1.00052 -0.00318912 -2.68301
-0.934984 0.00526523 -2.71511
1.41497 -0.388302 -1.71182
-0.308777 -0.0906322 -2.66892
0.849944 -0.320892 -2.01999
2.51448 -0.612736 -1.12566
1.9682 -0.505193 -1.55942
0.363535 -0.196647 -2.48701
1.43505 -0.379458 -2.16456
1.44321 -0.405691 -2.16697
1.98399 -0.4368 -2.22547
1.8952 -0.389341 -2.84901
-0.177909 2.03101 2.44259
-1.67741 0.519399 1.82311
1.03154 0.142239 2.09767
1.01351 0.131955 2.04699
1.01098 0.129607 1.93164
-1.86337 0.289468 1.26344
-0.00951947 0.311521 1.55222
0.983173 0.166557 1.72627
-1.73452 0.307983 1.16132
-2.31066 0.200248 0.987497
-1.29293 0.407308 1.09998
-1.93597 0.339177 0.970518
-1.1998 0.547176 1.0133
-1.01099 0.446603 0.999493
-0.787851 0.218541 1.12642
-1.12596 0.504629 0.902524
-0.806002 0.289247 1.0055
-2.46844 0.258582 0.598899
-0.801604 0.180363 0.983307
-1.10734 0.400971 0.804383
-2.55855 0.351773 0.444709
1.93262 -0.772995 1.82572
1.36754 -0.675691 1.53243
-0.779182 0.197389 0.707172
1.40114 -0.683366 1.52578
1.57582 -0.714919 1.50788
1.10875 0.166137 1.09929
2.25628 -0.804645 1.69693
2.11781 -0.813241 1.64976
-0.406422 -0.0634841 0.666992
1.42526 -0.656975 1.25492
1.42711 -0.671777 1.2556
0.300357 -0.174542 0.795616
-0.603307 0.17054 0.416537
-0.593985 0.196272 0.382726
-0.558903 0.195154 0.400321
1.81422 -0.707644 1.25469
1.38537 -0.637253 1.11169
2.19319 -0.760595 1.37716
2.02378 -0.734307 1.27174
1.73395 -0.702733 1.19343
0.745285 -0.0480346 0.726611
1.33751 -0.607091 1.01603
0.788427 -0.0619315 0.692151
1.37568 -0.613589 1.01807
2.28966 -0.800585 1.31298
-0.748167 0.267001 0.0849193
2.13054 -0.776049 1.23457
-0.0380596 -0.0627074 0.344174
-4.05647 0.337523 -0.996399
2.96862 -0.870983 1.44779
2.97034 -0.890892 1.43419
-2.23598 0.69126 -0.584646
0.977917 -0.540638 0.697321
-2.2105 0.715025 -0.618006
2.17036 -0.750524 1.09911
1.41271 -0.630289 0.817462
1.56596 -0.655136 0.860968
-2.03327 0.64876 -0.634994
-0.175419 -0.0238295 0.101762
-3.7738 0.289332 -1.11771
-1.27949 0.367593 -0.371212
1.03245 -0.55106 0.567655
2.37665 -0.775328 1.04227
1.14741 -0.561664 0.506142
1.17127 -0.559228 0.506461
2.14255 -0.751712 0.874101
-1.99556 0.73112 -0.844874
-4.51855 0.459896 -1.8399
1.54796 -0.590687 0.496957
2.39028 -0.739302 0.797743
1.54657 -0.611274 0.365432
3.06306 -0.848469 0.931329
-1.08172 0.554737 -0.862333
2.65589 -0.792882 0.71351
-1.07315 0.593973 -0.922206
3.38332 -1.63689 1.13986
-0.893412 0.556435 -0.915755
3.29197 -1.67611 1.07575
-0.96691 0.581405 -0.998143
-0.868828 0.455775 -0.951289
1.5814 -0.580645 0.151332
1.15527 -0.496093 -0.0335
1.93449 -0.660384 0.311614
1.02005 -0.495011 -0.0903891
-0.949121 0.567427 -1.051
1.9519 -0.652269 0.258273
2.00434 -0.652111 0.27846
2.49333 -0.757689 0.471354
-4.36696 0.484425 -2.41709
0.875449 -0.45065 -0.283099
1.91158 -0.64537 0.141772
-0.0410765 -0.313673 -0.689902
1.68421 -0.59051 0.0343551
-3.86846 0.43675 -2.49235
-3.4957 0.357793 -2.34658
0.6425 -0.383656 -0.557121
2.25459 -0.679435 0.0650323
0.342382 -0.342567 -0.748739
-0.220091 0.456351 -1.17071
0.4084 -0.34832 -0.783819
1.95899 -0.616269 -0.149233
1.48871 -0.55397 -0.369773
-1.13513 0.801768 -1.70934
1.48082 -0.51903 -0.416374
-3.10081 0.302597 -2.45524
1.01456 -0.469441 -0.631898
1.86157 -0.599199 -0.299099
2.2563 -0.629354 -0.291177
2.32897 -0.655024 -0.349492
2.37957 -0.666984 -0.33517
2.36503 -0.665759 -0.36498
1.55555 -0.522466 -0.749725
-0.445824 -0.134077 -1.7272
-2.12194 0.287929 -2.65377
-0.954488 -0.025078 -2.24687
0.461789 -0.284476 -1.57415
-0.479055 -0.0984779 -2.13348
2.71253 -0.676936 -0.563526
2.62945 -0.672417 -0.706923
-1.10648 0.00788848 -2.86251
1.04098 -0.344021 -1.85831
1.82923 -0.501826 -1.45561
-0.161439 -0.118771 -2.54381
0.318356 -0.178531 -2.52665
1.88502 -0.476633 -1.65656
2.02263 -0.521539 -1.66678
0.0224087 -0.121734 -2.82211
0.303014 -0.184643 -2.70025
0.374043 -0.16885 -2.79536
0.444834 -0.19439 -2.79417
1.39409 -0.359132 -2.36679
1.96663 -0.428443 -2.24248
2.00425 -0.445337 -2.21725
1.88507 -0.435802 -2.38985
2.29527 -0.481722 -2.26072
0.434657 1.92859 2.55558
0.592571 1.65223 2.3649
0.411725 1.88044 2.21031
0.423319 1.81361 2.13777
1.3729 0.151724 2.37745
0.853006 0.171946 1.95336
-0.562129 0.379649 1.54955
0.747388 0.21089 1.81261
-0.436044 0.368872 1.51952
-1.51831 0.255473 1.21242
1.19272 0.135395 1.66917
-1.23523 0.36629 1.10962
-2.4155 0.258042 0.908198
-0.909559 0.328473 0.97034
-0.857133 0.317966 0.980044
1.8768 -0.766649 1.84085
1.74643 -0.75702 1.82571
1.74276 -0.74752 1.77083
1.63411 -0.722334 1.65324
-1.82143 0.371456 0.421268
1.84305 -0.733293 1.62525
2.11703 -0.792358 1.51494
2.47738 -0.835342 1.54365
2.54682 -0.833596 1.5237
1.74954 -0.704069 1.25156
1.37332 -0.633062 1.14696
1.20642 -0.632179 1.0346
1.69366 -0.689583 1.17951
1.65439 -0.650149 1.16405
-0.807908 0.285236 0.164092
-0.660127 0.244575 0.138588
1.50707 -0.664919 0.988044
1.4695 -0.641739 0.983576
-0.0177557 -0.0728785 0.378143
1.53504 -0.647736 0.996486
0.549268 -0.207093 0.513825
2.52788 -0.825445 1.25306
2.44735 -0.796723 1.19866
1.40963 -0.642089 0.856405
-1.57138 0.411255 -0.362286
-3.87712 0.306277 -1.07997
-3.68471 0.281736 -1.12243
-1.96965 0.727248 -0.711343
2.18094 -0.739173 0.966463
2.21364 -0.730765 0.966487
-0.140292 -0.0605109 0.033848
2.21312 -0.762068 0.939933
2.03718 -0.711828 0.846991
-2.58474 0.987133 -1.28198
2.96742 -0.843628 1.02914
0.744308 0.141157 0.0158682
2.94475 -0.847305 0.895721
1.73382 -0.635683 0.357735
-0.837345 0.495465 -0.782791
1.30922 -0.541207 0.151258
1.27745 -0.533528 0.134638
1.92178 -0.664325 0.243025
2.42427 -0.707009 0.392012
2.4481 -0.727155 0.398508
1.32117 -0.539167 -0.110937
1.8706 -0.644431 0.125703
2.07492 -0.669837 0.164935
2.66967 -0.757931 0.316792
2.06868 -0.651346 0.0386594
2.75281 -0.753329 0.334635
-1.80871 0.93552 -1.82722
1.3378 -0.521461 -0.328902
1.85823 -0.600234 -0.118806
-0.00625651 -0.288439 -0.973733
2.80576 -0.777373 0.250211
2.80883 -0.760171 0.222225
0.0419337 -0.245457 -1.01782
0.499415 -0.360348 -0.827049
0.687739 -0.374858 -0.75252
-3.00983 0.321247 -2.62953
0.0231921 -0.234651 -1.37981
0.329822 -0.299425 -1.25568
-0.0958877 -0.216109 -1.59467
1.71014 -0.54831 -0.835961
-0.132509 -0.177781 -1.86254
-1.49097 0.0779504 -2.61316
0.734727 -0.341017 -1.51926
0.770528 -0.376867 -1.54137
-0.421784 -0.101139 -2.25611
1.43298 -0.44625 -1.37571
2.62836 -0.639018 -0.833256
2.64448 -0.659833 -0.8697
2.11451 -0.558511 -1.15353
1.34158 -0.43239 -1.71218
1.12583 -0.368045 -1.83794
1.2724 -0.375202 -1.87045
1.75482 -0.465339 -1.63881
1.77577 -0.480202 -1.6673
1.29292 -0.367387 -1.97459
0.177511 -0.130429 -2.83035
1.07219 -0.302837 -2.32561
1.45142 -0.375505 -2.17372
-1.60952 0.249368 1.22943
1.20979 0.119345 1.78549
-2.57868 0.269589 0.561439
2.39149 -0.698793 1.90616
-1.86925 0.3841 0.438187
-0.274958 -0.098404 0.914876
1.5289 -0.700103 1.53563
1.77512 -0.725738 1.58261
-0.609578 0.181794 0.63639
-2.721 0.518414 -0.0461338
2.32906 -0.830826 1.65394
1.73592 -0.742075 1.44471
3.05186 -0.785101 1.77527
3.42839 -0.844131 1.89782
-1.6527 0.479754 0.0554553
-1.57458 0.303878 0.10422
-2.75159 0.571686 -0.310713
1.23247 -0.643704 1.08002
1.60491 -0.653213 1.127
0.750377 -0.0645856 0.692273
3.29333 -0.826569 1.62648
-0.725983 0.251751 0.129091
2.52705 -0.811723 1.36178
1.91559 -0.698764 1.11428
1.07954 -0.583392 0.813142
0.36607 -0.139936 0.447658
-0.252706 -0.0320258 0.233785
-0.542614 0.0370244 0.0877547
1.20473 -0.561426 0.727976
-2.05483 0.67179 -0.634679
-3.82613 0.292474 -1.09979
1.32389 -0.582382 0.666484
-2.96543 0.417527 -1.03976
2.24853 -0.733549 0.900473
1.57074 -0.64095 0.60008
1.63863 -0.619621 0.604274
1.54971 -0.626313 0.546771
1.8252 -0.662702 0.613515
1.79528 -0.629181 0.564914
1.2692 -0.553889 0.226169
-0.865543 0.509818 -0.894024
3.40949 -1.63863 1.07927
1.04289 -0.495947 -0.0428945
1.69386 -0.591476 0.138436
-0.139211 -0.272414 -0.664505
-3.90352 0.396894 -2.23903
1.79791 -0.628093 0.1013
1.42932 -0.563096 -0.134565
1.52268 -0.567967 -0.149994
0.69472 -0.39832 -0.590542
1.22886 -0.503558 -0.396537
-0.631293 0.370394 -1.33379
0.46196 -0.341109 -0.815183
1.00994 -0.461499 -0.609365
0.440326 -0.311734 -1.03119
-0.0845326 -0.236485 -1.35073
-0.0258664 -0.242658 -1.33581
2.22072 -0.61496 -0.350667
0.606602 -0.368695 -1.13779
0.971368 -0.429235 -0.957899
1.64342 -0.52246 -0.765491
-2.04043 0.317426 -2.66429
0.219948 -0.256861 -1.62052
-0.404755 -0.0794856 -2.43117
1.07379 -0.353587 -1.89611
-0.255109 -0.093581 -2.6945
0.650296 -0.258591 -2.18903
1.65087 -0.439563 -1.7322
1.3963 -0.388129 -2.18981
1.95972 -0.450271 -2.16901
1.01134 -0.251375 -2.95718
0.74437 0.195649 2.28404
0.913374 0.150861 1.93816
1.30977 0.102059 1.91683
0.669947 0.322511 1.62265
-1.81975 0.303351 1.02672
1.80165 -0.721308 1.62242
3.04171 -0.800411 1.88964
1.81749 -0.748669 1.57731
2.30644 -0.824995 1.6391
2.25219 -0.793931 1.58712
2.68653 -0.863054 1.59866
2.13595 -0.759354 1.40088
-0.46076 0.00293292 0.12324
1.63384 -0.694899 0.935496
2.59466 -0.839789 1.22656
1.70584 -0.670863 0.899224
-2.16082 0.760806 -0.783445
-0.582797 0.0576921 -0.299239
1.55314 -0.609998 0.568318
0.791921 0.16097 -0.0628259
-1.57945 0.659329 -1.18257
1.34412 -0.541117 -0.0977114
2.05797 -0.655734 0.133254
-0.946405 0.602286 -1.28113
1.31856 -0.52886 -0.180079
-2.44367 0.760519 -1.90374
-1.72206 0.788221 -1.65944
-3.67894 0.402348 -2.54949
2.38282 -0.694148 0.00104646
2.15769 -0.615106 -0.356808
-0.250677 -0.076026 -2.61992
0.495857 -0.197478 -2.83262
0.849472 0.19416 1.90617
1.43178 -0.671428 1.98484
-1.19469 0.497187 0.932604
0.69499 0.245194 1.31075
3.15303 -0.819654 1.93973
-0.788598 0.256071 0.184994
-1.7092 0.379795 -0.178094
-1.60317 0.394425 -0.423171
1.64248 -0.653277 0.791149
-0.27988 -0.025657 -0.0229645
-2.03283 0.544738 -0.715808
-1.62607 0.44434 -0.569601
-1.49949 0.47064 -0.691971
-1.24416 0.605568 -0.968888
-1.0858 0.577779 -0.920439
-0.185865 0.159209 -0.496881
1.01869 -0.498636 0.0595229
2.03378 -0.659945 0.410883
-0.908547 0.589998 -0.964495
1.16629 -0.499531 -0.085511
-1.37562 0.783273 -1.46572
1.92575 -0.64513 0.0370069
0.148941 -0.224879 -1.59458
2.18268 -0.452824 -2.29552
0.480182 0.239886 1.37536
0.710756 0.205155 1.39481
1.60402 -0.730928 1.80383
-1.21943 0.262458 0.776465
1.01651 0.180584 1.09508
3.43247 -0.823197 1.87999
0.0111139 -0.128758 0.647043
0.288974 -0.162456 0.665084
-0.0541573 -0.00399733 0.414196
1.51218 -0.646064 0.781632
1.83268 -0.628219 0.111393
-2.34487 0.773832 -1.8068
1.41581 -0.514032 -0.460018
-1.27612 0.340791 0.413471
-1.74504 0.32342 -0.122399
-1.49793 0.186079 -0.172001
0.680437 -0.0323725 0.224488
1.97528 -0.518456 -1.26926
0.326902 -0.190826 -2.64508
-1.10619 0.186041 0.358083
-2.16228 0.638077 -0.431335
-1.93623 0.581898 -0.431581
-0.577788 0.296198 -0.986241
-1.03989 0.536693 -1.39659
0.775698 0.227831 1.82459
-0.95892 0.30847 -0.252503
0.850966 -0.111542 0.28675
-0.557626 0.260281 -1.1023
-0.183131 -0.0861411 -0.80184
-1.21914 0.259712 -0.0966971
1.65804 -0.369479 -2.77596
1.3583 -0.33417 -2.70073
1.63282 -0.376496 -2.65601
-0.498539 -0.0535153 -2.5121
0.94794 -0.275917 -2.34695
0.857512 -0.269176 -2.3034
-0.443115 -0.092174 -2.26844
-1.05603 0.535438 -1.99146
-3.50235 0.317881 -2.11574
-0.0243558 -0.169105 -2.12893
0.542382 -0.25665 -2.15625
1.39081 -0.381786 -2.16442
-0.0675123 -0.196272 -1.98892
1.07479 -0.357016 -1.95561
-0.324551 -0.16243 -1.87896
1.0493 -0.341296 -1.92838
-3.90044 0.38344 -1.66102
-0.134371 -0.202118 -1.84179
1.03501 -0.339743 -1.86321
0.746503 -0.305594 -1.81622
-0.50179 -0.132782 -1.69826
1.90364 -0.467374 -1.80582
1.91213 -0.472561 -1.78684
0.493911 -0.280157 -1.69098
0.438902 -0.268807 -1.69082
1.61466 -0.403141 -1.74431
-0.243255 -0.17656 -1.62524
-0.287253 -0.180112 -1.61308
-0.0334256 -0.205936 -1.59447
-1.32706 0.59265 -1.29019
0.871446 -0.383218 -1.54198
0.749355 -0.352231 -1.49482
-3.70061 0.306402 -1.13584
2.05784 -0.50114 -1.55655
-3.7369 0.299292 -1.11935
-3.74962 0.292169 -1.12188
1.83861 -0.489649 -1.49893
1.08441 -0.410547 -1.33759
-1.14263 0.59775 -0.92934
0.0257558 -0.235382 -1.24685
1.12275 -0.379706 -1.32034
1.47722 -0.429069 -1.34286
-0.925339 0.555182 -0.921893
1.07483 -0.413362 -1.25787
1.02455 -0.396652 -1.22248
1.01888 -0.400839 -1.20941
0.797257 -0.384376 -1.18505
1.49841 -0.452677 -1.10964
2.54026 -0.616683 -1.06
-1.51014 0.414887 -0.440714
-1.41104 0.386727 -0.444675
-1.58017 0.414319 -0.340322
2.29511 -0.586029 -0.867361
2.24023 -0.589515 -0.883951
2.136 -0.582668 -0.829858
2.19646 -0.600606 -0.838109
0.779592 -0.425392 -0.601725
2.2184 -0.593094 -0.789524
1.73105 -0.539979 -0.70143
2.52102 -0.640921 -0.766717
1.22501 -0.495567 -0.50793
2.05965 -0.580542 -0.64684
-1.44338 0.3596 0.025229
2.6081 -0.667746 -0.579717
1.4651 -0.521941 -0.402258
1.24701 -0.498083 -0.240962
1.40898 -0.52038 -0.252731
1.02837 -0.485086 -0.112375
2.12975 -0.63858 -0.246743
1.46446 -0.568338 -0.114457
1.43558 -0.57228 -0.0882921
-0.453187 -0.0312049 0.398356
-0.1197 -0.0512397 0.335204
-1.20309 0.208193 0.670971
2.7602 -0.730501 -0.166481
2.47113 -0.680638 -0.086851
2.7908 -0.743475 -0.154348
1.72937 -0.588138 0.0875048
2.19578 -0.646308 -0.0117391
1.68935 -0.609282 0.126221
1.5895 -0.612495 0.15283
1.83018 -0.624486 0.122923
1.81703 -0.611282 0.117008
2.07865 -0.650353 0.0527109
1.09288 -0.552635 0.305067
2.05196 -0.654661 0.144621
2.12505 -0.666993 0.197978
-0.956847 0.328268 0.972281
-0.592845 0.171159 0.877942
0.753205 -0.0694409 0.650786
1.67206 -0.627533 0.374113
1.78041 -0.638992 0.388227
0.277004 -0.181388 0.785132
1.74855 -0.639011 0.446614
1.71759 -0.63012 0.450723
2.7825 -0.749346 0.237428
-0.608272 0.15305 1.06879
-0.532084 0.142182 1.04844
2.05165 -0.664661 0.502479
1.43382 -0.615096 0.696565
1.4873 -0.611856 0.720892
1.21099 -0.599596 0.780726
1.70663 -0.636956 0.696791
1.50701 -0.637983 0.761739
0.726037 0.0770636 1.02719
1.31978 -0.590558 0.854558
1.54893 -0.651062 0.822627
0.297049 0.282239 1.32888
1.563 -0.641314 0.952725
1.25914 -0.627091 1.02826
2.66194 -0.791863 0.70839
0.786872 0.201584 1.31014
-1.36765 0.479023 1.94739
1.53238 -0.673964 1.22343
2.52853 -0.768906 0.949614
2.49667 -0.766566 0.98569
1.7779 -0.709163 1.20356
2.41109 -0.799242 1.03699
1.84709 -0.711498 1.27825
2.80051 -0.843409 1.09859
1.66357 -0.716277 1.45538
2.7733 -0.831764 1.11913
1.57491 -0.718998 1.49837
1.73058 -0.753772 1.43277
2.49736 -0.814029 1.22335
1.00347 0.169319 1.84168
0.597504 1.61644 2.16068
1.91764 -0.753922 1.71321
0.718918 0.783605 2.11107
0.546478 1.65684 2.20259
0.555951 1.64777 2.26135
2.52243 -0.863973 1.62485
2.81311 -0.871638 1.52104
0.582667 1.63694 2.38892
2.76439 -0.857352 1.61312
1.81633 -0.63051 2.06253
2.39578 -0.708735 1.89505
1.81074 -0.364804 -3.07792
2.09293 -0.411165 -2.88636
-1.69053 0.117094 -2.73955
0.786171 -0.249964 -2.59101
0.913302 -0.282194 -2.60345
1.86343 -0.433976 -2.45865
0.621664 -0.243835 -2.46038
1.44711 -0.379599 -2.36774
-3.53521 0.362868 -2.28683
2.26655 -0.466004 -2.28422
1.1735 -0.323694 -2.20199
-0.329295 -0.12167 -2.13295
1.96246 -0.456558 -2.15232
-4.92995 0.533682 -1.96687
0.650574 -0.279176 -2.05453
-0.225996 -0.154073 -2.0257
1.3965 -0.378256 -2.04813
1.20312 -0.372977 -2.00902
0.0620939 -0.21785 -1.91671
-4.08355 0.395766 -1.6394
-0.182746 -0.166976 -1.82711
1.32359 -0.365548 -1.87286
-4.2645 0.383374 -1.61692
0.524001 -0.278349 -1.80614
1.07143 -0.356892 -1.80959
0.740527 -0.329032 -1.74758
0.739185 -0.324471 -1.67082
-0.088129 -0.192369 -1.57882
0.996265 -0.345925 -1.5845
0.201562 -0.29226 -1.35226
1.49519 -0.464736 -1.40529
-1.03704 0.582402 -0.969946
1.24368 -0.412047 -1.30394
0.576725 -0.333055 -1.15533
0.413026 -0.322419 -1.06433
0.0134166 -0.25129 -0.992652
1.41963 -0.465321 -1.04419
0.870846 -0.402045 -0.890727
-1.65464 0.400498 -0.318493
0.729433 -0.39236 -0.601629
-0.323471 0.0396792 -0.347783
1.68411 -0.563873 -0.520058
1.31411 -0.539804 -0.423734
-0.683714 0.247577 0.0664036
1.32406 -0.50383 -0.328264
1.36054 -0.509423 -0.247634
-0.204865 -0.0397535 0.132909
1.91226 -0.591816 -0.273234
-0.209702 -0.0363698 0.191682
1.36732 -0.574152 -0.0901939
1.38284 -0.557352 -0.0680501
1.54877 -0.570862 -0.000373084
0.000155406 -0.0647568 0.388796
-1.24702 0.17569 0.673381
0.0362005 -0.0854966 0.417664
1.92624 -0.670783 0.111897
-1.13249 0.498387 0.865
1.91977 -0.642402 0.153688
1.85042 -0.629511 0.172181
1.52907 -0.602238 0.381817
1.40064 -0.58773 0.456321
2.08301 -0.680017 0.507404
2.35379 -0.736698 0.467869
2.73542 -0.758085 0.477584
1.40053 -0.64086 0.842548
1.9446 -0.684648 0.757878
1.73525 -0.69484 0.860973
1.71008 -0.675309 0.902543
0.312405 0.236272 1.36441
2.67478 -0.792518 0.668808
2.10347 -0.741968 0.858269
0.0746458 0.303778 1.50678
1.43244 -0.661423 1.08647
0.515014 0.225798 1.43123
1.13504 0.143574 1.31316
2.49593 -0.792818 0.942978
1.48763 -0.685272 1.24477
1.50418 -0.656337 1.25807
2.58811 -0.816236 1.18069
0.845863 0.17846 1.77545
1.05144 0.145023 1.67354
2.48018 -0.829002 1.23846
3.01513 -0.857461 1.14337
2.45473 -0.801906 1.42553
-0.0759569 2.02015 2.42153
0.568879 1.68571 2.24431
2.28091 -0.81792 1.65052
1.73638 -0.631667 2.0392
0.890418 1.44167 2.5008
0.513788 1.90092 2.63696
3.28086 -0.799055 1.9099
1.61641 -0.352366 -2.7763
0.802798 -0.240557 -2.73873
0.0152399 -0.177063 -2.05445
-0.462732 -0.121969 -1.93345
1.00175 -0.313902 -1.91075
2.10301 -0.502417 -1.92019
1.90161 -0.436582 -1.77361
1.77116 -0.458274 -1.76347
0.237423 -0.27602 -1.40491
0.187661 -0.277829 -1.39155
1.93992 -0.53269 -1.52744
-0.961547 0.586446 -1.02099
-0.947175 0.603377 -0.935995
-1.64217 0.466664 -0.773654
2.0083 -0.573111 -0.900249
0.638089 -0.367415 -0.574793
0.703088 -0.4246 -0.582872
0.159327 -0.335546 -0.465296
0.193614 -0.355152 -0.450485
-0.212046 -0.0211195 -0.262821
1.09793 -0.470287 -0.482024
-1.74905 0.528273 0.0947286
-1.59985 0.311828 0.107703
-0.676739 0.257336 0.143868
1.31157 -0.522266 -0.1436
1.58535 -0.593768 -0.146118
-2.61424 0.245394 0.794624
-1.92355 0.351299 0.768942
-0.0388932 -0.0312851 0.399475
0.0101837 -0.0624114 0.394056
0.0541364 -0.0686092 0.473813
1.88023 -0.630246 0.193402
-1.1606 0.491041 1.00152
-1.03662 0.449502 1.03242
0.82507 -0.0625178 0.673691
0.768982 -0.0494551 0.702318
2.07938 -0.688617 0.580626
1.53205 -0.652746 0.787878
1.6177 -0.690516 0.918355
1.6977 -0.684962 1.18262
1.71868 -0.692336 1.27374
1.01541 0.167246 1.72235
2.51241 -0.825037 1.22501
0.365561 1.87905 2.06608
0.46618 1.80439 2.03151
2.19917 -0.832424 1.67953
2.1473 -0.794596 1.70175
0.956967 1.26917 2.45436
3.17187 -0.771169 1.75689
3.35192 -0.820634 1.88495
-0.2569 -0.110443 -2.59525
1.10825 -0.335254 -2.0268
1.35019 -0.369347 -1.96263
1.8575 -0.464652 -1.74888
-2.61695 0.85829 -1.21236
-2.20411 0.788545 -0.890308
-0.8764 0.399288 -0.940211
1.70317 -0.542602 -0.775955
0.70061 -0.411189 -0.580965
-0.787083 0.224381 0.170514
2.30422 -0.663382 -0.390578
1.57005 -0.588689 -0.143559
-1.20254 0.339347 0.520711
-0.959284 0.412377 1.00962
-0.0518072 -0.118188 0.76421
-1.39089 0.322405 1.19765
0.891117 -0.067285 0.743786
2.21421 -0.73272 0.518298
-0.242267 0.0662428 1.18541
-1.17424 0.459524 1.6701
0.994715 0.173873 1.13965
1.44225 -0.6341 1.04846
1.92095 -0.740804 1.15152
1.49186 -0.667366 1.44947
2.4265 -0.833461 1.24783
2.56881 -0.836335 1.22699
2.83615 -0.827766 1.15571
2.77724 -0.834447 1.20488
0.636131 1.51962 2.06707
1.57564 -0.706977 1.73687
2.93212 -0.86476 1.48871
-0.145858 -0.0843851 -2.64077
-4.00946 0.481756 -2.47413
-0.840148 0.763791 -1.71604
-1.07266 0.785821 -1.57937
-0.952932 0.51749 -1.33556
-2.01155 0.726766 -0.679108
-1.55326 0.485302 -0.73086
0.588065 -0.375766 -0.507355
-0.913728 0.237059 0.20595
1.37934 -0.551777 -0.0797753
-1.17822 0.502928 0.932269
-1.04328 0.470857 1.0382
-0.720715 0.158448 1.03456
0.773373 0.216521 1.19686
1.97381 -0.769831 1.39034
1.83715 -0.782067 1.71071
2.20244 -0.7869 1.60208
1.49301 -0.711843 1.94146
0.489727 1.98647 2.61997
0.580899 -0.267858 -2.19668
-1.1888 0.338454 -0.372467
1.77585 -0.567749 -0.526683
1.22236 -0.530406 -0.0361069
-1.20393 0.470392 0.878081
-0.646749 0.195917 0.750961
-0.140299 0.0717639 1.25237
1.41186 -0.577926 0.884444
2.27056 -0.778146 1.06683
3.11917 -0.777246 1.74497
0.810068 -0.333576 -1.54457
1.62949 -0.501086 -1.0893
1.62183 -0.547161 -0.809044
-0.439267 0.039975 -0.330411
-1.84392 0.459549 0.0177493
0.679537 0.0186929 0.208848
1.09485 -0.504802 0.0473429
-1.21982 0.621607 0.964347
-0.65882 0.132317 1.08434
2.24772 -0.753002 1.03508
1.63811 -0.713937 1.41461
2.03377 -0.80385 1.73567
2.56467 -0.833651 1.63361
-0.969055 0.309022 0.302136
1.93134 -0.58793 -0.198139
-0.0457489 0.306013 1.47799
1.5706 -0.684398 1.49757
2.26507 -0.810067 1.64584
-0.47582 -0.178262 -1.83
-0.792599 0.287839 -1.49421
-0.945259 0.453448 -1.40337
-1.0764 0.263277 0.130327
-1.04069 0.697937 -1.3279
-1.19602 0.44883 -0.596707
-0.539214 0.0402073 -0.117894
0.76063 0.237569 1.83625
0.391836 -0.316441 -0.439264
0.687768 1.05058 1.77253
-5.12565 0.603247 -2.52808
-5.08694 0.603712 -2.52128
-4.35638 0.502633 -2.48045
-4.9671 0.560162 -2.16276
-4.88485 0.544475 -2.19599
-3.11239 0.383955 -2.64737
-3.09582 0.352222 -2.69016
-4.79526 0.557428 -1.99942
-3.87711 0.409298 -2.23224
-3.02218 0.293939 -2.51549
-2.85147 0.303915 -2.51733
-4.49705 0.451221 -1.78542
-1.46638 0.0762589 -2.85475
-3.90031 0.36041 -1.70674
-1.35813 0.0537042 -2.50246
-1.97226 0.819819 -1.59647
-1.96644 0.761094 -1.61361
-1.02642 0.000489929 -2.39817
-0.889195 -0.0303827 -2.42496
-4.15883 0.350614 -1.00707
-0.0463313 -0.135608 -2.76565
-3.73642 0.299798 -1.13775
-3.88004 0.29315 -1.07959
-3.74527 0.28392 -1.11576
-0.354915 -0.0594377 -2.53574
-3.5923 0.273952 -1.12419
-0.10942 -0.129128 -2.63325
0.489199 -0.199514 -2.81797
0.236559 -0.171277 -2.7059
0.23999 -0.165883 -2.66738
-0.316342 -0.118259 -2.30057
-1.46197 0.608931 -1.24618
-0.0750495 -0.11909 -2.34375
-1.21689 0.587332 -1.29234
1.48371 -0.339128 -2.99812
0.413803 -0.212337 -2.46369
1.81489 -0.358509 -3.08104
-0.455852 -0.099923 -2.01708
-2.0009 0.688227 -0.736011
-0.434406 -0.131951 -1.93784
0.00942573 -0.151139 -2.13831
-2.14772 0.690564 -0.620438
1.93701 -0.367319 -2.91669
-0.461668 -0.154957 -1.72733
-0.996815 0.564299 -0.963339
-1.9886 0.629901 -0.505066
0.852509 -0.25723 -2.30589
0.493208 -0.274867 -2.14704
1.64681 -0.36005 -2.64221
-1.93427 0.619331 -0.446384
0.36122 -0.219117 -1.95312
-1.34229 0.381277 -0.700477
1.75193 -0.381355 -2.56852
-2.59696 0.369196 -0.0887248
1.03473 -0.352492 -2.15156
1.83423 -0.406739 -2.47356
1.9182 -0.431779 -2.4822
-1.44279 0.398651 -0.406526
-1.43003 0.392276 -0.388768
0.277222 -0.243671 -1.60099
1.44902 -0.379446 -2.1477
1.18777 -0.37021 -1.98913
-0.000550779 -0.23625 -1.39578
1.19065 -0.358292 -2.00536
-0.0335213 -0.237739 -1.341
0.0183736 -0.225504 -1.35644
1.83367 -0.423677 -2.26377
1.28668 -0.359315 -1.96606
1.47632 -0.39758 -2.0557
1.07109 -0.361565 -1.81447
1.51175 -0.401658 -2.03069
0.0380271 -0.253248 -1.25139
1.23265 -0.371698 -1.83917
-1.44156 0.371454 0.00834627
-1.92043 0.435358 0.390256
1.57253 -0.411173 -1.75442
-1.7815 0.380712 0.41619
1.97135 -0.449771 -1.95673
-2.55897 0.261807 0.775218
-0.333137 0.0702204 -0.413954
1.74808 -0.487223 -1.76339
-0.331933 0.062131 -0.353821
1.05611 -0.377932 -1.32148
-0.363731 0.00919329 -0.333399
-1.98639 0.337146 0.720956
2.23004 -0.491905 -1.9303
0.087384 -0.313101 -0.710177
-0.740288 0.279044 0.12093
2.11678 -0.510742 -1.78307
-1.21725 0.396296 0.562001
-1.20067 0.38217 0.52348
-0.646185 0.222257 0.157389
-1.18164 0.336004 0.562678
0.75145 -0.373244 -0.880142
1.798 -0.486962 -1.45876
1.77669 -0.49448 -1.4422
-1.30267 0.24894 0.688249
-0.853774 0.228031 0.4407
0.240598 -0.364168 -0.446407
-2.29349 0.156813 1.31262
-0.302197 -0.0543851 0.219907
-1.69429 0.264913 1.19917
-0.833896 0.322251 0.920195
-0.186068 -0.0393084 0.373857
2.10745 -0.553993 -1.17864
-0.0661783 0.0466799 0.461744
-0.794247 0.200785 0.981212
-0.610393 0.174557 0.879977
-0.513377 0.113273 1.05246
0.818605 0.016694 0.237996
1.31655 -0.525762 -0.292224
-0.00834911 -0.140592 0.757868
-1.3652 0.573012 2.02515
1.44683 -0.548138 -0.119666
-0.523886 2.06155 2.52061
-0.334781 0.35957 1.52067
1.89866 -0.615542 -0.212572
0.179206 0.296566 1.34137
2.56125 -0.644232 -0.638772
-0.137991 0.307592 1.58655
2.51529 -0.660797 -0.632479
-0.101829 2.00732 2.42124
1.9161 -0.611308 -0.154585
0.221506 1.97019 2.28596
1.50492 -0.590175 0.18038
1.54648 -0.600024 0.192539
1.60888 -0.609293 0.181953
1.60329 -0.614996 0.201317
1.70718 -0.602766 0.1543
1.96627 -0.640859 0.0545894
0.773371 0.209589 1.33213
0.975523 0.184517 1.73018
1.43258 -0.637125 1.10118
1.49565 -0.661819 1.21334
1.21857 0.112805 1.92488
1.19429 0.11477 1.94266
1.62864 -0.708863 1.46283
2.68126 -0.829271 1.19158
1.88434 -0.771467 1.83111
-3.98816 0.425318 -2.47192
-4.09886 0.450431 -2.39141
-3.64606 0.389342 -2.52331
-3.80078 0.420749 -2.46488
-4.13572 0.449939 -2.30675
-3.74673 0.404899 -2.43003
-3.69939 0.387477 -2.46987
-3.09932 0.318612 -2.60981
-4.69609 0.515112 -2.04611
-3.03276 0.327343 -2.6169
-3.58233 0.356993 -2.29621
-2.64499 0.213758 -2.5698
-2.59769 0.199062 -2.57791
-4.21955 0.379012 -1.59224
-1.33036 0.0664515 -2.47702
-2.06201 0.774668 -1.57754
-0.770474 -0.026565 -2.67426
-0.652307 -0.0506229 -2.54042
-1.00008 -0.0148764 -2.39676
-0.26218 -0.105089 -2.59796
-0.064706 -0.10618 -2.68585
-3.66618 0.258833 -1.12342
0.0317885 -0.120034 -2.69287
0.199365 -0.152806 -2.66175
-0.311142 -0.115788 -2.28288
1.20813 -0.270421 -2.94275
-0.0259333 -0.143852 -2.3742
0.837172 -0.259035 -2.59362
1.04078 -0.305552 -2.64772
-1.11674 0.606547 -1.00935
0.128866 -0.207076 -2.09388
-0.878034 0.52088 -0.917459
-0.925907 0.515237 -0.881627
-1.806 0.447406 -0.567526
0.187108 -0.243094 -1.89302
1.15457 -0.321229 -2.28867
1.20588 -0.322617 -2.29622
0.947373 -0.307464 -2.14615
-1.57146 0.417798 -0.432176
1.82091 -0.438262 -2.45036
0.696819 -0.316103 -1.85411
1.39449 -0.382797 -2.21136
1.0576 -0.334416 -2.00259
0.60931 -0.290498 -1.73377
1.40192 -0.388819 -2.13873
1.09755 -0.347745 -1.95906
0.0315375 -0.257344 -1.36677
-1.2117 0.342339 -0.288954
1.71017 -0.41041 -2.16586
-0.473635 0.118582 -0.764063
0.784669 -0.341647 -1.6031
2.13029 -0.472298 -2.26004
0.886867 -0.370569 -1.56271
-1.04681 0.287504 -0.199383
0.336577 -0.285989 -1.23099
0.966554 -0.367157 -1.60268
0.174456 -0.292639 -1.10966
0.405514 -0.325005 -1.18145
1.42499 -0.40203 -1.69361
1.40341 -0.395081 -1.6941
0.476294 -0.310873 -1.10733
-0.587566 0.0356533 -0.246503
0.79161 -0.36446 -1.20648
1.95556 -0.463993 -1.79834
0.862874 -0.389097 -1.17866
1.07845 -0.410703 -1.27907
0.0815614 -0.300748 -0.684691
1.05512 -0.40266 -1.24177
1.26506 -0.411117 -1.28857
-0.844451 0.267034 0.220115
1.82588 -0.467834 -1.58551
-1.8693 0.334008 0.984423
0.968303 -0.446427 -0.972999
2.00689 -0.50679 -1.49817
1.52013 -0.48972 -1.05559
1.54227 -0.45356 -1.04736
-0.703329 0.191235 0.58945
-1.02386 0.410159 0.9438
-1.55143 0.276838 1.18618
-0.744912 0.202304 0.71091
-1.55727 0.259145 1.20908
-0.566661 0.159356 0.67007
-0.105628 -0.0673813 0.347541
-0.772599 0.167227 0.984925
-0.679893 0.160472 0.925175
-0.3143 -0.0868154 0.901054
1.32583 -0.525289 -0.30954
-0.200711 -0.107709 0.889122
-0.148353 -0.114909 0.873337
1.56613 -0.59146 -0.162675
1.56349 -0.574057 -0.124075
-0.495175 2.05535 2.62684
0.85546 -0.0429201 0.689594
2.05712 -0.60294 -0.326613
0.195333 0.281752 1.32848
0.216766 0.275962 1.34623
-0.0205972 0.302083 1.52151
-0.0970218 0.305892 1.58094
1.9867 -0.618124 -0.182604
0.165189 0.25631 1.46656
0.241899 0.276458 1.38587
0.764624 0.0266207 0.9731
2.64849 -0.686202 -0.423428
1.95591 -0.669353 0.0963418
1.97893 -0.652761 0.133364
1.31475 -0.627699 1.02632
1.27922 -0.625184 1.06919
1.44196 -0.634443 1.03628
1.4607 -0.648769 1.086
1.89802 -0.678011 0.82759
0.766716 0.178082 2.08092
0.829576 0.155819 2.12533
1.05235 0.118798 2.0972
2.01381 -0.743587 1.17678
-4.24354 0.468474 -2.39649
-4.11767 0.425246 -2.42626
-4.0271 0.455517 -2.36233
-4.1899 0.446786 -2.20703
-3.12785 0.302648 -2.43406
-3.14384 0.302959 -2.41809
-2.62396 0.260177 -2.59744
-1.73669 0.137225 -2.77464
-4.22314 0.40595 -1.63742
-4.10406 0.372485 -1.65583
-3.79681 0.3303 -1.71249
-1.05764 0.0265103 -2.69196
-1.06817 0.810011 -1.72794
-0.956269 0.778638 -1.61417
0.809265 -0.218378 -2.99953
0.421462 -0.190526 -2.76725
-2.40303 0.737228 -0.875498
1.31678 -0.306166 -2.99624
-2.24225 0.745014 -0.859132
0.215328 -0.179373 -2.4271
-0.984919 0.605597 -1.00967
-1.85484 0.465142 -0.530765
0.28252 -0.242946 -1.89988
-1.44338 0.413036 -0.55137
0.429531 -0.279267 -1.78497
1.97522 -0.412499 -2.50515
0.996377 -0.320877 -1.97228
-1.68764 0.375663 -0.21926
-0.322014 0.27749 -0.893372
0.822796 -0.328782 -1.8041
1.41858 -0.389284 -1.99419
0.106522 -0.261442 -1.02707
0.388631 -0.338372 -0.779896
-1.88398 0.352909 0.952522
1.92495 -0.496947 -1.47916
-1.74893 0.309157 1.01356
1.25303 -0.508485 -0.994179
0.705913 -0.428387 -0.571383
0.00163765 -0.0773203 0.154904
-1.00416 0.416758 1.00302
0.00802097 -0.0895804 0.174379
-0.0485416 -0.0711878 0.346623
1.06806 -0.479337 -0.392732
0.0355139 -0.10307 0.715567
1.51589 -0.539821 -0.38995
1.16093 -0.541521 -0.028768
1.36237 -0.536304 -0.0829825
0.893776 -0.0508215 0.662981
0.922142 -0.124632 0.749285
0.327618 0.26509 1.32525
0.951338 0.182006 1.15752
0.422415 1.86984 2.3618
1.90037 -0.631401 0.183507
2.41966 -0.695076 0.0169817
2.68899 -0.722195 -0.150848
1.77886 -0.670856 0.610384
1.46331 -0.654211 1.24864
0.882704 0.151664 2.0519
1.49502 -0.66452 1.25085
2.37832 -0.751897 0.879483
1.77099 -0.745421 1.68971
1.77786 -0.751727 1.73873
1.92503 -0.772015 1.71904
2.88043 -0.751881 2.01778
-3.73447 0.373522 -2.2897
-3.028 0.293652 -2.47188
-2.36115 0.837075 -2.02655
-4.0874 0.363773 -1.63384
-1.77102 0.810094 -1.67683
-0.776472 -0.0531431 -2.50819
-0.372444 -0.113409 -2.44603
-1.53778 0.750535 -1.13409
0.806859 -0.217873 -2.73471
2.07417 -0.370413 -3.19797
-2.00866 0.689531 -0.731348
-2.0456 0.698846 -0.681105
-2.70342 0.567002 -0.403003
-2.0275 0.683289 -0.582254
-1.11324 0.608309 -0.953593
1.77135 -0.377813 -2.81581
1.18848 -0.346197 -1.98097
0.91448 -0.350447 -1.5839
-0.539543 0.0811199 -0.409312
-1.19044 0.524894 0.876161
-1.22844 0.503226 0.997029
-0.132823 -0.058026 0.176256
-0.813464 0.297774 0.915162
0.990638 -0.495008 -0.357172
0.00887317 -0.0561939 0.529239
1.01375 -0.489002 0.0041788
1.3432 -0.519517 -0.107263
1.40582 -0.589231 0.429404
0.703436 1.46405 2.04368
0.650671 0.355938 1.5925
1.21687 0.145582 1.24146
2.49294 -0.703185 -0.0352692
1.30706 0.130896 1.62295
0.699967 0.175685 2.27435
2.16971 -0.738602 0.967048
1.57995 -0.732045 1.49329
2.98964 -0.909 1.47511
3.11357 -0.766758 1.74967
-1.82973 0.808866 -1.61408
-0.888264 0.828767 -1.71496
-0.831049 0.660265 -1.73277
0.396162 -0.148727 -2.73453
-2.94877 0.659734 -0.456053
-1.08453 0.630913 -1.01894
-0.86498 0.496097 -0.995771
-1.43915 0.408106 -0.631669
-1.10803 0.343979 -0.21086
-1.91864 0.398135 0.43052
-1.55772 0.331426 0.325928
-0.89988 0.246815 0.223025
-0.781924 0.234558 0.174527
-1.24372 0.372404 0.559298
-1.14705 0.266303 0.476339
1.39957 -0.526466 -0.442073
1.91003 -0.590379 -0.597031
-0.539921 0.374571 1.62678
-0.200132 0.216516 1.34507
2.26659 -0.631212 -0.609513
0.0638742 0.304593 1.37285
1.85818 -0.705423 0.86254
1.89938 -0.693757 0.87382
1.77837 -0.737375 1.39665
3.15742 -0.818634 1.92396
-2.37809 0.783947 -1.92067
-0.661406 -0.0200791 -2.77306
0.358445 -0.238412 -2.54975
1.01039 -0.341362 -2.16934
-0.570307 0.0826866 -0.232016
-1.16568 0.267314 0.543602
1.2841 -0.464925 -0.693319
1.58336 -0.531338 -0.813443
1.14246 -0.487811 -0.394958
0.428291 -0.214233 0.732295
0.497437 0.248402 1.32742
0.843532 0.2449 1.18122
1.3146 -0.590492 0.45344
0.764618 0.217938 1.21495
0.713164 1.41943 1.92459
1.54614 -0.629506 0.72992
2.03542 -0.790317 1.72396
-2.10126 0.707161 -0.438906
-0.258891 0.242989 -1.08033
-1.73942 0.246528 1.30075
1.72886 -0.544495 -0.54105
-0.171327 0.0651067 1.2373
-2.43318 0.212354 -2.60575
0.985761 -0.252533 -2.53693
-1.04904 0.58221 -1.05897
-0.850408 0.305884 -0.0843452
-1.14508 0.102328 0.646928
0.744915 0.0383283 0.200095
1.43737 -0.723397 1.76658
2.25298 -0.745121 1.64897
-1.60984 0.835816 -1.72941
-0.997799 0.285069 0.197826
1.34806 -0.488253 -0.352022
0.900048 -0.384072 0.180194
-1.94233 0.301486 -2.50081
-1.9166 0.572408 -0.562229
-0.949691 0.490548 -0.965173
-3.58773 0.47935 -1.10634
-2.12116 0.529866 -0.268115
-2.82995 0.398008 0.244681
-4.50528 0.464697 -1.7694
-3.10363 0.327765 -2.64138
-3.0836 0.305613 -2.68263
-1.29616 0.68486 -2.26302
-1.50358 0.727832 -1.70118
-2.18096 0.751531 -0.76071
-1.88394 0.668611 -1.16044
-2.20446 0.692619 -0.587647
-1.92886 0.473537 -0.614979
-1.77269 0.478825 -0.604324
-0.94569 -0.0142759 -2.24867
-0.97863 0.581004 -0.960219
-0.832867 0.552039 -1.10802
-1.6273 0.390007 -0.367435
-1.51525 0.391538 -0.395447
-0.70108 -0.0574586 -2.1748
-2.54502 0.261898 0.770831
-0.83517 0.523254 -0.773118
-0.514343 -0.113262 -1.92565
0.263439 -0.171341 -2.70361
0.499392 -0.180095 -2.81492
0.50782 -0.209357 -2.83645
-1.85437 0.300804 1.23814
-1.23129 0.380686 0.561628
-1.68227 0.257383 1.20005
0.692341 -0.280336 -2.21561
0.219979 1.97297 2.30012
-0.531803 0.159287 0.64905
0.497482 -0.301822 -1.34365
-0.556289 0.159759 0.861422
-0.2026 -0.0413603 0.146721
-0.223219 -0.0324232 0.194335
-0.771598 0.384109 1.72124
-0.139127 -0.028975 0.362446
2.00893 -0.384415 -2.93169
2.03786 -0.394352 -2.97251
0.633299 1.5884 2.21499
1.34726 -0.411881 -1.70777
1.10312 -0.412189 -1.26141
0.785139 -0.0572367 0.809026
0.866998 -0.0675341 0.669354
1.79321 -0.493555 -1.4458
1.0458 0.118388 2.07832
1.92526 -0.633781 -0.150488
1.90437 -0.633202 0.127635
1.51821 -0.651792 1.01349
1.45777 -0.66426 1.05783
1.57999 -0.718057 1.49357
2.47668 -0.72878 0.483936
-2.25553 1.06632 -1.55034
-2.04224 0.301775 -2.66809
-1.43231 0.700431 -2.2794
-1.3384 0.702999 -2.2244
-1.5844 0.131824 -2.77528
-1.55993 0.0476878 -2.90263
-2.12012 0.707012 -0.684392
-2.20433 0.689008 -0.554615
-1.78645 0.478152 -0.584066
-0.986856 0.549857 -1.33885
-0.995822 0.628044 -1.03556
-1.068 0.594963 -0.973715
-0.926271 -0.0129816 -2.22474
-1.04029 0.541175 -0.848971
-0.519276 -0.0621947 -2.48918
-0.806827 0.522675 -0.736309
0.0619851 -0.112913 -2.84718
-1.87564 0.332378 0.987841
-1.84133 0.294749 0.960494
0.460249 -0.179976 -2.80504
-1.69192 0.303194 0.923163
-1.81981 0.296311 1.20944
-1.10651 0.468318 0.867711
0.741473 -0.223963 -2.8114
0.973785 -0.233401 -3.15052
-1.09369 0.475666 0.901225
-1.21255 0.369144 1.09034
-1.45088 0.280322 1.30588
-0.766119 0.212405 0.390535
-0.734191 0.221128 0.368728
-0.660857 0.196098 0.385806
-1.17334 0.455277 1.67268
-0.802846 0.204489 1.00478
0.368317 1.91766 2.07878
-0.731654 0.16734 1.02029
0.519721 -0.326603 -1.1344
1.02859 -0.341375 -1.84139
-0.359593 -0.0441167 0.6427
-0.515095 0.369165 1.68749
1.31243 -0.374847 -1.97418
-0.0824678 0.328104 1.56736
0.654318 1.53416 2.2178
0.0891671 0.323061 1.37548
0.26186 0.288118 1.33222
0.846778 0.228665 1.2178
1.9192 -0.495825 -1.50214
2.33969 -1.21808 -3.02038
1.98157 -0.533371 -1.1017
1.29706 -0.561419 0.185815
1.55998 -0.583225 -0.118958
0.891596 0.154688 2.05206
1.76909 -0.723017 1.25958
1.63359 -0.726107 1.6064
1.80476 -0.72828 1.28465
1.79325 -0.738978 1.39656
2.49096 -0.748948 0.161367
2.55774 -0.863481 1.6116
-4.65586 0.4855 -2.05857
-3.16179 0.366942 -2.63214
-3.19195 0.321196 -2.44786
-2.37414 0.973289 -1.42266
-2.08437 0.721256 -0.819745
-1.27568 0.615729 -1.28629
-1.73405 0.434522 -0.495332
-0.0584186 -0.115443 -2.68878
-1.97308 0.337617 0.731996
0.23727 -0.175247 -2.69904
-0.191067 0.416122 -1.1747
-0.327533 -0.160965 -1.94042
-1.72585 0.300462 1.00485
-1.77009 0.280451 1.23744
-0.854289 0.28235 0.0919901
-1.67541 0.269888 1.18673
-0.778814 0.218306 0.603053
-0.646223 0.201121 0.408748
-0.143517 -0.045061 0.0227268
0.372978 -0.356793 -0.750158
-0.488062 0.35961 1.58624
-0.0366797 0.0347356 0.495732
0.636301 0.192308 -0.102845
1.42582 -0.359482 -2.11532
1.29387 -0.381231 -1.83798
0.717644 0.229565 1.1824
1.85794 -0.514935 -1.45021
0.736724 0.20583 1.38785
1.36069 -0.530223 -0.11747
1.51021 -0.566655 -0.159796
0.880289 0.166589 2.05114
1.60751 -0.681959 0.946188
1.61091 -0.729372 1.75235
2.26802 -0.728203 0.631756
3.39119 -1.61886 1.09748
3.40371 -1.64158 1.12509
-1.18919 0.52371 -2.12898
-1.43144 0.0720395 -2.60979
-0.825557 -0.00172546 -2.65258
-0.833453 0.371967 -1.16266
-0.860795 0.536837 -0.827071
-1.88653 0.38906 0.449883
0.0753784 -0.229661 -1.59313
-0.146747 2.02736 2.39516
-0.402069 -0.0387448 0.407095
-0.590788 0.148727 1.01949
1.09772 -0.356212 -1.94499
1.44528 -0.347392 -2.3807
0.00736516 -0.00842843 0.514952
0.107715 -0.116706 0.615733
0.130712 -0.155327 0.573697
0.0985854 0.304648 1.39107
2.43969 -1.25059 -2.61113
1.53083 -0.669064 1.24425
3.098 -0.776136 1.74176
-4.55853 0.465747 -1.64957
-2.70025 0.521775 -0.447349
-2.40603 0.303743 0.396893
-1.76522 0.446854 0.0335234
-1.92979 0.403659 0.379542
-0.0532886 -0.155316 -2.69069
-0.157142 0.307138 -1.17316
0.0802965 -0.227332 -1.4061
0.627889 0.134237 -0.161638
0.31019 -0.171 0.669881
1.60696 -0.637971 0.716034
3.38158 -0.809671 1.87243
0.423511 -0.173342 -2.78565
-1.36275 0.47585 1.97705
-0.0724246 0.340475 1.52334
-0.00966406 0.322252 1.46535
1.2115 0.149425 1.25768
1.94094 -0.688043 0.666563
-1.44315 0.451391 -0.736675
-1.35372 0.264141 0.201315
-0.195389 0.253856 -1.06588
-0.183914 -0.0371222 0.0809489
1.89781 -0.5277 -1.01743
-1.28322 0.629467 -0.980684
-1.18601 0.595818 -0.902486
-1.94351 0.57205 -0.804197
-0.709551 0.22755 -1.34792
-1.26701 0.234413 0.0838892
-1.2213 0.251986 0.610366
-0.109538 -0.235023 -1.00612
-2.5434 0.672239 -0.895419
-0.194934 2.03226 2.58085
-0.150664 1.99731 2.52346
-2.63589 0.24954 -2.57193
0.200755 1.96691 2.29009
-2.30611 0.201454 0.972058
-1.96878 0.423224 0.410582
-1.66118 0.675253 -1.18983
-1.2955 0.613723 -1.30547
-1.50557 0.344106 -0.416738
-0.983751 0.585659 -1.00389
-1.02191 0.555983 -0.897314
-1.21436 0.356874 0.54354
-0.831278 0.562723 -1.0558
0.611643 1.60218 2.22015
0.64366 1.58989 2.33379
-0.47283 -0.0234951 0.415113
-0.310992 -0.0844624 -2.63815
0.283187 0.275824 1.36026
0.13996 -0.229591 -2.08026
0.97266 0.150546 1.89102
0.896127 -0.0749889 0.685485
1.08341 -0.39289 -1.29044
1.47882 -0.644357 1.03785
1.48447 -0.650024 1.04245
1.56643 -0.70372 1.49602
1.56413 -0.72201 1.52949
1.78231 -0.720089 1.25597
2.59614 -0.83639 1.63798
-2.25722 0.179573 1.03462
-1.64039 0.650199 -2.22016
-1.70958 0.414053 -0.213988
-1.74995 0.318989 1.14698
-1.28305 0.691312 -2.21374
-1.73533 0.299079 1.21337
-1.33746 0.423245 -0.668127
-1.07083 0.59442 -0.990144
-1.46061 0.2685 1.30067
-1.05374 0.593564 -0.941179
-1.07862 0.521102 -0.864205
-1.25086 0.385537 0.532083
-1.06204 0.481677 0.925377
-0.798055 0.198368 0.660689
-0.73143 0.156716 0.958145
-0.693645 0.200946 0.383763
-0.614919 0.131205 1.09658
-0.559104 0.133836 0.914659
-0.374304 -0.0677134 0.647344
-0.368735 -0.0801925 0.585509
-0.20917 0.0755294 -0.147401
-0.275598 -0.0795145 0.828582
0.13447 0.276042 1.43787
0.0265632 -0.0994359 0.405243
0.0494608 -0.100087 0.521733
0.0416065 -0.215854 -1.62734
0.381771 -0.338213 -0.700865
1.13224 0.179627 1.04771
0.780609 -0.239931 -2.60391
0.99168 -0.53937 0.704226
1.35161 -0.370147 -1.92744
1.32537 -0.504762 -0.331425
1.76526 -0.71066 1.27911
2.27008 -0.656354 -0.394402
2.27873 -0.650992 -0.403145
2.27971 -0.627709 -0.349185
2.28927 -0.64418 -0.325165
-3.71158 0.407781 -2.31568
-1.74311 0.280917 1.09604
-1.66391 0.269618 1.3583
-0.797936 0.227648 0.480788
-0.589885 0.121121 0.932115
-0.129472 -0.066799 0.159262
0.0359731 -0.085974 0.438306
0.473211 -0.15589 -2.78821
0.80491 0.155807 2.02561
0.826326 0.146486 2.11317
1.09988 -0.50354 -0.018483
1.61598 -0.660002 0.956684
1.80775 -0.706155 1.23134
2.26644 -0.649806 -0.354986
2.29753 -0.64332 -0.308424
2.3241 -0.777521 1.17876
2.43879 -0.807261 1.21219
2.91001 -0.887514 1.54439
3.18384 -0.790371 1.91272
3.26017 -1.66177 0.989964
3.41245 -1.63613 1.05642
-2.30125 0.15125 1.3268
-1.75289 0.444437 -0.509811
-1.83871 0.370837 0.490659
-0.550059 0.279203 1.37143
0.784518 1.37703 2.2518
-0.119779 -0.0389729 -0.0902347
0.632286 0.236932 1.30111
0.932991 0.20235 2.44548
1.02327 -0.481764 0.00614984
1.4367 -0.712123 1.87623
1.6876 -0.650837 0.702969
1.79639 -0.715721 1.3143
2.15299 -0.773834 1.38441
3.42328 -0.823284 1.82685
3.39037 -1.63584 1.08991
3.38979 -1.64818 1.0058
-1.48965 0.432827 -0.634941
-1.47881 0.387447 -0.599711
0.949543 1.10205 2.44072
0.264856 -0.213818 -2.59138
0.840472 0.142694 2.09627
1.79085 -0.625231 0.347241
3.08601 -0.758188 1.74316
-1.15195 0.529205 0.878579
-1.35373 0.342884 0.378096
-1.35608 0.309249 0.173649
-0.945576 0.578361 -0.995594
1.03923 -0.473234 -0.408817
2.48212 -0.702432 0.0373467
-1.99033 0.52211 -0.353504
-1.39023 0.369877 0.2694
-0.782713 0.496552 -0.555308
-0.865693 0.259224 0.873331
0.870286 0.0807802 -0.00789341
-3.01977 0.615449 -0.457316
-0.908773 0.340326 -0.0273148
-1.18853 0.199281 0.59259
-0.528413 0.38026 -0.898665
-0.119357 -0.0934501 0.628349
-1.29768 0.288093 0.361461
-0.709492 0.346887 -0.391941
1.45667 -0.670552 1.69415
-1.2093 0.232266 0.830183
-1.34633 0.379645 -0.0571134
0.925333 -0.517558 0.347222
0.743918 0.218091 1.11445
0.495098 1.96919 2.73654
0.604602 1.60599 2.14115
-1.0655 0.434659 1.60719
-1.93497 0.602445 -0.392895
-1.0764 0.451299 0.840941
-1.98433 0.707917 -0.825119
-1.21335 0.371541 0.538339
-3.33621 0.332492 -2.4049
-1.33027 0.378654 -0.39983
-2.92355 0.28397 -2.48559
-1.2271 0.337787 -0.373068
-0.617403 0.173262 0.665566
-1.09105 0.576758 -0.981999
-0.950768 0.573058 -0.987684
-0.965626 0.580135 -1.03133
-0.935563 0.584976 -1.04769
-1.29304 0.665695 -2.19716
-0.135091 -0.0354856 0.182137
