-1.86829 0.288717 1.39507
-1.32316 0.127622 1.58325
1.59063 0.00966586 2.16803
1.80264 -0.0465046 2.2528
-2.57841 0.516522 0.662681
1.87072 -0.060495 2.18225
-2.16794 0.405803 0.758267
0.430888 -0.139058 1.57715
-1.79752 0.27476 0.654111
0.363225 -0.105726 1.49138
0.369708 -0.105232 1.48982
0.876856 -0.0624749 1.48835
0.999129 -0.0948597 1.49311
1.03326 -0.119331 1.48279
1.03807 -0.12476 1.46319
-1.73193 0.271131 0.329442
1.52587 -0.087238 1.48914
0.319834 -0.0618464 1.02041
1.6694 -0.0848929 1.47308
1.81538 -0.220395 1.45311
0.423478 -0.123863 0.880662
1.87671 -0.351206 1.51411
1.67166 -0.0513045 1.31052
1.85713 -0.215281 1.43572
0.856762 -0.0462939 0.952766
1.60777 -0.0219704 1.22339
1.93641 -0.406367 1.47662
0.864762 -0.0528218 0.928466
0.366215 -0.0975996 0.707519
0.947306 -0.086639 0.900152
2.14468 -0.464775 1.50862
0.987236 -0.0946289 0.939008
1.02912 -0.111613 0.934707
1.07403 -0.115235 0.937405
-2.37364 0.451769 -0.61443
-1.97488 0.341154 -0.473184
-0.882249 -0.0123125 -0.205067
-1.84824 0.302419 -0.74374
-0.975252 0.0356811 -0.3349
2.29326 -0.698967 1.25941
2.34654 -0.711593 1.27497
2.1212 -0.447137 1.06284
2.33033 -0.707327 1.23754
1.96724 -0.395142 0.96569
1.98785 -0.411935 0.934914
1.59333 -0.319084 0.746248
2.11412 -0.429165 0.930374
-2.54011 0.483103 -1.5546
-2.30461 0.425647 -1.54395
-0.632921 -0.0886933 -0.746242
-0.83003 -0.056543 -0.906101
-1.67951 0.236593 -1.43227
-1.61509 0.225867 -1.53386
1.77833 -0.33147 0.184957
1.08547 -0.0101582 -0.268216
-1.86113 0.294824 -1.83496
-0.454084 -0.137461 -1.12566
1.0478 0.0858234 -0.484152
1.10478 0.101273 -0.501845
1.14226 0.0767253 -0.60172
-0.345396 -0.192855 -1.85567
-0.248308 -0.219005 -1.8824
2.14846 -0.219019 -0.53235
0.00722716 -0.280503 -1.82652
2.28344 -0.277108 -0.588787
2.73477 -0.64579 -0.236303
3.09501 -1.25537 -0.327694
3.12402 -1.2772 -0.442654
2.71192 -1.13351 -1.02806
2.97319 -1.2291 -1.25749
2.31182 -1.02628 -1.81882
2.34078 -1.0065 -1.80327
3.26957 -1.31118 -1.24099
2.8605 -1.17264 -1.57221
2.92626 -1.22029 -1.53517
3.34771 -1.33539 -1.24934
3.44783 -1.34096 -1.32169
3.60274 -1.42221 -1.54201
-2.81797 0.786008 3.23292
1.439 1.91352 2.81537
1.70929 1.82329 2.76403
-2.99497 0.64321 2.58522
-2.88962 0.657009 2.57033
-2.62474 0.567515 2.58156
-2.64154 0.592448 2.17851
-1.82824 0.303204 2.13832
-1.86395 0.304858 1.98124
-0.239942 0.585699 2.16037
-2.0834 0.369685 1.79411
0.0329859 0.480098 2.09982
-0.0219306 0.54914 2.07585
0.144774 0.495301 1.98329
-1.54044 0.210597 1.38748
1.56355 0.0454687 2.09063
1.59591 0.0170454 2.06058
-0.00514594 0.100893 1.40166
0.908007 -0.0789677 1.58506
-1.88257 0.317031 0.38038
-1.82802 0.274196 0.414793
1.73345 -0.138795 1.48324
-0.814384 -0.0177533 0.514688
1.05735 -0.131598 1.18091
1.90363 -0.380474 1.56681
0.355069 -0.103493 0.717146
0.892621 -0.061711 0.788521
-2.28672 0.444004 -0.802185
1.61963 -0.218109 0.8984
1.67394 -0.241642 0.918855
-2.07665 0.381839 -1.11885
-0.402944 -0.152909 -0.2354
2.58556 -0.756716 1.0688
-1.67045 0.216005 -1.24642
0.253308 0.280631 -0.444653
2.46293 -0.745306 0.883396
2.53216 -0.777802 0.888589
0.81717 0.17884 -0.539907
0.887152 0.120882 -0.571881
1.8575 -0.317916 -0.019045
-0.339844 -0.202142 -1.26734
-0.249187 -0.211991 -1.23071
-0.280516 -0.20556 -1.25018
-0.331123 -0.176886 -1.27147
2.24039 -0.297281 -0.238993
2.13273 -0.269769 -0.431512
1.55178 -0.10927 -0.843251
2.1841 -0.270371 -0.468598
2.10658 -0.206864 -0.543978
-0.164476 -0.231023 -1.8357
2.87876 -1.19887 0.0351645
1.29987 0.0306753 -1.31756
1.28876 0.0995534 -1.39019
2.46966 -0.545408 -0.603882
2.94129 -1.20758 -0.20042
3.04614 -1.23083 -0.429917
2.48773 -1.06151 -1.03675
2.3661 -1.02211 -1.68903
3.0416 -1.23644 -1.21295
3.06245 -1.25205 -1.19892
3.21229 -1.29039 -1.11458
2.33872 -1.01985 -1.75448
3.10719 -1.25535 -1.23392
3.07198 -1.24127 -1.33042
3.18902 -1.2817 -1.5829
3.34896 -1.34454 -1.45397
3.58591 -1.42352 -1.78113
-2.81358 0.780412 3.19544
-2.99832 0.724668 2.95575
-2.92874 0.635988 2.55608
0.679148 0.300372 2.15319
-1.33547 0.15942 1.42637
-1.73388 0.25916 1.13891
-1.9935 0.356564 0.802097
-2.44823 0.469847 0.426923
1.03501 -0.121859 1.61904
1.1013 -0.12935 1.51792
1.47588 -0.0756012 1.5214
0.357945 -0.0827385 1.03904
1.01398 -0.106897 1.24148
2.11498 -0.443083 1.63055
-1.66106 0.250239 -0.186831
0.273209 -0.0279814 0.603797
-2.14521 0.378217 -0.518885
2.17308 -0.465658 1.46665
0.845297 -0.0471226 0.690996
-2.27355 0.428349 -0.716984
1.59666 -0.188088 0.929624
-0.758219 -0.0497243 -0.389569
-1.40746 0.166273 -0.880649
-1.35101 0.119485 -0.868991
0.238875 0.206038 -0.372824
2.09755 -0.414859 0.600849
1.93504 -0.21198 0.376606
-0.853107 -0.0132281 -1.2012
1.56192 -0.314273 -0.00693254
-0.446628 -0.143293 -0.990472
1.03367 0.134862 -0.569249
1.17273 0.0493006 -0.546332
1.75545 -0.331547 -0.168252
2.03332 -0.250365 -0.350845
-0.377657 -0.194528 -1.8194
2.04148 -0.201803 -0.555537
1.5777 -0.0914808 -0.841383
2.17545 -0.262621 -0.49896
2.89727 -1.2116 -0.195353
1.52366 -0.0216414 -1.30725
3.27049 -1.31974 -0.711466
2.84529 -1.16017 -1.07344
2.80978 -1.17892 -1.29116
2.98329 -1.20443 -1.39109
3.28401 -1.33471 -1.54928
3.62245 -1.4171 -1.80455
-0.450891 0.69203 2.03974
-1.93113 0.361967 1.76155
-0.026533 0.535111 2.02936
0.681805 0.163477 1.91181
1.78239 -0.031777 2.20311
1.75547 -0.0532595 2.1928
-1.5828 0.216716 0.722051
-0.254461 0.208161 1.08506
2.03255 -0.20574 1.92077
0.39522 -0.0746352 1.31198
1.01341 -0.0849224 1.18355
1.68896 -0.0823713 1.31769
2.14012 -0.458196 1.62152
-2.28425 0.447145 -0.789021
1.0087 -0.06591 0.671243
2.13899 -0.422004 1.23542
1.45358 -0.116949 0.815647
2.05469 -0.401176 1.09317
0.349127 -0.0293785 -0.183211
-1.97148 0.315319 -1.57297
1.09138 0.0437606 -0.362842
1.10532 0.0407518 -0.345578
-0.614729 -0.11801 -1.21965
-1.45992 0.123283 -1.79995
2.61657 -0.768454 0.480904
1.05972 0.0876229 -0.607289
0.396601 0.229614 -1.12435
2.1798 -0.293566 -0.370511
2.93893 -1.21745 -0.171288
1.64719 -0.0873953 -1.29797
1.65371 0.119599 -1.54797
2.31911 -1.02709 -1.64114
3.39142 -1.34524 -1.01801
2.84544 -1.17286 -1.54266
-2.94948 0.706689 3.09674
-1.84539 0.309729 2.06194
-2.2243 0.429935 1.66231
-0.589361 0.597203 1.90112
0.622353 0.157536 1.94416
1.7592 -0.169133 1.47438
-2.19196 0.406867 -0.650506
0.344885 -0.0181252 0.242227
1.14082 0.156277 -0.252006
2.5448 -0.765119 0.628934
2.33085 -0.709793 0.253739
2.06892 -0.195343 -0.570309
2.27536 -0.474208 -0.449708
2.95539 -1.20527 -1.53496
-2.98618 0.674469 2.95079
0.516333 0.358518 1.99126
-1.37835 0.149181 1.34883
-0.140507 0.0449413 1.52282
-1.36871 0.159965 1.07602
-0.0937842 0.0272745 1.47263
1.57322 -0.213596 0.909894
1.49393 -0.271522 0.806473
1.48923 -0.224677 0.732913
2.04685 -0.430353 0.779562
1.99695 -0.387702 0.72779
0.878254 0.122812 -0.330126
1.08117 -0.0318123 -0.314623
2.65099 -0.786476 0.539708
2.04278 -0.208478 -0.460893
2.59258 -1.0174 -1.21393
2.93998 -1.20126 -1.69608
-2.89388 0.813221 3.2188
-1.39032 0.159082 1.14741
2.239 -0.172321 2.07487
1.59383 -0.376842 0.265091
0.762722 0.0991271 -0.484383
-1.17731 0.0938562 -1.97635
-0.334137 0.631646 2.07971
1.76073 -0.111952 1.51645
-2.6845 0.713759 3.27837
1.51448 -0.312111 0.319256
1.40889 -0.174645 0.209466
1.30514 -0.115774 -0.338939
1.83994 -0.371864 1.31464
1.28668 -0.234326 1.03845
1.51205 -0.275573 1.05965
1.65829 -0.375292 0.278234
1.58497 -0.0677172 -0.518842
2.76987 -0.956992 -0.301642
2.68701 -1.13452 -1.77754
3.46016 -1.36035 -1.57552
2.97674 -1.20641 -1.69009
3.05589 -1.25204 -1.54503
3.03139 -1.21693 -1.53921
2.86516 -1.19066 -1.55107
2.81192 -1.17581 -1.5404
2.86851 -1.1717 -1.51791
-0.320211 -0.207569 -1.85813
-0.35757 -0.185139 -1.83625
2.66118 -1.11164 -1.15538
2.77261 -1.13645 -1.14592
-0.628242 -0.113903 -1.83653
2.69577 -1.1227 -1.04371
3.09115 -1.24698 -0.871063
3.06172 -1.25163 -0.865851
-1.18712 0.0637964 -1.53227
-2.38741 0.443036 -1.54044
-2.19209 0.385752 -1.42439
-0.843977 -0.0177304 -1.18992
2.15336 -0.216379 -0.509261
-1.36283 0.144117 -1.22762
-2.2408 0.421929 -1.23313
-2.14144 0.399736 -1.01676
3.0448 -1.22625 -0.218364
-2.08152 0.365827 -0.897299
-1.76779 0.26387 -0.835646
-1.13569 0.0658334 -0.535482
-1.97223 0.341217 -0.470899
-0.703012 -0.0827166 -0.169136
0.38176 -0.0567242 0.0440623
-1.44099 0.158445 -0.177734
-1.49372 0.159898 -0.17459
-2.2871 0.428273 -0.224499
-2.51297 0.510083 -0.229922
0.272647 0.123086 0.161021
-2.1193 0.391124 -0.0556445
-1.23586 0.0754293 0.064749
-2.27099 0.436367 0.0841271
1.98049 -0.342612 0.606085
-2.41636 0.492945 0.410827
2.12046 -0.44159 0.946126
-2.41921 0.485267 0.634817
-1.9872 0.346914 0.676294
-0.410433 0.558419 0.832615
0.950472 -0.0722605 0.934006
1.48501 -0.267592 1.05023
-2.78166 0.608254 1.0047
1.79555 -0.20931 1.446
2.188 -0.45704 1.43418
1.02644 -0.113609 1.47278
-1.3904 0.154566 1.40436
0.260493 -0.0747935 1.48317
-1.75004 0.279721 1.42358
-2.52957 0.518828 1.6259
-2.56468 0.562092 1.7813
-2.57604 0.534015 1.77691
-2.01942 0.385706 1.82189
-1.54718 0.185212 1.8288
-0.581628 0.719001 2.03328
2.25959 -0.195762 2.0484
-1.83484 0.310455 2.104
-1.85685 0.308909 2.12279
0.18108 0.454326 2.17328
0.791075 0.267252 2.18137
0.0842956 0.499212 2.17784
1.40587 0.0872768 2.18501
1.2718 0.148433 2.18653
1.17344 0.168483 2.19635
1.22806 0.15046 2.19934
-2.85174 0.65542 3.08359
2.50001 1.57812 2.66252
1.32474 1.93234 2.82678
1.24614 2.05523 3.34622
3.11603 -1.25321 -1.4697
2.92926 -1.20656 -1.52925
2.97667 -1.21805 -1.32561
3.34774 -1.33891 -1.26812
2.78015 -1.14786 -1.24417
1.27667 0.071976 -1.30433
2.84461 -1.18418 -0.8784
2.89934 -1.16443 -0.797019
-1.10974 0.0454372 -1.48846
-0.359785 -0.197466 -1.21529
-0.397854 -0.175581 -1.222
-0.249273 -0.21425 -0.880532
0.255082 0.241756 -0.57863
-1.00208 0.0111917 -0.831038
-2.50494 0.498014 -0.861385
-0.993528 0.00760974 -0.506065
1.50351 -0.256787 -0.0455879
1.61515 -0.287414 -0.0582819
-2.51513 0.522914 -0.508782
-0.688259 -0.0843149 -0.160144
-2.84553 0.614299 -0.21294
1.31427 -0.243712 0.434682
2.14589 -0.426354 0.652099
2.68277 -0.831905 0.692908
-1.16544 0.0794271 0.344897
-0.83667 0.00389326 0.382907
1.10059 -0.10089 0.695356
2.47246 -0.731216 0.882703
2.43846 -0.764939 0.89764
2.06557 -0.402524 0.918851
-2.3071 0.457244 0.6367
0.402239 -0.127836 0.879772
2.25802 -0.687749 1.03923
2.28016 -0.700682 1.05176
0.0225413 -0.01397 0.896355
1.64777 -0.0659453 1.24515
1.58697 0.00709952 1.2838
-1.3666 0.145042 1.15171
-1.61812 0.233019 1.37039
0.84417 -0.0418965 1.50673
-0.389912 0.332669 1.65183
-1.67066 0.256429 1.63726
-2.13748 0.429856 1.67201
-2.01065 0.370642 1.78889
-2.59103 0.557184 1.82518
-1.92151 0.346352 1.9511
0.0019705 0.532302 2.01356
2.20338 -0.178351 2.06638
0.336331 0.4164 2.08494
-0.298132 0.624531 2.08569
-1.81721 0.277015 2.14127
-2.46697 0.519107 2.16327
-0.57143 0.704577 2.16671
-0.491995 0.676904 2.20259
-2.88976 0.635074 2.57639
3.0028 -1.20169 -1.39377
-0.621351 -0.122477 -1.81726
3.01708 -1.23292 -1.05963
2.96021 -1.22414 -1.0414
3.0653 -1.2244 -0.780586
-1.22729 0.111393 -1.5246
-1.23788 0.114573 -1.48848
2.23098 -0.303784 -0.31745
-2.04846 0.375959 -1.0471
-2.10849 0.381982 -0.731369
1.80111 -0.338848 0.118754
-0.695455 -0.0932747 0.086933
0.254899 -0.0867373 0.868512
0.336341 -0.077583 1.04015
1.97941 -0.394877 1.19622
0.399685 -0.107428 1.29459
-0.359417 0.33347 1.59036
-2.01932 0.354464 1.5747
-0.405653 0.665933 2.32311
-2.8239 0.774977 3.23687
1.96754 1.72619 2.82431
1.94784 1.7476 2.82454
2.02524 1.79736 3.16808
2.99779 -1.22923 -1.53861
-0.392212 -0.181357 -1.83514
1.13927 0.0872024 -0.527044
-1.46275 0.198642 -0.926369
-0.180614 0.170123 -0.556115
-0.65053 -0.0589701 -0.188632
-1.70729 0.280721 -0.173589
1.98771 -0.380476 0.709716
2.55954 -0.779054 0.878186
-1.62675 0.242188 0.68564
1.12992 -0.14996 1.50461
-0.533365 0.385988 1.64083
-2.01924 0.365899 1.99463
-2.99185 0.771794 3.09788
3.61312 -1.4418 -1.59785
3.42861 -1.31909 -1.55528
-0.286173 -0.189586 -1.86227
-0.982107 0.267212 1.03349
-1.43967 0.282509 1.96553
-0.399509 0.657286 2.01016
-1.89438 0.306487 0.664791
-1.37675 0.150238 1.06576
-1.51387 0.173468 1.40327
-0.746841 -0.125146 -1.22698
1.07275 -0.138204 1.10489
-0.459587 0.324517 1.16597
-1.99173 0.3804 2.04477
1.8691 -0.165712 -0.274498
1.52871 -0.176839 0.900868
2.11203 -0.272925 -0.620687
1.84039 -0.316972 0.0432395
1.15084 -0.167873 0.026264
2.40017 -0.624237 0.361409
1.76369 -0.411631 0.848925
-2.45798 0.473808 -1.55686
-1.45197 0.156675 -1.57458
-1.40191 0.147775 -1.56154
-1.63168 0.226561 -1.4355
-2.06296 0.383449 -1.1044
0.0191061 -0.297564 -1.82454
-0.675491 -0.0698563 -1.19605
-1.4098 0.145933 -0.849508
-0.437389 -0.160439 -1.17921
-2.12046 0.393037 -0.0546696
2.37636 -1.0052 -1.72658
-1.00448 0.00682105 -0.197754
-1.20388 0.0948165 0.0594064
2.91463 -1.16835 -1.7517
2.76573 -1.15056 -1.65179
-1.14711 0.0883783 0.352909
2.87797 -1.17807 -1.54439
2.84137 -1.17878 -1.5202
-1.05299 0.0155329 0.35953
0.398369 -0.0810772 -0.00707916
0.25643 0.122979 0.190087
0.254716 0.101197 0.174889
2.92344 -1.21874 -1.43172
2.15264 -0.207661 -0.504337
2.94025 -1.20751 -1.3808
2.72291 -1.1446 -1.10829
-0.0541057 0.0988229 0.585113
-1.64819 0.237503 1.17257
-2.48058 0.512081 1.65336
3.35449 -1.3648 -1.2256
-1.88043 0.30146 1.39105
0.371544 -0.116192 0.706935
-0.060131 0.0472253 0.952077
-1.42582 0.196879 1.51124
3.17119 -1.27039 -0.801356
-2.17152 0.421583 1.9506
-1.65553 0.241201 1.68403
-2.53536 0.535538 2.14128
-1.90757 0.321483 1.87349
1.85223 -0.381185 0.268929
-2.12052 0.425757 2.01115
-0.0337314 0.0468763 1.37425
-1.90256 0.327729 2.16279
-2.61824 0.576665 2.58289
-0.572689 0.712214 2.04462
-2.80695 0.607043 2.79666
-0.125742 0.0398124 1.58954
-2.99577 0.707568 3.06247
-2.5806 0.542008 2.87211
-2.83852 1.04638 3.31789
0.902037 -0.0683858 1.48484
0.952529 -0.0969397 1.44108
1.61719 -0.00176014 1.22921
-0.0152148 0.532028 2.17693
1.02935 -0.120171 1.49819
2.01203 -0.408888 0.945515
2.04032 -0.394125 0.938116
0.174727 0.456618 2.15543
2.19423 -0.460418 0.941708
2.18233 -0.445631 0.943122
1.5161 1.87043 2.61035
1.43465 -0.0665223 1.48826
1.54703 1.85823 2.63554
1.9484 -0.37498 1.19754
1.93229 -0.367046 1.2109
1.29234 1.95146 2.86346
1.76218 1.79379 2.61452
2.58103 -0.788373 0.787825
1.83042 -0.208636 1.4238
1.40989 1.90317 2.8365
2.45092 -0.73793 0.901489
1.85132 1.76023 2.60117
2.30156 -0.678858 1.01463
1.32515 1.9409 2.94385
1.73202 1.82161 2.7361
1.93539 -0.389774 1.45937
1.98515 -0.401726 1.43473
2.31331 -0.725144 1.24667
1.23818 0.134158 2.20466
2.18337 -0.464454 1.46327
2.03574 1.72434 2.75613
2.14115 1.67851 2.86898
1.86503 -0.0658576 2.20421
2.24806 -0.181189 2.11079
-2.0908 0.34484 -1.53321
-0.550008 -0.136108 -1.81036
-1.84185 0.298709 -0.93918
-1.34987 0.125465 -1.16451
-2.13972 0.383494 -0.838087
-2.27777 0.418681 -0.669593
-1.85976 0.30687 -0.204544
-0.753132 -0.0716416 -0.494698
-2.55704 0.495386 0.565643
-1.34824 0.123267 0.0553428
-0.375725 -0.155651 -0.224806
-2.00327 0.348477 0.772521
2.71084 -1.13783 -1.23534
3.32008 -1.34585 -1.51376
2.7619 -1.14771 -1.22509
2.86617 -1.20388 -1.15759
1.57615 -0.286705 0.0160356
0.246106 -0.0581347 0.717364
0.0596889 0.00372541 0.893205
3.36901 -1.33226 -0.881693
2.41945 -0.72581 -0.0380177
-3.00078 0.722501 2.64261
-0.359423 0.317486 1.60786
-1.92538 0.313177 2.12814
0.44361 -0.10537 1.11769
3.16065 -1.27323 -0.444975
3.10988 -1.25328 -0.418274
1.93147 -0.382586 0.691559
1.07724 -0.116742 1.19274
1.42494 -0.263911 1.04881
2.52569 -0.764143 0.339697
-2.71703 0.636608 3.1048
2.18828 -0.472042 0.695471
2.21979 -0.472798 0.686668
1.94204 -0.365366 0.935528
1.96654 -0.385046 0.950496
2.13743 -0.426939 0.94163
1.16577 -0.139308 1.49827
1.725 -0.113755 1.40117
2.52227 -0.778311 0.85063
2.26586 -0.691034 1.01277
2.29611 -0.72894 1.05267
2.52365 -0.748434 1.08872
2.59704 -0.763947 1.0671
2.32801 -0.698814 1.26424
1.95243 1.74011 2.82855
1.79631 -0.0504099 2.20438
1.90455 -0.0747744 2.16211
2.21611 -0.181609 2.11796
2.21215 -0.0850922 -1.27067
-0.756655 -0.0273386 -0.692309
-2.51258 0.530185 0.385572
-2.44319 0.500092 0.43474
0.891068 0.116125 -0.394587
0.88402 0.115161 -0.358736
0.299201 0.0814336 0.180031
2.13398 -0.21654 -0.510496
2.76623 -1.16237 -1.21124
1.65012 -0.296565 -0.228703
2.81988 -1.17404 -1.0422
-1.56682 0.219192 1.37914
-1.20526 0.111255 1.27907
0.827649 -0.015598 0.626375
-2.06831 0.368383 1.77104
0.804999 -0.0353686 0.671783
-2.55625 0.553774 2.1409
0.312329 -0.0973345 0.919721
0.323905 -0.0669095 1.04711
0.344426 -0.0815951 1.07175
3.09541 -1.24674 -0.4383
0.456183 -0.10145 1.2145
1.64965 -0.292549 0.886679
-2.82843 0.799258 3.23282
1.68894 -0.115094 1.30602
1.42023 -0.0666567 1.48704
2.49035 -0.763155 0.880065
2.33012 -0.717288 1.23712
1.89863 -0.0643946 2.29591
-0.732971 -0.0508925 -1.19075
-0.448763 -0.153657 -1.00479
0.321147 0.176821 -0.399423
2.57771 -0.327382 -1.21526
-2.36208 0.454002 0.379727
1.19057 0.0337575 -0.588846
-1.25693 0.0994905 0.368193
2.8508 -1.20102 -1.55756
1.94012 -0.183005 -0.518007
3.27643 -1.30084 -1.5455
2.1429 -0.282369 -0.359016
-2.1136 0.406702 1.92585
-2.8197 1.07987 3.29762
-0.116634 0.553526 2.0782
1.00327 -0.103349 1.3286
1.9766 -0.375001 0.9521
1.97356 -0.384454 1.11635
1.97379 -0.402583 1.22661
1.87535 -0.380277 1.57578
2.08594 -0.433216 1.6066
2.04469 -0.142555 2.03885
0.854779 0.28538 -1.24436
0.969124 0.161564 -0.828464
-0.725364 -0.0512883 -0.405535
2.47063 -0.321896 -1.19267
2.25933 -0.472812 -0.507054
2.24965 -0.468986 -0.472117
1.36924 -0.247781 0.408532
3.07868 -1.23106 -0.79674
-2.97267 0.68097 2.93647
-2.9317 0.803263 3.25962
1.9788 -0.390997 1.20193
2.15626 -0.452487 1.09613
2.01889 -0.395066 1.47922
2.19887 -0.385915 -1.51321
2.21597 -0.121733 -1.1101
0.331732 0.0342306 0.292984
2.458 -0.576897 -0.593968
-1.99892 0.358826 1.76623
-0.0499019 0.059811 1.3582
1.48936 -0.265527 1.17379
1.56311 -0.429467 1.05142
1.8148 -0.209016 1.49829
1.09578 -0.0147339 -0.304913
1.59581 -0.269687 -0.206943
-0.43972 0.181519 1.22984
1.56538 -0.264847 0.35936
2.10764 -0.413644 0.773593
0.372906 0.391826 2.0342
-2.00613 0.402284 -0.594636
-3.02173 0.762171 3.02344
1.03867 0.118099 -0.888515
0.110949 0.206693 0.226736
1.66149 -0.232568 -0.326437
1.52433 -0.232403 0.510397
2.17832 -0.340956 -0.452188
2.75117 -0.727343 -0.661984
-2.08082 0.378967 -1.52332
-2.26133 0.446399 -0.618223
-1.42784 0.147679 -2.09294
-1.66538 0.223651 -1.41542
-1.43422 0.162703 -1.66492
-2.44316 0.495219 0.628799
-2.4359 0.469196 0.632509
-1.25191 0.10094 -1.49638
-3.02793 0.721178 2.81153
-1.71623 0.236552 -0.150573
-2.83768 0.64907 2.80596
-2.7256 0.655212 3.113
-2.5214 0.539383 2.52073
-2.56171 0.576185 2.87079
-2.00668 0.365573 2.39138
0.267006 0.331758 -0.514066
1.31314 1.95943 2.86403
-0.56236 0.716469 2.01346
-0.717008 -0.0673138 0.0853198
-0.545 0.700311 2.11996
1.54171 1.85975 2.62203
0.269677 0.120169 -0.244659
-0.241033 0.620377 2.10529
0.822007 0.148823 -0.756054
1.7175 1.80442 2.58416
1.66134 1.84826 2.76728
0.827809 0.169606 -0.565943
0.000519012 0.0496858 0.510853
1.81716 1.78501 2.63013
1.65443 1.94473 3.36805
1.84393 1.77437 2.58503
1.00519 0.136453 -0.562552
-0.111042 0.0442232 1.59862
2.04148 1.7275 2.76988
0.0548137 0.0099367 1.27588
-0.00422278 -0.00812495 1.5886
0.233134 -0.0568635 1.48646
0.795969 -0.0287434 0.677079
0.946595 -0.0652281 0.922835
1.31108 -0.221554 0.436588
0.932643 -0.0760809 1.45304
1.99235 -0.176496 -0.458726
1.62068 -0.0290533 1.23661
1.54271 -0.281925 1.09282
1.66706 -0.29929 0.924577
1.54713 0.0358222 1.99814
1.94513 -0.386904 0.716128
1.79985 -0.22279 1.37868
1.84179 -0.226123 1.41069
1.87453 -0.241287 1.43335
1.91126 -0.38784 1.21897
2.78514 -1.15007 -1.69057
2.0111 -0.434956 1.48477
2.17945 -0.467442 1.46665
2.19512 -0.465352 1.48701
2.94093 -1.20923 -1.49065
2.27246 -0.18955 2.05754
2.95982 -1.21551 -1.35024
3.03888 -1.25393 -1.57559
2.87858 -1.19855 -1.20636
2.88381 -1.19156 -1.15539
2.28254 -0.699256 1.28305
2.32117 -0.717236 1.23664
2.31159 -0.700198 1.25786
3.14023 -1.26764 -0.850936
3.13467 -1.25906 -0.432883
3.14325 -1.28462 -0.466526
-1.77496 0.255583 -2.05796
-2.46968 0.511344 -0.192896
-1.96759 0.384285 0.0585237
-1.92764 0.331734 0.0363833
-2.98724 0.685098 2.5955
-1.40935 0.128385 -0.88925
-2.98064 0.680575 3.06098
-2.84011 0.804929 3.22933
-2.60447 0.536477 2.63536
-1.75897 0.261022 1.35647
-1.68345 0.238295 1.62969
-1.6643 0.241654 1.91136
-0.43668 0.66286 2.17037
0.28965 0.107586 -0.237139
0.974803 0.137004 -0.548789
0.430213 -0.112051 1.09462
0.444052 -0.103632 1.14784
0.824866 -0.0606553 1.48482
1.4878 -0.251572 0.0102386
1.02891 0.199268 2.0489
2.12738 -0.206098 -0.556728
1.76236 -0.347453 0.0938512
1.5652 -0.154626 0.942112
1.59256 -0.00327934 1.25728
1.6655 -0.0548445 1.26207
2.16504 -0.474382 0.9305
2.7634 -1.14623 -1.70383
2.18568 -0.448344 0.931448
2.27825 -0.198471 2.04701
2.28134 -0.690176 1.04205
2.34108 -0.698774 1.24889
2.63578 -0.824627 0.730915
2.55607 -0.688685 1.06168
2.58399 -0.745338 1.09183
2.91214 -1.19916 -0.209738
3.00254 -1.24307 -0.204305
3.13148 -1.25949 -0.387872
-2.27871 0.439458 -0.239526
-2.45123 0.477363 0.443013
-3.00969 0.713556 2.63823
-2.94155 0.670965 2.553
-2.22085 0.428706 1.78393
-0.855253 -0.0259263 -1.16464
-2.08262 0.392913 2.01787
-1.9186 0.32309 1.64808
-0.362285 -0.185187 -1.70833
-1.8751 0.318669 1.88175
-1.74481 0.265612 2.1301
-0.504989 0.692081 2.02951
0.559575 0.0429081 -0.615584
0.928774 0.148565 -0.519272
0.805674 -0.0192219 1.19277
1.27266 -0.209629 0.099398
2.31614 -0.407433 -1.50905
2.06349 -0.212808 -0.480214
2.15103 -0.222399 -0.551839
1.66469 -0.299785 0.894064
2.34631 -1.02684 -1.62872
1.9302 -0.379141 1.19662
1.91134 -0.0797316 2.2458
2.68362 -1.12029 -1.21334
2.8705 -1.18596 -1.58925
2.79022 -1.16891 -1.18229
3.12289 -1.27187 -1.66221
-0.826513 -0.0364596 0.355664
0.540719 0.0501741 -0.549706
-0.114385 0.561352 2.14628
-0.210634 0.43742 1.91408
-0.0674247 0.567885 2.10869
-0.0207404 0.5277 2.03257
1.28339 -0.190536 -0.27338
0.892487 -0.0490786 0.969849
0.869271 -0.0278317 1.24019
1.01833 -0.115258 1.51414
2.46902 -0.301293 -1.14793
2.01251 -0.379372 0.604998
1.81642 -0.0263306 2.066
2.149 -0.437798 0.703296
2.03312 -0.104158 2.20601
1.97365 -0.420966 1.64362
2.93997 -1.21571 -1.72393
2.62994 -0.805533 0.898079
2.87277 -1.18921 0.0521713
-1.31007 0.143191 0.432295
-0.452192 0.680203 2.03492
-0.0686759 0.076877 1.35068
0.951417 -0.0652339 1.59736
1.52764 -0.268219 0.480262
1.77122 -0.0222794 2.20663
2.9627 -1.2108 -1.56144
2.8576 -1.16686 -1.09449
2.31674 -0.708127 1.55133
-3.03107 0.732502 3.02388
-0.38578 0.295184 1.51031
0.66951 0.303148 2.13108
1.55401 -0.344222 0.753194
1.69188 -0.0738179 1.3497
1.70499 -0.186749 1.32496
-0.311891 0.298333 1.01785
1.47778 -0.270245 0.770246
1.91868 -0.383295 0.886845
2.23038 -0.1506 2.09598
-2.93716 0.727678 3.10184
-1.90626 0.381319 2.05647
1.62593 -0.330731 0.825304
2.44285 -0.743328 0.824161
1.87094 -0.368256 0.129418
1.6214 -0.320289 1.28523
1.04018 0.0412258 0.0167131
1.50768 -0.243477 1.24446
2.89394 -0.720479 -0.329209
-3.42625 0.274787 2.37596
-2.70501 0.680396 3.13934
-2.79537 0.62422 2.58332
1.65958 1.93199 3.35047
1.30359 1.94723 2.82043
1.67472 1.84424 2.76148
1.72503 1.7918 2.8271
0.201758 0.45649 2.1191
-1.42303 0.147254 -1.66125
1.00634 -0.103684 1.47716
1.68036 -0.0511653 1.33326
1.51196 -0.147234 0.920505
1.14498 0.0612091 -0.493641
2.2494 -0.176032 2.07381
2.0611 -0.181719 -0.550915
-2.59874 0.567449 2.64371
2.26421 1.93507 3.36167
-2.50698 0.492175 -0.838835
0.0184882 0.525498 2.08409
-0.59196 -0.114016 -0.81565
0.928824 -0.0924164 1.42397
1.2748 -0.142935 0.778455
1.0318 0.137283 -0.487126
1.00008 0.115568 -0.50202
2.07208 -0.12984 2.13065
1.98703 -0.422209 1.5045
2.04821 -0.202352 -0.509829
2.14292 -0.205642 -0.548027
2.19344 -0.25509 -0.527188
2.63598 -0.826006 0.704631
2.49312 -1.06873 -1.58104
3.33327 -1.31791 -1.29514
-2.99155 0.661589 2.61681
-0.0740775 0.549444 2.22231
-0.0984801 0.553998 2.04918
0.361741 -0.0795008 1.05777
0.876799 -0.0688254 1.22151
0.907654 -0.0592572 1.10569
0.926228 -0.028195 0.656154
0.895726 0.113736 -0.412397
1.66 -0.0208947 1.31543
2.22278 -0.166486 2.076
1.83999 -0.221276 1.39648
2.02416 -0.405644 1.10128
2.14954 -0.437412 0.958999
2.31214 -0.420412 -1.51175
2.31814 -1.00164 -1.63817
3.19551 -1.28993 -0.743972
-2.86277 0.771306 3.21458
-3.03113 0.71598 2.90389
-1.88472 0.330223 2.05864
-1.97052 0.339803 1.74391
-2.39886 0.455139 -0.139208
-0.252146 0.601987 2.0986
-0.00609008 0.521912 2.04766
0.879811 -0.0552689 1.5011
1.00424 -0.0850445 1.45906
-0.419348 -0.171278 -1.09373
-0.365677 -0.177284 -1.30827
2.02876 -0.421459 1.64029
2.02109 -0.41235 1.34789
2.65767 -0.806594 0.543231
2.64048 -0.723353 0.24355
3.40372 -1.35124 -1.03363
-2.71638 0.575893 2.29836
-0.578205 0.705301 2.08075
1.0316 -0.0964762 1.64261
2.03719 -0.122757 2.21056
1.21845 -0.205512 0.186123
2.13606 -0.446385 1.26125
2.94415 -1.19491 -1.15047
-0.355291 0.421325 0.738016
0.968466 -0.0862128 1.55551
1.48399 -0.191387 0.799059
2.21719 -0.159215 2.09914
2.752 -0.699339 0.159056
2.91979 -1.20682 -1.22666
-2.86482 0.799473 3.23826
-3.00693 0.718499 3.00019
3.64304 -1.41816 -1.60393
-2.99548 0.628757 2.85164
1.01324 -0.0758969 0.214288
1.66682 1.94974 3.34023
-2.70326 0.703505 3.17732
-2.73303 0.661823 3.13102
1.62106 1.82659 2.96739
1.31588 1.93074 2.80991
1.6584 1.82922 2.93065
1.72015 1.80688 2.81593
-2.80121 0.624366 2.59112
1.96865 1.74132 2.82622
2.07748 1.7044 2.85234
2.38117 1.61 2.59917
-1.88869 0.330069 2.10314
-0.465013 0.678917 2.18656
-0.443634 0.662833 2.17716
-1.85182 0.281976 1.38167
-1.98799 0.324975 0.674775
1.62296 0.0227312 2.16941
1.53041 0.0669216 1.97214
0.438876 -0.148911 1.59082
2.05115 -0.129146 2.18379
0.943623 -0.102281 1.6209
0.821879 -0.0311409 1.46692
0.346161 0.0237592 1.15669
0.867936 -0.0582606 1.45753
0.951609 -0.0800177 1.44839
1.19894 -0.138227 1.46069
-0.00364855 0.049847 0.688341
-1.2783 0.0994418 0.0389877
-2.17522 0.40472 -0.557826
0.371745 -0.0950676 0.887367
1.66287 -0.0558774 1.40242
-2.71603 0.549951 -1.08159
1.65933 -0.00972617 1.32933
1.66407 -0.000688208 1.31286
0.943352 -0.0621945 0.936286
-1.8955 0.301744 -0.767895
1.94613 -0.387252 1.48662
1.94555 -0.404295 1.46419
1.94835 -0.399847 1.44362
0.893219 -0.0821139 0.732733
2.12531 -0.464488 1.50019
2.12709 -0.446013 1.46243
1.06695 -0.119711 0.691186
-1.46844 0.176454 -0.838912
-1.48428 0.157806 -0.825228
-1.36313 0.144215 -0.845471
-1.13523 0.0351022 -0.726538
-1.0963 0.0321754 -0.733902
-2.59446 0.526253 -1.88003
2.19173 -0.483479 1.22268
1.99596 -0.395688 0.93338
-2.18796 0.394739 -1.84824
2.35176 -0.732722 1.27783
2.33563 -0.70483 1.26039
2.09709 -0.438551 0.9789
-1.45825 0.141463 -1.57094
-1.16874 0.0603956 -1.51435
2.19703 -0.472053 0.698121
-1.43306 0.157704 -2.06497
1.05837 0.0913566 -0.507093
1.67176 -0.31508 0.0405891
-1.426 0.150451 -2.10097
-1.10797 0.0638774 -2.0298
-0.264236 -0.201275 -1.87735
0.0180476 -0.300653 -1.81987
2.75875 -1.16159 -1.22548
2.27861 -1.02696 -1.80417
2.32806 -1.01616 -1.81156
2.974 -1.21136 -1.22881
3.22289 -1.28791 -1.13459
3.0356 -1.22761 -1.38465
2.91757 -1.19037 -1.50304
3.63729 -1.43831 -1.54465
1.67232 1.84641 2.75234
2.05139 1.72183 2.93004
-2.83877 0.634659 2.58448
-2.61433 0.560887 2.59787
-2.20324 0.417909 2.15889
-1.94744 0.344853 2.14066
-0.58724 0.719781 2.12708
0.0134089 0.520287 2.19269
-0.0743236 0.555809 2.03946
0.627148 0.326644 2.18691
0.683171 0.314822 2.17692
0.800398 0.272041 2.10597
-2.52299 0.495236 0.541782
1.03876 0.188369 2.04019
-2.02025 0.352244 0.710861
0.0123923 -0.0154969 1.58007
-0.415214 0.552667 0.838844
-2.48804 0.494166 -0.201013
2.2185 -0.170808 2.06893
1.04127 -0.11604 1.45673
0.0818695 -0.0299317 0.928327
0.121844 -0.0300804 0.892076
0.128184 -0.0337797 0.880902
1.72291 -0.0983654 1.37665
1.6264 -0.046723 1.26517
1.92551 -0.355463 1.46857
0.901608 -0.0107933 0.650619
2.07619 -0.432131 1.46071
0.302214 0.0322565 0.226003
-1.70069 0.236225 -1.23315
2.21775 -0.480927 1.23413
-0.899601 -0.000611914 -1.20699
2.02493 -0.355391 0.647496
-1.27511 0.0861724 -1.53353
1.02366 0.132956 -0.528077
1.0597 0.108285 -0.509095
-0.354107 -0.179647 -1.23415
1.18684 0.0507473 -0.580942
-0.639148 -0.107368 -1.83407
-0.62721 -0.111634 -1.82973
1.72872 -0.281676 -0.283483
2.41552 -0.730808 0.288881
-0.257788 -0.233883 -1.84432
2.04972 -0.191395 -0.58353
1.54371 -0.00508846 -1.31718
3.10667 -1.24737 -1.20116
2.9813 -1.23292 -1.44446
-2.96941 0.672922 3.07417
-0.113123 0.546452 2.15835
-1.98147 0.357961 1.65225
-1.72347 0.249865 1.17898
-1.74234 0.282598 1.14996
-2.43693 0.484816 0.655724
1.1871 0.12801 2.00585
-0.14637 0.108797 1.11488
-1.95617 0.326513 0.054756
1.15957 -0.13861 1.51614
0.846232 -0.0461565 1.30317
0.111166 -0.0291554 0.858002
1.43173 -0.0498063 1.50632
-2.31807 0.441978 -0.58327
1.57846 0.0441783 1.409
1.7258 -0.0841671 1.46888
1.86579 -0.228676 1.50103
2.00108 -0.41049 1.5137
0.385552 -0.0613181 0.481634
0.91306 -0.0476118 0.610731
1.05951 -0.108436 0.685373
2.14874 -0.457576 1.22196
-2.03819 0.329976 -1.53476
-1.96738 0.313128 -1.57388
2.31417 -0.713978 1.02904
-0.484405 -0.138333 -1.16498
0.912207 0.13014 -0.482243
0.93071 0.138095 -0.522697
0.897675 0.118635 -0.552891
1.74556 -0.320396 -0.257432
2.38454 -0.731572 -0.0734376
2.05195 -0.197696 -0.552507
2.14278 -0.216118 -0.485938
2.21939 -0.267479 -0.48825
1.84688 -0.0159804 -1.13562
3.10995 -1.27545 -1.81341
3.46927 -1.38387 -1.85126
-2.96975 0.755985 3.12001
-0.588113 0.748867 2.12178
1.78426 -0.0512139 2.1625
1.55821 0.010898 2.02743
-0.22463 0.18234 1.09924
2.1865 -0.173973 2.08608
2.14794 -0.151214 2.03744
1.78644 -0.155801 1.48113
1.67616 -0.0211932 1.36623
1.68432 -0.0630337 1.33896
2.071 -0.433014 1.64468
2.05353 -0.414447 1.59636
0.332739 -0.0421025 0.514939
-2.00951 0.340558 -1.27274
0.274663 0.132683 -0.238559
1.9966 -0.412149 0.974654
-0.652908 -0.122264 -0.861089
0.300446 0.205982 -0.55037
1.98145 -0.372393 0.702623
-0.539476 -0.143774 -1.20029
-0.410435 -0.155349 -1.15231
1.82345 -0.36582 0.250028
1.55402 -0.29983 -0.00278203
-0.372593 -0.161233 -1.32016
2.15362 -0.19862 -0.538016
1.63278 0.0439609 -1.50699
2.91861 -1.20326 -0.145598
2.51419 -0.535816 -0.714376
2.93895 -0.558602 -0.513324
2.55279 -1.10271 -0.981013
3.16316 -1.27583 -0.880659
2.39745 -1.03912 -1.64209
2.9144 -1.2022 -1.25251
2.88223 -1.18706 -1.67986
1.7533 1.79059 2.82227
-2.71384 0.578379 2.32395
-0.544748 0.703564 2.19978
-1.84319 0.314986 2.05693
0.275254 0.469618 2.04652
0.759533 0.293749 2.2011
-1.61563 0.21366 0.710094
-1.50672 0.197423 0.726418
0.191668 -0.0641676 1.43783
-0.373442 0.506884 0.832537
1.83888 -0.0581347 2.03013
-1.7407 0.295033 -0.104755
0.942391 -0.0561654 0.988013
0.98629 -0.099053 0.967701
-1.39724 0.149614 -0.75999
2.34677 -0.699484 1.27884
2.05428 -0.404185 0.849894
2.11674 -0.423923 0.708398
2.52153 -0.750258 0.718486
1.70976 -0.301325 -0.17212
1.60099 -0.080917 -0.844548
2.0755 -0.191464 -0.577936
-2.97316 0.644901 3.04419
0.038914 0.524438 2.10985
-1.38438 0.180826 1.37074
-1.5372 0.198004 1.10313
1.95103 -0.399447 1.5019
2.03326 -0.398102 0.78402
2.332 -0.714838 0.253095
2.19924 -0.299036 -0.934621
-2.03203 0.349401 1.75186
0.370944 0.405361 2.07686
0.189074 0.35172 1.98789
-1.38987 0.128962 1.13776
1.61811 0.0264047 2.05941
0.976254 -0.0796858 1.56922
1.94285 -0.378536 0.624903
1.19259 0.00239313 -0.516489
1.48911 -0.234788 -0.255559
2.38002 -0.514301 -0.853278
2.95214 -1.18528 -0.281732
2.5303 -0.317845 -1.20756
2.10852 -0.15405 2.05223
3.69584 -1.43791 -1.7641
1.8036 -0.292947 1.3691
1.5253 -0.148148 0.910605
2.35786 -0.505006 -0.560225
1.25846 -0.217226 0.996202
1.52233 -0.310203 -0.0905743
2.29165 -0.404256 -0.890978
1.52381 -0.27918 1.05592
2.02585 -0.451416 0.38337
2.85495 -0.735903 0.313355
2.69439 -0.658605 0.0890669
3.60663 -1.42804 -1.56807
3.25004 -1.28598 -1.56695
3.16354 -1.2596 -1.42018
3.21948 -1.29148 -1.36437
2.74327 -1.15735 -1.44582
-0.0783939 -0.283025 -1.83249
-0.280546 -0.216741 -1.86232
-0.420862 -0.170121 -1.83262
-2.18484 0.395483 -1.857
3.04295 -1.25042 -0.777749
-0.320414 -0.183355 -1.2788
-2.29661 0.438422 -1.52776
-0.624391 -0.0938574 -1.23469
-0.585899 -0.12044 -1.21683
-1.33404 0.107171 -0.851774
1.15794 -0.121634 -0.341273
-1.78456 0.235881 -0.837963
1.30911 -0.177028 -0.257509
-1.2495 0.104873 -0.541361
1.62707 -0.268596 -0.0589549
2.34611 -0.738334 0.0690389
1.69326 -0.30843 0.0442876
-2.17662 0.380692 -0.49812
0.346268 0.00213278 0.0833651
1.38542 -0.233326 0.373995
-2.5858 0.524255 0.403902
-0.447002 0.529873 0.914453
0.891699 -0.0761372 1.10539
2.32041 -0.710465 1.24107
-2.43587 0.516562 0.992844
-0.0197295 0.0703214 1.3768
-0.294037 0.101734 1.37337
2.19147 -0.464753 1.47498
-1.41599 0.157444 1.33069
2.14738 -0.452417 1.50098
-0.370235 0.316751 1.55332
-2.52137 0.486212 1.62698
-2.45107 0.498347 1.64404
-1.96265 0.351186 2.01628
-2.14033 0.408826 2.0062
1.66081 -0.0180031 2.05928
-0.251283 0.585109 2.09218
-2.571 0.542193 2.1355
-1.92886 0.326182 2.15985
-2.59041 0.53322 2.18062
1.26011 0.135758 2.17514
0.59401 0.336965 2.18698
1.18778 0.141619 2.19155
0.147055 0.475358 2.25123
1.12498 0.281355 2.32576
-2.78076 0.609911 2.61534
2.16869 1.67568 2.81663
2.7351 -1.14045 -1.31536
2.93741 -1.18347 -1.22185
3.01993 -1.24167 -0.874803
-0.375885 -0.175727 -1.18941
0.969227 0.145763 -0.515501
-0.948118 -0.0202109 -0.816717
2.91632 -1.20217 -0.192977
-1.00279 0.0277818 -0.727518
1.57654 -0.278721 -0.0312691
1.40208 -0.221804 -0.050911
1.68468 -0.295398 0.0388011
-1.55281 0.196679 -0.212227
2.02673 -0.360124 0.626917
2.65666 -0.813653 0.729024
2.2843 -0.697073 1.04624
2.52974 -0.749143 1.07993
1.97178 -0.394102 1.21738
1.66806 -0.065189 1.26599
0.0203249 -0.0159308 1.22755
0.419602 -0.101443 1.28932
-1.72299 0.248133 1.41673
-0.487739 0.350799 1.63724
2.20049 -0.188033 2.09511
-2.03071 0.361597 2.1451
-2.97077 0.718762 3.07498
2.93625 -1.17949 -1.39319
0.693489 0.356589 -1.14034
3.13214 -1.28132 -0.417229
1.5681 -0.265035 -0.418642
2.89331 -1.1758 -0.205143
1.35561 -0.219923 0.0198831
1.04456 -0.117105 0.6818
-2.23581 0.406119 0.688292
1.82689 -0.263661 1.51405
-2.06942 0.357249 1.59141
-1.78924 0.295837 1.83933
-0.252939 0.473219 1.93355
0.626574 0.148423 1.95089
1.80904 -0.064779 2.0353
-2.15904 0.406594 2.17095
-0.405567 0.664797 2.30254
-1.17225 1.55517 3.32949
3.62809 -1.43893 -1.60216
-0.377857 -0.197164 -1.83566
3.41247 -1.36033 -1.0165
0.800684 0.309789 -1.12664
2.89439 -1.1949 -0.219235
-1.57384 0.155751 -0.203845
2.33932 -0.373146 0.377569
-2.25422 0.400606 -0.163061
0.953763 -0.0790211 1.16879
2.01082 -0.131011 2.00717
0.591403 0.334915 1.99461
1.46457 0.0628351 2.23509
1.41793 1.88958 2.82711
2.36618 -1.04482 -1.60518
-0.408752 -0.153772 -1.83467
2.0967 -0.27079 -0.39197
-1.31883 0.129526 -0.796841
1.74494 -0.325739 0.00159081
-1.65208 0.260405 -0.173615
1.61749 -0.358545 0.690269
2.05066 -0.422517 1.16416
-2.30795 0.453409 1.64892
-0.27417 0.643262 1.96375
2.17497 -0.149368 2.06458
2.90601 -1.22408 -1.59704
0.962916 0.0688775 -0.400019
0.942292 0.0573133 -0.359028
1.50281 -0.230089 0.57168
2.40694 -0.738927 1.30065
-0.696802 0.333736 1.16863
1.77808 -0.239176 1.54625
1.97384 -0.415785 0.892272
1.72082 -0.0962626 1.48773
0.684813 0.330401 2.19738
1.54895 1.86754 2.81423
1.11641 -0.0324799 -0.244152
2.04253 -0.391425 1.49311
2.05152 -0.386315 0.407374
-0.336294 0.647759 2.06621
2.2965 -0.491855 -0.516276
2.46206 -0.507351 -0.392661
1.76903 -0.40753 0.875906
1.00571 -0.195991 1.20627
1.8061 -0.460694 1.20839
-2.24046 0.400296 -1.85012
-1.07866 0.0209812 -2.01427
-1.83132 0.289458 -1.4071
-2.07816 0.345657 -1.24797
-1.96723 0.314736 -1.23425
2.06003 -0.345189 -1.64752
-2.1094 0.371504 -0.827623
-1.52199 0.165341 -0.883226
-1.77068 0.282714 -0.769141
1.31509 -0.0244605 -0.881584
1.57617 -0.085507 -0.885161
3.19357 -1.29092 -1.54238
-2.45397 0.467589 -0.181691
-1.88757 0.336446 -0.192358
1.17963 0.0397571 -0.522281
2.74956 -1.14856 -1.23721
3.20271 -1.26572 -1.28834
2.87124 -1.18855 -1.21074
0.326247 0.101404 -0.246988
-1.5988 0.210225 0.025706
2.08843 -0.221269 -0.546788
-1.59991 0.231002 0.0417281
2.00135 -0.193091 -0.460464
2.88521 -1.20666 -1.09801
1.16069 -0.128152 -0.334063
-1.16667 0.0889514 0.0683363
1.32505 -0.188529 -0.280802
3.28187 -1.30395 -1.05014
1.34883 -0.211075 -0.257022
-2.56751 0.526622 0.589633
-2.50005 0.513897 0.586428
1.71829 -0.297426 -0.288884
1.69308 -0.297616 -0.261391
3.0263 -1.28433 -0.881112
-2.53905 0.516977 0.670266
0.236029 0.134189 0.186978
0.367339 -0.0673787 0.230413
1.60299 -0.287533 -0.0160174
1.65108 -0.295387 -0.00587992
0.215571 -0.0279385 0.502804
3.10839 -1.25402 -0.419531
1.04307 -0.0776278 0.622549
-0.147325 0.098224 1.09004
-1.95619 0.333446 1.64959
-2.02955 0.381661 1.83107
-2.63596 0.570362 2.16887
1.66373 -0.261017 0.947405
-0.000663544 -0.0356127 1.56731
1.6235 -0.0764233 1.23327
2.01452 -0.396665 1.08443
2.5655 -0.784391 0.829831
0.987202 -0.0940767 1.47113
1.14829 -0.155344 1.51073
2.1919 -0.472955 1.22588
1.81302 -0.210581 1.44228
2.0304 -0.414743 1.43631
2.14818 -0.454944 1.49772
1.53184 1.88329 2.59003
1.71135 1.82887 2.59882
1.24444 0.138462 2.18012
2.02145 -0.106509 2.089
2.18371 -0.159393 2.06211
2.06816 1.69674 2.73394
1.62848 1.84859 2.96663
2.1164 1.69029 2.81233
-1.2277 0.0965121 -1.53061
-1.20662 0.101884 -1.47224
-1.11711 0.0688651 -1.50153
-0.57022 -0.114828 -1.57604
-1.48587 0.175535 -1.21071
1.6147 -0.0494944 -1.31193
-0.824117 -0.0410067 -1.21687
-2.29439 0.45462 -0.838441
2.84824 -1.1942 -1.56194
-0.781744 -0.037913 -0.679841
-1.26172 0.0900891 -0.515644
3.316 -1.32114 -1.54117
3.27724 -1.30906 -1.49843
0.950738 0.143748 -0.508028
3.29103 -1.30636 -1.42715
2.20438 -0.24305 -0.585539
3.0857 -1.25992 -1.06542
1.50746 -0.246839 -0.0647892
0.0174296 0.0557035 0.49851
-1.78669 0.295779 1.02183
0.912884 -0.0477721 0.616322
-1.71116 0.239576 1.18515
0.854164 -0.0656029 0.714788
0.423205 -0.0992952 1.15202
0.441357 -0.131778 1.20929
1.04123 -0.104212 1.21536
2.06992 -0.429713 0.893759
2.16649 -0.444153 0.955264
2.11923 -0.447887 0.985919
1.01187 -0.109279 1.50988
0.696204 0.309567 2.19013
2.04906 -0.415748 1.5951
1.11577 0.297732 2.34802
2.22944 -0.202399 2.09976
-2.27056 0.439381 -0.696524
2.27671 -0.941368 -1.6015
1.95407 -0.186943 -0.55703
2.21536 -0.30029 -0.361179
1.32955 -0.159234 -0.15824
-0.411335 0.52153 0.7603
-1.46772 0.198167 1.28895
0.347235 -0.112549 0.881106
0.421727 -0.111333 0.911998
0.909579 -0.063069 1.11887
2.17072 -0.458886 1.00541
1.45867 -0.0801951 1.51219
-2.87649 0.91398 3.30754
1.36265 1.9514 2.60123
-1.17881 1.60815 3.31895
1.42148 1.9014 2.81904
2.16454 2.07276 3.35218
-2.28083 0.47375 -2.02526
-1.46071 0.178471 -0.754826
2.55741 -0.325578 -1.21364
0.951911 0.172325 -0.733164
-2.36361 0.446046 -0.147058
0.82881 0.0433095 0.415896
1.48354 -0.234529 0.449068
-1.81423 0.265848 1.47921
-1.34079 0.154411 1.42997
-2.05228 0.382008 1.91958
-1.79865 0.270592 1.87068
-0.546327 0.706556 2.14025
-2.87247 0.814585 3.29296
1.80863 -0.0585867 2.2049
2.21233 -0.400347 -1.51987
1.3503 -0.219187 0.401295
-1.58775 0.203794 1.16345
0.992528 -0.0758387 0.628484
-0.630767 0.564621 1.92746
1.84181 -0.204958 1.49828
-2.93124 0.907378 3.28415
1.73089 1.79976 2.75072
1.63166 -0.113351 -1.32853
1.14736 -0.119404 -0.213188
0.293765 0.125627 0.155315
-1.65541 0.200963 0.787968
1.89145 -0.35047 0.316408
2.73373 -0.647235 0.173675
-2.9563 0.980548 3.26218
2.1803 -0.480212 0.62603
1.50096 -0.230652 0.700082
2.02311 -0.0852867 2.25045
1.49877 -0.207462 1.22092
1.45616 0.0899842 -1.45097
2.42974 -0.672409 -0.78785
-1.67002 0.222739 -1.43273
-1.66039 0.230467 -1.40706
-1.5967 0.219921 -0.0108761
1.32842 0.0203031 -1.34841
0.753695 0.0961726 -0.757132
1.19014 0.053553 -0.514503
-2.79785 0.587424 2.57374
0.00842497 0.0504402 0.494277
1.18041 -0.142288 0.00961467
-2.70692 0.701577 3.17987
-2.70272 0.618227 3.10996
2.15451 -0.190653 -0.513432
1.65036 -0.313764 0.0101201
1.29567 1.95671 2.81726
3.26801 -1.32194 -1.52782
1.56487 -0.138508 0.957937
0.576968 0.336182 2.23648
1.64015 -0.0385863 1.23212
3.14123 -1.25883 -0.871764
3.12295 -1.26688 -0.841001
3.17505 -1.26728 -0.827279
2.52529 -0.768028 0.708237
2.53571 -0.770633 0.886706
1.81969 -0.029492 2.25102
-0.58484 -0.118246 -1.82429
-1.36779 0.120659 0.353975
1.11494 0.0847648 -0.449424
-1.66623 0.236243 1.36907
-1.93385 0.328662 1.63348
-0.271538 0.269503 0.907524
-3.01609 0.748452 3.11738
2.12953 -0.227915 -0.515499
-0.41065 0.641899 2.11538
0.871094 -0.00426639 0.639407
1.59271 -0.265985 -0.0190613
2.83148 -1.1853 -1.54258
2.79974 -1.16793 -1.2889
2.86829 -1.17661 -1.07159
0.904824 -0.0527264 1.44852
1.58151 -0.177808 0.970143
1.9176 -0.417668 0.674138
1.68497 -0.107856 1.28117
2.17938 -0.439642 0.699384
2.17985 -0.479528 0.711652
2.11418 -0.441811 0.937119
2.02274 -0.432293 1.11262
2.28522 -0.689465 0.733577
2.11836 -0.451114 1.24068
2.00994 -0.415022 1.44531
2.16452 -0.45082 1.45926
2.57989 -0.77521 1.06074
-0.374334 -0.165163 -1.6376
-1.38417 0.128078 -0.153298
-2.15871 0.420177 0.99516
1.6456 -0.074824 -1.35451
1.62827 -0.0616576 -1.28751
1.83265 -0.123484 -1.29272
0.972724 0.0990108 -0.45853
-0.792955 -0.0339571 0.341025
-0.783932 -0.0494982 0.374659
-2.07939 0.371012 1.756
-0.464254 0.689187 2.20211
1.05368 -0.113092 0.974633
2.97688 -1.19898 -1.24562
1.5808 -0.151868 0.94185
3.62417 -1.42901 -1.66161
2.12968 -0.455034 0.778996
2.14445 -0.440464 1.27038
2.39452 -0.736299 0.95374
-1.44647 0.148374 -1.18852
-0.705455 -0.0583855 -0.713611
-1.9213 0.334575 2.12652
-2.85213 0.810587 3.25699
2.10645 -0.22115 -0.606002
-0.443649 0.650479 1.98995
-0.414003 0.65793 1.98008
1.13571 -0.13444 0.28768
-0.0678729 0.545231 2.10477
2.05347 -0.430811 1.1124
2.10589 -0.452319 1.07685
2.03449 -0.394935 1.51019
2.09336 -0.458338 1.56109
2.37812 -0.735952 1.4901
0.947777 0.25463 -1.25698
-3.06256 0.722931 2.93953
2.15427 -0.224986 -0.576481
-0.574407 0.707478 2.12962
2.2272 -0.317512 -0.388385
1.51834 -0.323143 0.680337
0.791186 0.266669 2.13997
1.69655 -0.092198 1.34388
-2.81141 0.741243 3.13977
1.51574 -0.255521 -0.243867
-0.267809 0.296548 0.984568
-2.95979 0.884112 3.21124
-2.92787 0.709339 3.09285
1.27562 -0.235378 0.454474
1.89365 -0.392749 0.240246
0.991034 0.0505909 -0.490995
2.7261 -0.926968 -0.00088827
1.70601 -0.144869 -0.0821148
2.77795 -0.629473 -0.346767
2.75509 -1.10669 -0.97265
-2.67246 0.562091 -0.603756
-3.0025 0.72752 2.75608
-3.00632 0.693445 2.76084
-1.45163 0.154003 -1.61956
-1.42225 0.148987 -0.932056
-2.15488 0.424276 1.95722
-1.91568 0.330569 1.99923
1.6259 1.85514 2.9632
0.921124 0.10704 -0.411644
1.3475 0.0280288 -1.3432
1.18757 -0.134396 0.00425407
1.61323 -0.0279833 1.28731
1.63441 -0.0324475 1.2277
2.13149 -0.220779 -0.470428
1.88528 -0.0486218 2.30672
2.95824 -1.22199 -1.36071
3.1174 -1.26982 -0.863119
-2.06851 0.397495 2.01756
0.988028 0.103452 -0.497811
1.1459 -0.0116612 -0.213942
0.404221 -0.114587 1.28267
2.01652 -0.386561 0.956572
2.63199 -0.808142 0.890893
-1.96177 0.360728 1.96887
-1.94811 0.36461 2.01868
1.31801 1.92623 2.93884
1.26173 -0.189996 -0.163763
1.03525 -0.106411 1.26746
-0.716369 -0.0724618 -0.6795
-0.0823459 0.544957 2.05017
0.943295 -0.0828892 1.35228
2.94228 -0.582894 -0.485359
2.93205 -1.20954 -1.23342
-2.85655 1.03142 3.24431
-1.84288 0.303704 2.05175
1.60212 -0.347643 0.65457
-1.38004 0.143111 1.36674
1.83176 -0.338037 0.0478614
2.24532 -0.455649 -0.325117
2.2455 -0.657002 0.465219
1.52999 -0.289385 0.74991
-0.717541 0.173571 1.06476
1.63068 1.84822 2.93681
1.70477 1.79959 2.828
-2.02866 0.366879 0.713038
-1.86232 0.313927 0.417678
-1.12539 0.0687831 -2.02357
0.07486 -0.00819075 1.2786
-0.8829 -0.0207755 -1.56699
-0.456821 -0.166577 -0.984265
1.54338 0.0471729 1.99973
0.903071 0.144677 -0.542738
1.66753 -0.0545222 1.25191
1.56457 -0.260375 -0.0235917
1.94488 -0.397466 1.46541
1.96772 -0.402486 1.46482
1.67669 -0.311536 0.0202361
2.15688 -0.46645 1.4558
2.06632 -0.190071 -0.535275
2.12708 -0.202686 -0.555031
2.15511 -0.195238 -0.549629
2.1639 -0.228606 -0.496647
2.33866 -1.00169 -1.77262
3.32565 -1.3401 -1.28542
3.35453 -1.31746 -1.45674
-2.49142 0.498309 0.035155
-2.28584 0.419744 -0.765174
-2.21507 0.398188 -0.740897
-1.25722 0.0950473 0.369285
0.803219 0.291374 2.10437
-0.434397 -0.155825 -1.03608
0.346545 -0.106157 0.899865
0.810612 -0.0721041 1.49156
0.813056 -0.0303522 1.21354
0.826512 -0.0288569 0.946726
1.01982 -0.0914265 1.49928
0.918213 -0.0765273 0.955012
1.00172 -0.106712 1.22094
0.892426 0.143968 -0.523279
1.60292 -0.172135 0.958317
1.82915 -0.216684 1.42385
1.7561 -0.342765 0.0851565
2.03715 -0.233369 -0.354063
2.17654 -0.22927 -0.536363
2.27748 -0.694643 0.73024
2.52677 -0.768783 0.890332
-0.412248 0.422776 0.789442
1.18602 0.0113558 -0.541354
1.70843 -0.0722672 1.37602
2.05263 -0.220399 1.91921
2.02316 -0.426679 0.823606
2.09406 -0.195593 -0.594334
1.94801 -0.339378 -1.61449
3.38506 -1.34263 -0.998738
-3.01792 0.722423 2.89323
0.16487 0.483809 2.05474
1.50547 -0.2261 0.507172
2.0428 -0.217166 1.93537
1.97786 -0.393932 0.735889
3.38616 -1.35676 -1.05081
1.44934 -0.253368 0.440471
1.96245 -0.371179 1.40818
1.87445 -0.370692 0.314937
2.14864 -0.449857 1.58539
2.06791 -0.396053 0.697847
2.91888 -1.19907 -1.20989
1.39359 -0.123423 0.802556
1.63001 -0.344845 1.24792
2.23334 -0.293957 -0.899719
3.65735 -1.45191 -1.78164
2.26115 -0.523273 -0.802392
2.9532 -0.751942 0.122047
1.71271 1.81245 2.76265
-2.48803 0.509331 2.14153
-1.84568 0.312141 0.406642
0.814209 0.271374 2.09696
-0.429268 0.534731 0.812656
-2.64132 0.54884 -0.838315
-2.29841 0.429284 -0.585812
-1.74431 0.27158 -0.187956
0.43719 -0.128605 1.58327
-1.9927 0.34353 -0.901905
1.92681 -0.0959841 2.17896
1.00279 -0.103653 1.20996
1.62105 0.0311607 1.26838
1.66037 -0.012118 1.31094
1.69595 -0.0761315 1.36182
1.67087 -0.0627772 1.26078
-1.24226 0.0944417 -1.43863
1.8019 -0.21948 1.40093
2.05399 -0.412844 0.952305
1.15323 0.0768216 -0.471467
1.77058 -0.329165 0.130255
1.56207 -0.0874983 -0.846639
2.43138 -0.733571 0.285672
2.11884 -0.205421 -0.538179
2.16004 -0.215197 -0.500282
2.18509 -0.232417 -0.559798
2.35521 -0.998949 -1.80707
2.80433 -1.17878 -1.23414
2.64212 -1.09714 -1.6487
2.98802 -1.20534 -1.4318
-1.94356 0.323169 2.1561
-0.108646 0.546337 2.15803
-0.0644378 0.557825 2.19784
0.285513 0.440878 2.02893
-2.75347 0.58331 -0.181746
1.14573 0.166768 2.17163
-1.69206 0.25179 -0.108059
-2.25277 0.414349 -0.807276
1.43257 0.0739053 2.09622
0.85752 -0.0464636 1.46333
0.967911 -0.0830761 1.42428
-1.14637 0.0660957 -0.71604
-0.658108 -0.0880219 -0.19009
0.899539 -0.0592982 0.945631
1.02957 -0.0984427 0.741156
-0.444525 -0.139334 -1.15451
0.879181 0.150975 -0.576153
-0.63615 -0.0892864 -1.83244
2.1695 -0.444032 0.91108
-0.184164 -0.238898 -1.85557
2.28465 -0.696867 0.716624
2.6066 -0.767456 0.798925
2.08432 -0.19843 -0.433835
2.05671 -0.185853 -0.534698
2.15939 -0.271164 -0.401836
2.14371 -0.226206 -0.483327
2.4089 -0.722665 -0.0637514
1.82455 -0.10784 -1.33091
2.27481 -0.388046 -1.52243
3.04931 -1.22552 -0.781958
3.24393 -1.28883 -0.745613
-2.90598 0.828158 3.26378
-2.03762 0.345463 0.726156
-1.76406 0.274838 0.58719
0.0120508 0.0438903 1.42587
-2.28609 0.427986 -0.75905
0.882336 -0.0600602 1.50814
1.69736 -0.0138918 1.33954
1.02678 -0.0981079 0.71761
1.97879 -0.406763 1.24966
1.95963 -0.39839 1.20808
-0.365711 -0.196422 -1.31848
1.48252 -0.267249 0.457954
2.07985 -0.424483 1.18531
2.07389 -0.428292 0.941822
2.15444 -0.447329 0.716005
1.83629 -0.346309 0.248745
2.36777 -0.720659 0.7651
2.62261 -0.789667 0.873198
2.15416 -0.219056 -0.543107
2.91366 -1.21829 -0.158245
2.33404 -0.445707 -1.53817
2.93163 -1.21636 -1.53339
3.41925 -1.34696 -0.996256
-2.94533 0.848564 3.25819
1.9616 1.7417 2.83269
-1.8213 0.324262 2.055
-0.551174 0.727221 2.22235
-0.406015 0.493486 0.821754
-0.447838 0.358094 0.759433
2.13891 -0.140521 2.06294
2.13776 -0.442788 1.41765
2.13909 -0.457803 1.17375
1.0075 0.139484 -0.571302
2.1437 -0.466376 0.90934
1.74841 -0.317766 -0.190689
2.35003 -0.71281 0.775252
2.56007 -0.78201 0.785773
2.50684 -0.776337 0.731981
2.15183 -0.226967 -0.551046
2.01933 -0.111475 2.1016
1.67394 -0.0381953 1.32505
0.43195 -0.112264 0.141339
2.11547 -0.443824 1.56162
1.63353 -0.289006 -0.00321464
2.51379 -0.768732 0.669951
2.75282 -0.821945 0.498649
2.81853 -1.1634 -1.30479
3.34716 -1.34299 -1.01257
