0.200986 2.25465 3.35284
-0.476714 0.318809 2.15796
1.77669 -0.867291 -0.683167
-0.0282139 0.48071 2.69869
0.534786 0.00340879 2.15423
0.651487 -0.0312906 2.0082
1.13019 -0.318191 1.6126
-3.51571 0.79741 2.47777
-1.14881 0.399209 1.1058
-1.50031 0.950409 2.5656
-0.438013 0.313109 2.02604
-0.484614 0.321409 2.12309
-0.448815 0.308009 2.10974
1.40279 -0.763291 -0.564727
0.517286 0.0133089 1.68884
1.68289 -0.848291 -0.254477
0.668986 -0.0326906 1.58807
0.389587 0.362409 2.73636
0.880386 -0.298791 2.03079
0.919786 -0.310391 2.01045
-2.75261 0.533709 0.978883
-2.65971 0.52431 1.8483
1.29839 -0.242291 0.246013
0.229686 0.401809 2.51413
0.604585 -0.0149904 2.09088
1.03889 -0.337291 1.62894
-1.65841 0.664109 1.40088
1.36619 -0.259991 0.138853
0.062387 0.170909 1.04367
0.0466857 0.198409 1.57267
-4.10811 0.973009 -0.0871567
-3.12061 0.641809 0.377083
-3.58121 0.818309 2.4152
-3.54681 0.804809 2.4598
-1.82221 0.248309 -1.13105
-1.70161 1.02051 2.58916
-0.125514 0.448709 -0.812617
-1.10551 0.310809 1.26261
-1.10591 0.310409 1.41407
-0.650513 0.371509 1.73908
-0.570214 0.337609 1.74205
-0.453314 0.311809 1.76319
0.583486 0.222609 0.0176633
0.666186 -0.0376908 1.7653
0.721486 -0.0515906 2.00483
1.48889 -0.800891 -0.735667
1.68999 -0.853391 -0.262427
-2.69081 0.507409 0.886243
-2.69601 0.51451 0.943973
-2.64311 0.504309 1.8332
-1.16461 0.516109 0.284983
-1.10611 0.315709 0.847153
0.478986 0.0271095 1.70252
0.737486 -0.0499912 1.24016
-2.71881 0.52011 0.906613
-2.62901 0.510409 1.88378
-1.23851 0.610609 0.0803833
-1.18241 0.624209 0.0792332
-1.31131 0.395409 1.07046
-0.914814 0.255809 1.31668
-0.555914 0.342409 1.57412
-0.423514 0.307309 1.24466
0.0320868 0.169409 0.930583
0.253086 0.270909 1.85143
0.224086 0.411109 2.51164
0.658086 -0.0376908 1.58163
-3.56211 0.80791 2.32487
-2.08531 1.14611 2.79646
-0.419215 0.52781 -0.0488667
-0.299714 0.251509 1.97202
0.106885 0.129709 0.887263
-2.08391 0.318509 0.449193
-1.20441 0.467709 0.552503
0.967986 -0.323591 1.64857
-0.200614 0.109709 1.64412
-4.10931 0.972009 -0.0818266
-3.59241 0.81921 2.42756
-3.64101 0.811009 -0.955637
-3.46981 0.758709 1.25604
-2.07131 0.312609 0.402313
-1.90711 0.251209 -0.357267
-1.16611 0.523709 0.286993
-1.20861 0.340009 1.41986
-0.390114 0.494009 2.45219
-0.401314 0.291009 1.47445
-0.303614 0.265409 2.01145
-0.122513 0.448009 -0.770987
-0.0102143 0.345909 2.02174
0.366886 0.0669092 0.689503
0.648687 0.183509 0.0411533
0.681186 0.202809 0.00206336
-3.56281 0.809109 2.44555
-3.52491 0.780709 -0.554537
-2.76791 0.549709 1.3866
-1.17211 0.664309 0.0429133
1.09709 -0.370091 1.31004
1.71089 -0.864091 -0.295657
-3.56101 0.80721 2.29062
-0.951813 2.09329 3.63682
-0.568714 0.518809 -0.366457
0.912286 -0.307791 1.33706
-3.88111 0.885609 1.03595
-3.25841 0.717509 2.96263
-3.24941 0.683409 1.05049
-2.60951 0.498009 1.79787
-1.82351 0.813709 1.29867
-0.00341464 0.146009 1.05092
0.204486 0.0546087 1.38342
-1.90141 0.259609 -0.549057
-0.000113009 0.0963091 1.46389
-3.45841 0.767209 1.26601
-2.71521 0.51311 0.888793
-1.86721 0.916609 1.32638
-1.21191 0.338109 1.41827
-0.621415 0.363209 2.01539
-1.91981 0.251509 -0.632487
-0.536213 0.333509 2.00559
-0.456414 0.311309 2.15411
-0.625214 0.363009 1.4893
-0.557713 0.338609 1.62562
-1.66001 0.170909 -0.718367
-0.458514 0.317109 1.48092
0.321586 0.377109 2.70874
-0.309514 0.276009 0.170723
0.584886 -0.0105911 2.00389
0.318286 0.075209 0.584813
0.833686 -0.292791 1.81587
0.654485 0.187709 0.0507735
-2.04351 1.12461 2.58199
-0.551813 0.336409 2.01686
-0.641613 0.369409 1.74754
-0.553713 0.342009 1.48904
-0.253914 0.444109 -0.0479566
0.495487 0.0179094 2.00732
0.662386 -0.0361906 2.15137
0.584787 -0.00529062 1.48436
0.568487 -0.00299132 1.3669
0.375186 0.0636095 0.656683
0.741886 -0.0580908 1.7082
0.875486 -0.29729 1.79039
-3.15461 0.653009 0.362233
-2.29751 0.385209 -0.662827
-0.507714 0.328009 2.18427
-0.591414 0.357609 1.8329
-0.435315 0.305409 1.73365
0.252687 0.268309 1.85927
0.478786 0.0250095 1.71203
0.484086 0.033709 1.20129
1.68779 -0.861991 0.113183
0.229887 0.372509 1.87559
-0.283515 0.268009 0.656783
0.517786 0.0122093 1.76513
0.649286 0.187509 0.0283035
-0.561015 0.539409 0.0731032
0.0973868 0.106709 1.15708
1.05179 -0.320691 1.78298
0.219785 0.0642094 1.31582
0.255386 0.0733093 1.36703
0.764686 2.5042 3.8902
-3.89681 0.89441 0.928783
-3.46071 0.742809 -0.376037
-0.546315 0.552109 -0.0273368
-0.305714 0.274409 0.170683
0.273487 0.0900091 0.577413
1.18179 -0.698591 -1.12362
-3.99481 0.925309 2.33276
-2.83591 0.538809 0.560003
-1.21411 0.345309 1.41748
-0.550213 0.342209 2.01348
-1.04561 0.292509 1.41601
-0.553713 0.344209 1.48658
-0.0129132 0.342909 2.02308
-2.34761 0.408009 -0.688917
0.379587 0.168909 1.95201
0.566886 -0.00439131 2.01031
0.646387 -0.0279909 2.10911
0.674986 -0.0507914 2.14833
0.108686 0.0939087 1.2868
0.575185 -0.00709116 1.63854
0.568386 0.0084089 1.36261
0.662386 -0.0173908 1.19293
0.911886 -0.308091 1.28828
-0.109814 0.444009 -0.769227
0.656786 0.178009 0.0507234
1.49809 -0.805491 -1.16707
-3.80141 0.885709 3.1243
-3.80721 0.86211 1.18767
-1.49251 0.940609 2.74098
-1.48971 0.942509 2.5541
-1.65871 0.82761 2.44421
-1.14601 0.841509 2.59008
-1.82671 0.821509 1.22941
-1.22991 0.350509 1.99845
-0.445115 0.307309 1.71854
-0.496714 0.330109 1.64768
0.583086 -0.0130907 2.11801
-1.77731 0.220909 -0.704297
0.624385 -0.00089133 1.9377
0.784186 0.0791096 -0.270477
-1.46431 0.923609 2.56684
-2.86591 0.561509 -0.244527
0.0571857 0.452409 2.51898
0.616485 -0.0215908 2.08811
-0.424513 0.556009 -0.0426866
-1.11741 0.856309 2.53965
-1.83771 0.847209 1.25387
-0.372815 0.274509 1.97946
-0.043013 0.284609 1.3894
0.0650859 0.0985092 1.11514
0.821286 -0.245391 1.17431
0.489585 0.233009 0.0313333
0.0628867 0.135609 0.354893
-4.01871 0.952309 3.12458
0.595386 2.1229 3.45686
0.179685 2.24807 3.13817
-1.56051 0.971309 2.69433
-3.16151 0.660309 1.69999
-3.78841 0.853809 1.2026
-3.87181 0.88741 1.13837
-3.90101 0.894809 0.921783
-3.75731 0.85501 0.611593
-0.553513 0.342409 2.0087
-1.17961 0.330309 1.36879
-0.472813 0.305809 1.73659
-1.22281 0.340109 1.2556
0.373987 0.0974087 2.15892
-0.555415 0.346109 1.48134
0.179185 0.362009 1.76983
-0.387913 0.292409 1.4781
0.660686 -0.0360905 2.14089
-2.50851 0.447609 0.0109135
0.651685 -0.0217911 1.97478
0.698086 -0.0474907 1.97103
-2.92741 0.569909 -0.666237
-2.81941 0.549709 -0.676227
0.620286 -0.0064913 1.43951
0.733086 -0.0521914 1.48374
0.695386 -0.0432907 1.44897
-2.71211 0.514009 -0.998937
-0.291813 0.272209 0.512623
-1.87601 0.254709 -0.690247
-0.550614 0.545609 -0.0331465
-0.198214 0.269409 0.285603
-0.449013 0.539809 0.0117534
-0.301014 0.272209 0.173043
0.265485 0.0945095 0.570783
-0.375113 0.508609 -0.0420868
-1.05661 0.725309 -0.665397
0.261686 0.105209 0.237613
0.884186 -0.0867907 -0.309707
-3.43991 0.77011 2.21056
0.320087 0.385109 2.56406
-0.0223145 0.347109 2.01722
0.699986 -0.046991 2.1638
-0.470814 0.326409 1.22345
0.284687 0.0391087 1.7436
-2.40741 0.416609 -0.207437
0.653986 -0.0225912 1.22734
0.682686 -0.0107905 1.16677
-1.76351 0.216609 -0.855537
0.854086 -0.285291 0.375213
0.685186 0.148909 0.0978732
1.57859 -0.82819 -0.261237
1.53769 -0.811491 -0.721327
1.52439 -0.808091 -0.906067
-3.72811 0.835209 3.11934
-3.30871 0.722109 2.60679
-1.61811 0.990409 2.58257
-1.85631 0.901409 1.34984
-3.91141 0.890109 0.311883
-0.541214 0.333309 2.12105
0.581087 -0.0166909 2.16384
0.578487 -0.0120913 1.64311
0.618387 -0.0186907 1.64432
0.650486 -0.0178906 1.1976
0.632886 -0.00529062 1.1252
0.905286 -0.309191 1.27726
-0.377715 0.464209 0.169513
-1.76181 0.214909 -0.703747
-1.73381 0.210909 -0.723027
-1.64541 0.186609 -0.792227
0.287086 0.0775093 0.381873
-0.894114 0.759909 2.57139
0.575885 0.298309 2.62426
0.564685 0.00500905 1.82563
0.952486 -0.320191 1.89072
0.615285 0.216509 -0.0641767
-1.73241 1.02561 2.58186
-0.835413 0.745309 2.6579
-1.36641 0.396709 1.88635
-1.25991 0.291209 1.83299
-0.218914 2.42654 3.614
-1.15331 0.83321 2.53503
0.00278616 0.524809 2.80692
0.0368857 0.147509 0.406093
1.05749 -0.366991 1.17134
0.357486 0.237209 2.03742
-0.410414 0.46741 0.250653
1.47069 -0.316191 0.803813
0.245086 0.0650095 1.50462
-0.206614 0.373609 1.28132
1.21169 -0.248191 0.543483
1.08519 -0.375291 1.46966
-0.148114 2.34987 3.47553
0.798986 2.05483 3.36988
-3.16101 0.682109 2.87356
-3.24271 0.674109 2.36759
-0.805613 0.734709 2.71541
-3.22641 0.681309 1.9242
0.301786 0.376509 2.69073
0.351186 0.360909 2.55461
-3.20201 0.679409 1.54715
-3.82991 0.887909 1.19049
-3.48291 0.755109 1.22601
-3.26801 0.687909 1.1816
0.414686 0.156509 2.00782
0.181386 0.353309 1.77505
-0.386214 0.297209 1.47721
-3.93831 0.911409 0.322773
0.566387 0.00110948 1.6305
-3.23221 0.674809 0.340633
-1.96821 0.287709 0.618083
-3.59101 0.803609 0.00723348
-2.47741 0.439109 0.313323
-3.70411 0.806309 -0.206877
0.692086 -0.0360905 1.21529
-3.30131 0.699209 -0.234337
0.0094867 0.193909 0.908053
-2.00471 0.290409 0.0830133
-2.24551 0.364609 -0.171227
-2.61671 0.484209 -0.320647
-2.55221 0.462809 -0.321967
-3.14631 0.642109 -0.709897
-1.19041 0.67181 0.0113033
1.07359 -0.353591 0.866143
-2.79191 0.525909 -0.686977
-0.296614 0.273109 0.176993
-0.448815 0.542309 0.00889335
-2.14281 0.336009 -0.671337
0.260585 0.106209 0.235973
-1.99151 0.295509 -0.704217
-1.92501 0.251209 -0.690267
-1.83881 0.23571 -0.664907
-1.82411 0.232109 -0.764037
-2.38731 0.400409 -1.01053
-1.61091 0.14651 -0.720747
0.598285 0.194509 0.0402034
0.612386 0.20201 -0.0349065
0.643087 0.208009 -0.0533566
-1.82031 0.229309 -1.22434
0.422185 0.210309 -0.356627
0.847286 -0.0761906 -0.346027
1.81819 -0.911291 -0.201387
1.49599 -0.808891 -0.735857
-3.74501 0.857709 3.13175
-3.51941 0.801209 3.10226
-3.41381 0.757909 3.1257
-3.24361 0.684809 2.66544
-3.24541 0.695109 1.67586
-3.70521 0.826109 1.21207
-0.285714 0.245309 2.03059
0.0052867 0.340209 2.01414
0.378187 0.184909 1.95115
0.591285 -0.0149904 1.86401
0.686386 -0.0387913 1.4777
-3.70341 0.81361 -0.279187
-3.77511 0.868209 -0.309067
-3.71021 0.83681 -0.299497
-0.108115 0.195909 0.545973
-2.71081 0.515509 -1.0013
-1.77231 0.239409 -0.719157
0.715686 0.132209 0.127733
0.682686 0.154709 0.104743
1.51399 -0.801291 0.344713
1.49569 -0.800691 0.321133
1.48509 -0.786591 -0.854337
-0.213814 2.40148 3.60169
-2.77811 0.549409 1.94437
0.597187 0.287709 2.59349
-1.83791 0.820009 1.28901
0.210987 0.399509 1.87965
0.229387 0.322909 1.82337
0.641885 -0.00289118 1.44621
1.17559 -0.340891 0.973683
-0.381113 0.452909 0.123573
-0.570814 0.558209 -0.0029866
-0.286013 0.486109 -0.0292067
0.0626865 0.235609 0.108223
0.657486 0.149209 0.130393
0.718986 0.302909 -0.757927
0.758886 2.36906 3.87667
0.133087 0.438809 1.93928
-0.503615 0.342909 1.21709
1.13229 -0.377991 0.844493
-0.399615 0.48151 0.0915632
-0.558714 0.547209 -0.0836067
-0.458914 0.550509 -0.0572967
-0.236414 0.433909 -0.0150966
-1.68661 0.196509 -0.700487
0.646186 0.17951 0.0526634
0.976186 0.174509 -0.606437
-2.80831 0.54541 1.679
0.110086 0.0646089 1.16934
0.735686 0.0748094 0.0897632
0.714986 0.103609 -0.277737
1.03229 0.178609 -0.664327
1.50929 -0.801691 -0.606727
1.53939 -0.824191 -0.722967
-2.85091 0.563009 1.89142
0.986686 -0.328491 1.82692
-1.08441 0.320609 0.936983
0.538786 0.0369095 1.12429
0.393787 0.231009 -0.0518166
1.46929 -0.818291 -1.07199
0.0492854 0.223409 1.42339
0.226686 0.0727094 1.51437
0.338787 0.0807089 0.967453
0.193986 0.0919088 0.432233
-0.269015 0.322909 0.525703
1.51529 -0.806491 -0.739797
-2.65391 0.54751 -0.984647
-3.62321 0.79041 -0.988887
1.54269 -0.829891 -0.358707
-2.15371 0.305309 -0.667717
-3.59611 0.733309 -0.720937
0.698386 0.193009 -0.0422668
-3.51221 0.764609 -0.517747
0.686287 0.159809 0.107353
-3.74491 0.879509 -0.323427
-2.70921 0.505609 -0.000346593
-0.0102143 0.186409 0.354383
0.0570865 0.168509 0.355153
-1.16221 0.475609 0.554363
-1.95941 0.285809 0.634373
0.0123859 0.218709 0.909133
-3.79141 0.841609 0.631903
-0.0342144 0.164209 0.914493
-1.13091 0.305809 0.869373
-2.61831 0.482809 0.872963
-2.65801 0.516809 0.886403
-2.30641 0.39371 0.906523
-2.94601 0.581809 0.890673
0.559186 0.0247091 1.18764
0.602386 -0.0120913 1.21009
-0.587014 0.382909 1.16597
-0.557213 0.367209 1.18712
-1.96731 0.831609 1.24192
-1.09301 0.295709 1.25147
-3.56411 0.809909 1.21308
-1.16331 0.324009 1.36159
-3.21981 0.675909 1.32621
-3.55281 0.776609 1.32971
-1.16231 0.315809 1.55506
-1.04341 0.322409 1.80955
-3.61841 0.794409 1.91116
-3.16371 0.657609 1.93499
-2.66581 0.51661 2.05732
-1.82641 0.727209 2.08637
-1.94111 0.76801 2.14661
-3.47161 0.792309 2.19274
-3.35331 0.733409 2.48496
-1.10421 0.817509 2.57684
0.767386 0.237409 2.58968
0.136886 0.422209 2.6244
-1.42131 0.927109 2.6852
0.467386 0.403909 -0.595807
-2.03941 0.292209 -1.04593
-2.07061 0.247809 -0.678877
-0.755913 0.535709 -0.0527767
-0.325915 0.476709 0.221933
-0.208914 0.233809 0.387123
-3.74221 0.746009 0.0276733
-0.463814 0.329409 1.18557
-3.25711 0.682809 1.16227
0.117086 0.184609 1.41038
1.03939 -0.343191 1.4224
0.591787 -0.0405909 1.65667
-3.58471 0.794909 1.55962
-1.39451 0.399609 1.77314
-0.977413 0.287909 1.81391
0.133686 0.429609 1.91623
0.262186 0.287409 1.91852
-2.76731 0.543809 1.94968
-0.262515 0.343709 2.05871
-3.53011 0.77221 2.12933
-1.78711 0.793509 2.29115
-3.72191 0.847609 2.70642
0.951086 0.283809 -0.729677
-0.875113 0.280309 0.753713
0.481386 0.0214094 1.20466
0.256486 0.252009 1.85626
-3.13481 0.662909 2.6971
-0.767313 0.753609 2.71567
1.96959 -0.804491 -0.480567
-2.86531 0.563709 1.31937
-0.511513 0.317809 1.6449
-1.16321 0.340809 1.85227
-2.84031 0.564809 2.10664
-1.42101 0.910909 2.54004
-0.670014 0.687709 2.55575
-0.284714 0.567609 2.55588
-3.41801 0.85571 3.08656
-0.0245137 2.32401 3.11964
0.673786 0.117209 0.0911134
-0.465914 0.462609 0.0349832
1.02989 -0.358291 0.742043
-2.53721 0.335309 0.883273
-1.97851 0.766209 1.53841
-3.03071 0.652009 1.5515
-1.51331 0.406709 1.73946
-2.94901 0.598409 1.83054
-1.93951 0.802009 2.27918
0.302785 0.384409 2.55041
-3.63931 0.790509 3.42593
0.0912852 2.29145 3.3467
0.685086 0.0869087 0.121083
0.0650859 0.172709 1.1734
0.325885 0.230109 1.95411
0.0747867 0.294209 1.97484
0.442586 0.0954088 2.02701
0.607385 -0.0705906 2.0964
-0.0678143 0.00770891 0.389173
0.00298643 2.38897 3.69212
0.106786 0.131309 0.612693
1.79619 -0.898391 -1.00093
-3.43901 0.746909 -0.217027
0.692886 0.12611 -0.351767
1.49479 -0.787291 -0.685507
1.80499 -0.886991 -0.579457
1.72929 -0.873791 -0.226497
0.135686 0.135909 0.351763
-1.22651 0.542209 0.710233
0.410387 0.0600094 0.519283
-0.583813 0.382209 1.16561
-1.22021 0.345309 1.25313
-1.09441 0.295109 1.25162
-2.79351 0.548109 1.6807
-3.09121 0.665209 2.1681
0.167686 0.359309 1.77644
-0.585015 0.346809 2.03479
-3.41021 0.748209 2.68321
-3.17851 0.707909 2.87146
-1.01011 0.790209 2.56721
-3.58901 0.80311 3.15502
0.712987 2.08295 3.34271
0.707086 2.07779 3.44986
2.05419 -1.02489 -1.02494
0.908586 0.094109 -0.0850868
-0.602614 0.535109 0.190593
-0.199713 0.232609 0.387803
-3.66781 0.80651 1.21278
-2.80181 0.54821 1.48367
1.19399 -0.378991 0.967473
-2.81661 0.554609 1.90457
0.010387 0.342609 2.01977
-3.73001 0.849309 3.13764
-0.323014 0.427709 0.161923
-0.520813 0.341309 1.22116
-2.98341 0.60721 1.554
-2.85641 0.566809 1.57592
-3.85031 0.945008 3.14729
0.555686 0.300609 2.57727
1.50189 -0.786291 -0.526127
-0.315814 0.466809 0.217023
1.33679 -0.245491 0.286733
0.0837855 0.186209 0.888313
-2.70221 0.527209 1.81829
-3.44011 0.771909 2.11704
-1.98561 0.787709 2.24323
-1.06811 0.337209 0.746843
-1.70591 1.01021 2.51719
-0.823513 0.669209 2.49559
0.0979858 0.451809 2.49779
0.670886 0.0744089 0.111393
-1.28181 0.523009 0.740583
-1.93361 0.780109 1.53864
0.316486 0.110609 1.38385
-0.221114 0.254809 0.176973
0.480386 -0.0292908 1.13857
-2.81381 0.550709 0.371953
1.50339 -0.813491 -0.740287
0.647586 0.200409 -0.0109567
-1.93781 0.270309 0.615823
1.66619 -0.840891 -0.252537
-3.59951 0.810209 2.26345
-0.107113 0.189209 1.10524
-1.01421 0.301409 1.74383
-1.64881 0.995608 2.57452
0.320787 0.372809 2.7267
-0.228413 0.440409 -0.102427
-0.248114 0.469809 -0.0687568
1.45459 -0.730091 -0.992047
0.865086 0.145709 -0.0795366
0.618387 0.175709 0.104593
-0.188014 0.233209 0.386763
0.140586 0.126309 0.344733
-1.81671 0.869209 1.4939
-1.13331 0.337609 1.56774
-1.17811 0.374309 1.61111
1.13369 -0.356691 0.961673
1.14469 -0.334191 0.996593
-0.538714 0.329009 1.96434
0.898686 -0.319091 1.5228
1.12009 -0.346991 1.61005
-0.194813 0.543409 2.70768
0.186086 2.25043 3.35077
0.0816856 0.161409 0.271253
-1.83371 0.858909 1.39362
0.922586 -0.302191 0.744023
0.624185 -0.0254913 1.64704
-1.47401 0.939609 2.71241
1.08209 -0.357491 1.59007
0.355587 0.0774092 0.543843
-1.15991 0.329509 1.15791
0.817587 0.215509 2.59054
0.167886 0.0958094 0.438373
-1.91671 0.901009 1.54133
-1.11611 0.339909 1.84422
-1.08421 0.529809 0.645103
-1.31641 0.552309 0.766173
-1.95361 0.873009 2.3343
-3.59661 0.816009 2.27445
-1.12901 0.352409 1.13219
-3.84551 0.901209 3.10523
-3.14821 0.621409 2.67067
-1.93021 1.09401 2.60251
-1.88511 1.08251 2.57312
-0.467015 0.319009 1.47963
-0.463515 0.314009 2.00313
-0.646115 0.674809 2.69105
-0.0297131 0.490709 2.57825
0.573286 0.303509 2.57653
0.836886 2.394 3.89514
0.338186 0.312709 -0.764507
-1.88891 0.863709 1.34959
0.569486 0.223209 0.0356635
0.150087 0.126209 0.339053
1.39699 -0.782991 -0.681937
-0.123913 0.197309 1.11963
-0.481614 0.330109 1.63718
1.02039 -0.341491 1.41995
0.962186 -0.322991 1.47483
0.858286 -0.292091 1.79711
-2.14041 0.837009 1.22513
-0.567713 0.345809 1.48915
-0.458514 0.317409 1.82747
-0.571413 0.340609 2.01988
-0.506314 0.308309 2.09645
0.00768613 0.440609 1.87976
0.676186 -0.0369908 1.49219
0.571186 0.0129093 2.01204
0.672486 -0.0390907 2.0157
0.614086 -0.0278908 2.0929
0.590686 0.294009 2.67396
0.814986 0.224509 2.59036
-1.69381 1.01261 2.61718
0.513586 0.318709 2.64849
-0.524914 0.648109 -0.700937
-1.07251 0.451609 0.260723
0.240486 0.0977091 0.773363
-2.04631 0.959309 2.2793
-1.71621 0.516209 1.8334
-1.12921 0.294409 1.83881
0.982586 -0.368691 1.37833
-3.51821 0.80441 2.43329
-3.40421 0.763509 2.48997
-1.09561 0.372509 1.11586
-1.93271 1.09171 2.61499
0.706786 0.183309 -0.0133366
-0.661713 0.681509 2.58008
-0.478215 0.323009 2.15908
0.485486 0.0212091 2.00111
0.529686 0.00770891 1.9549
-3.36881 0.743809 2.4499
1.44579 -0.786991 -0.625837
-0.481213 0.317509 2.12339
0.557086 0.00900877 2.00871
-1.84951 0.897009 1.37959
-1.02521 0.299009 1.20351
-1.10391 0.484109 0.217653
-3.41201 0.681409 2.34466
-0.057013 0.190909 1.0557
-1.70901 0.694909 1.50329
0.799686 -0.246291 0.947723
-0.529013 0.389809 0.542273
1.01959 -0.208891 0.200183
-1.82371 0.250209 -1.12994
-3.57821 0.80241 2.22886
-2.71711 0.513309 0.907283
-0.283715 0.46321 0.00778327
1.06099 -0.340891 1.01793
0.847386 -0.286891 2.08542
-0.955714 0.269909 0.481263
-2.75451 0.528309 0.992933
-3.46901 0.782909 2.40965
-1.00651 0.268709 1.1563
1.03159 -0.342891 1.65147
-0.953614 0.465509 0.0801633
-1.17751 0.353709 1.16702
-1.08171 0.349209 1.13132
1.05999 -0.358091 1.3246
-0.523014 0.517909 0.253983
-0.409714 0.307009 0.922643
0.233186 0.0765089 0.909953
-3.60321 0.81211 2.28434
-3.40061 0.769209 2.44517
-3.38141 0.764909 2.39808
-0.464215 0.315809 2.01066
0.557685 0.00100934 1.62937
-3.56261 0.798709 2.29512
-2.71991 0.52011 0.910793
0.662986 -0.0345913 1.94434
-3.52591 0.78761 2.15596
-2.29641 0.381909 0.234513
-1.57481 0.976409 2.62078
-1.09541 0.367709 1.08133
-0.272515 0.264709 0.656153
-0.305813 0.265309 0.809463
-0.468113 0.316709 2.17011
-0.188115 0.23711 1.2413
0.720886 0.19071 -0.0393065
0.400285 0.0558094 0.640463
0.653486 -0.0246912 2.15958
-0.757514 0.517509 -0.00560658
-1.13171 0.355409 1.1665
-3.50571 0.802109 2.28523
0.109586 0.0241092 1.55277
-3.47151 0.789109 2.34771
-0.057713 0.248609 1.25903
0.972786 -0.32469 1.65394
-0.184313 2.37447 3.44969
-3.38221 0.754309 2.42833
0.833286 -0.291091 1.81605
1.49149 -0.805191 -0.979147
-3.71141 0.835909 -0.0440265
-1.44751 0.448609 1.9549
-0.553913 0.345309 2.16265
-0.459815 0.316309 2.09412
0.0647864 0.18721 0.916683
0.911786 -0.311491 1.33886
1.44959 -0.78679 -0.657177
-3.25831 0.719909 2.96486
-3.29981 0.714109 0.271803
-0.291613 0.688109 2.91089
0.437786 0.0423092 0.756653
0.634586 0.253909 0.292223
0.614986 -0.0145909 1.38803
-0.221814 0.244509 1.23722
0.444585 0.0505089 0.992583
-2.18731 0.335909 -0.0141567
0.569286 -0.00729048 1.87921
0.365186 0.0676092 0.673443
-2.73331 0.52151 0.908103
1.44689 -0.783291 -0.660747
1.48849 -0.804391 -0.974097
0.030786 0.191409 0.956643
0.971886 -0.138091 -0.0444967
1.04849 -0.305991 1.76591
0.491987 0.256809 -0.157107
-0.0689149 0.289009 1.28996
0.288286 0.11841 1.07994
0.299985 2.21593 3.47962
-0.548313 0.338809 1.87932
-1.16061 0.655309 0.00307331
-0.294014 0.507209 -0.0462267
0.662186 -0.0358912 2.14922
0.480686 0.0229095 1.75489
0.616485 -0.0147911 1.95185
0.481086 0.0264095 1.24314
0.876386 -0.299191 1.79136
0.188486 2.24326 3.26508
0.607887 -0.0172907 2.17714
0.641885 -0.0256907 2.09274
1.10089 -0.373491 1.31033
-3.41721 0.767409 2.39879
-0.592814 0.565209 -0.0438866
1.32329 -0.443991 1.07252
0.556886 0.244509 -0.0344667
0.0938869 0.106209 1.144
-0.562014 0.540909 0.0975933
0.336086 0.0928091 1.69753
0.0488868 0.137109 1.30585
-3.98251 0.934609 2.33275
-3.51671 0.798409 2.52698
-3.53561 0.797709 2.33527
-1.85371 0.907709 1.36248
-2.83601 0.540609 0.556703
-3.48781 0.753609 -1.05311
-0.553315 0.339309 2.01192
0.322986 0.374509 2.58302
-1.09141 0.316009 0.997343
0.249486 0.336909 1.89991
0.566186 -0.0044905 2.00886
-3.62871 0.788909 2.38766
-3.40841 0.755909 2.25372
-0.566115 0.359409 2.1068
0.584486 -0.00559103 2.11705
-1.82721 0.237709 -0.773527
0.559085 0.0023092 1.35894
1.43789 -0.784891 -0.673857
-2.86431 0.572609 -0.252047
-0.512814 0.312809 1.93774
0.533685 0.0016092 2.02215
0.616386 -0.0254913 2.08555
0.096786 0.100209 1.15689
1.29819 -0.454491 1.03354
-1.25031 0.347909 1.82253
0.962486 -0.341291 1.70052
0.127687 0.0502094 1.27917
-3.15191 0.649109 1.90082
-3.58941 0.793109 1.32414
-3.27721 0.692409 1.17397
-0.302914 0.572909 2.58005
-3.17391 0.655309 0.345153
-3.69261 0.81361 -0.199337
-3.18591 0.667109 0.00256333
0.198286 0.378109 1.92652
-1.10681 0.319509 0.985553
0.374286 0.189809 1.92124
-2.57391 0.476009 -0.204927
-0.467015 0.329109 1.22399
0.276586 0.0439094 1.75251
0.732286 -0.0551907 2.00298
-3.85661 0.871009 1.17399
-0.495514 0.321109 2.17646
-0.566914 0.348309 1.82489
-1.04471 0.289309 1.42521
-0.579813 0.345809 1.33647
0.223886 0.342009 1.81924
0.666086 -0.0372912 1.72301
0.577985 -0.0141913 1.64185
0.904286 -0.308391 1.27919
1.15249 -0.378091 1.33414
2.17639 -1.04089 -1.05944
-3.74121 0.859209 3.14206
-1.27991 0.353509 1.96491
0.579187 0.293409 2.62189
0.323387 0.278509 1.98523
0.575185 -0.00749075 2.11641
0.0732856 0.137009 1.22803
0.595485 0.00700891 1.49052
0.707186 -0.0521914 1.49845
-1.80141 0.80651 1.32782
-0.081614 0.20901 0.298983
1.15009 -0.371991 1.30994
0.0369868 0.165509 0.406513
1.30879 -0.441291 0.984253
1.04319 -0.162391 0.118933
0.447586 0.0482096 2.0621
1.22339 -0.242391 0.544063
-0.320513 0.262309 2.05065
-0.579415 0.344309 1.85105
-3.94781 0.915709 0.318803
0.00848534 0.340509 2.01733
-3.17721 0.661209 0.343863
-3.44641 0.746909 -0.742517
0.683386 -0.0121905 1.16583
-0.00721402 0.172809 0.508813
-0.366814 0.445009 0.163133
-0.583214 0.58121 -0.0434667
0.717086 0.139809 0.130143
-1.80791 1.05481 2.57139
0.370885 0.362709 2.61079
0.674886 0.266509 2.54936
0.584087 -0.0205914 2.16602
0.226186 0.348509 1.85796
0.693286 -0.0509907 1.48298
0.638586 -0.0110909 1.44507
0.829386 -0.298491 1.57135
-1.15001 0.494309 0.299903
0.823086 -0.25449 1.23659
-0.0336136 0.195009 0.341603
1.20629 -0.414791 0.991853
1.87229 -0.918691 -0.533737
1.51509 -0.812391 -0.911377
-1.53701 0.55731 1.23842
0.971586 -0.330791 1.91299
1.20369 -0.41669 0.997043
0.561885 0.230709 0.0247434
1.41599 -0.770091 -0.681087
0.701086 0.252409 2.58496
-0.512614 0.359009 1.21014
-0.559914 0.362309 1.13906
-0.208914 0.242809 0.245003
1.21189 0.0816091 -0.727487
0.0174861 0.161809 0.259353
1.26949 -0.438191 0.949783
-0.197415 0.165409 0.810513
1.42429 -0.222991 0.676933
-1.03771 0.336509 0.842393
0.332386 0.143209 1.06576
0.207086 0.124609 0.445743
0.419885 -0.0255905 1.85909
0.239486 0.281709 2.05169
-3.92521 0.937709 2.66499
0.754386 0.231609 2.62188
0.724086 0.250909 2.6002
0.620086 -0.0252911 1.98382
0.883486 -0.306691 2.06802
0.186885 0.374109 1.82089
0.638887 0.00330865 1.96619
0.177686 0.374109 1.77959
-2.73631 0.516009 0.913263
-3.94351 0.905409 0.319963
-2.41391 0.428009 0.592753
0.564287 0.0214094 1.18347
-1.89811 0.255909 0.335673
-3.79631 0.842009 -0.297727
-3.71901 0.833709 -0.301357
-3.67051 0.824409 -0.310087
-3.28371 0.698809 -0.334337
-2.88481 0.58121 -0.323907
-2.34001 0.408109 -0.203327
-0.0212139 0.190209 0.350193
-0.539414 0.551509 -0.0307767
-2.73781 0.49761 -1.01478
1.49429 -0.803891 0.319763
-2.23641 0.363609 -1.03199
0.480985 0.294409 -0.775417
1.88709 -0.922091 -0.348617
1.89619 -0.924791 -0.982277
0.431387 2.17625 3.12232
-3.05651 0.621309 2.36402
-2.99551 0.620809 1.58587
-2.78771 0.535209 1.31696
0.226587 0.348109 1.85291
-1.32801 0.372709 1.42702
-3.53031 0.823009 0.00584326
-2.08691 0.312409 -0.320097
1.34969 -0.256891 0.673283
-0.562014 0.562209 0.00501333
0.117885 0.143809 0.118313
0.755786 0.172309 -0.00474661
1.87809 -0.933991 -0.505137
0.355886 0.363809 2.58285
1.18059 -0.403991 0.990633
1.63899 -0.845291 -0.548567
0.276886 0.292409 2.00648
-2.95521 0.584809 0.873703
-0.502814 0.511809 0.0360332
1.59009 -0.39349 -0.0704166
-1.47091 0.406209 1.74174
0.0142856 0.0512089 1.15449
1.25039 -0.184791 0.231773
-1.81161 1.08111 2.58585
-1.51891 0.397909 1.78051
0.626386 0.109109 0.0135034
-3.40861 0.769509 3.10445
0.564586 0.297409 2.78078
0.134386 0.424009 2.6244
-1.10011 0.828509 2.58946
-3.35441 0.745009 2.46663
-3.96031 0.904609 2.16101
-1.89771 0.76311 2.13569
-2.66761 0.517409 2.05735
0.253086 0.296209 2.01044
0.175386 0.376509 1.81459
-3.13771 0.648009 1.54937
-1.15931 0.315709 1.55538
-3.79221 0.861209 1.20758
0.140886 0.215209 1.43895
1.18039 -0.39349 1.39492
-0.556115 0.374209 1.18699
-0.467413 0.330709 1.18745
-0.506514 0.362809 1.17887
0.598087 -0.00959074 1.21001
-1.11871 0.325509 0.874323
-1.12481 0.346409 0.843273
0.00428534 0.197609 0.880643
-3.64391 0.826409 0.321283
-3.42731 0.752509 0.0544334
-3.58721 0.729409 -0.320797
-3.27901 0.630109 -0.337697
-0.522013 0.515709 0.0958634
-2.16101 0.328609 -0.325907
0.721186 0.135209 0.127903
-1.80641 0.211509 -0.330057
0.683886 0.161209 0.108213
-0.453614 0.533409 -0.0555066
-3.30751 0.687509 -0.714667
-1.74651 0.15211 -0.714837
-2.94741 0.563909 -1.04151
-2.67081 0.541409 -0.989637
1.19689 -0.713591 -0.506997
1.25989 -0.728591 -0.510327
1.51769 -0.813191 -0.531997
-0.540413 0.714209 -0.730457
1.33539 -0.777991 -0.702497
0.658386 0.319609 -0.581247
1.42519 -0.777191 -0.698027
1.51709 -0.804091 -0.806507
1.46149 -0.786291 -0.883867
1.72229 -0.879991 -1.01888
-3.17741 1.4979 3.8538
-3.82871 0.939109 3.14398
-3.08671 0.658709 2.86855
-3.73481 0.864709 2.68916
-1.32111 0.898409 2.58647
-0.791014 0.600109 2.48263
-3.42411 0.758109 2.39691
-3.52251 0.814809 2.34919
-2.64961 0.510109 2.0764
-0.363114 0.318809 2.06266
-2.81291 0.551609 1.92508
0.444585 0.148309 1.9989
0.316587 0.243209 1.95599
0.146486 0.425209 1.95014
-0.976614 0.293709 1.81394
-2.87181 0.519709 1.71035
0.107187 0.0742086 1.57389
0.604486 0.0223087 1.16401
-2.64411 0.48851 0.603113
1.12629 -0.366791 0.851423
-1.83081 0.226309 0.339033
-1.82731 0.262909 0.326663
-2.04841 0.303109 0.0767134
-0.330815 0.471109 0.221003
-0.594513 0.540509 0.180303
-0.553713 0.563009 0.0138534
-3.51751 0.761909 -0.518267
-2.97041 0.63881 -0.648287
-2.07061 0.242209 -0.679457
1.41329 -0.244391 -0.126777
-3.22621 0.677509 -1.02352
-2.86781 0.508509 -1.03965
-1.98441 0.271909 -1.02303
1.42049 -0.767891 -0.642417
-0.657414 0.733009 -0.740567
1.27519 -0.716191 -0.699627
0.450687 0.396809 -0.599437
0.648286 0.342409 -0.598057
0.112985 0.378509 -0.783337
1.65489 -0.84719 -0.989857
1.54399 -0.82049 -1.01691
1.97409 -0.963191 -1.0324
0.781787 2.47557 3.88666
0.254285 2.24342 3.47543
-3.77571 0.870209 3.411
-3.14661 0.664309 2.70118
-1.56001 0.953709 2.52951
-3.59391 0.848809 2.46064
-2.84061 0.567809 2.10669
-1.90141 0.748909 2.10527
0.432685 0.0858091 2.04289
-2.72041 0.519809 1.7164
1.07539 -0.300191 1.737
-3.10231 0.589509 1.33847
0.483285 0.0287088 1.20593
0.663786 0.025309 1.06788
-0.367014 0.44211 0.194113
-2.29871 0.381309 -0.166737
-2.75991 0.529709 -0.238957
-2.32251 0.369409 -0.331367
-1.91661 0.266909 -0.296947
-0.721714 0.539309 -0.0723166
-3.47841 0.681209 -1.06498
-0.599514 0.724409 -0.617547
1.50679 -0.79239 -0.624187
0.943786 0.210609 -0.608047
1.57599 -0.822791 -0.990527
1.47309 -0.790591 -1.16874
-0.179614 0.517609 2.53802
-1.16711 0.342109 1.85097
-3.36041 0.693309 1.19124
-0.0253147 0.143209 0.964043
-0.474715 0.47161 0.0815232
0.778486 0.115009 -0.270677
2.04799 -0.980191 -0.700187
0.988186 0.248509 -0.705877
1.06509 0.245709 -0.713317
0.401386 2.19356 3.34772
-3.62581 0.81001 3.42317
-3.95301 0.86001 3.04343
-1.92221 0.766209 2.23904
0.625286 -0.0143906 2.16522
-2.95851 0.610409 1.8306
-1.88001 0.759109 1.68472
0.161886 0.322509 1.4725
-2.92091 0.573809 1.1827
0.560586 0.175709 0.910813
0.860986 -0.277091 0.779053
-2.71551 0.485809 -0.336547
-0.897515 0.728609 -0.644847
0.780387 0.323509 -0.713947
0.0684867 0.300609 1.97665
0.332286 0.267109 1.95814
-1.09311 0.322209 0.925333
0.0685859 0.157409 0.896003
-0.468415 0.261309 0.832373
-1.44321 0.921109 2.50863
0.0694861 0.321009 1.92663
-1.13831 0.805309 2.51013
0.537586 -0.0734907 1.94762
0.622686 0.150809 -0.0903367
-0.0757145 -0.13089 1.54712
0.143686 -0.0394913 0.752983
0.0921855 0.132909 0.613823
0.252386 0.330409 -0.778687
1.47859 -0.800391 -0.927167
1.74469 -0.86119 -0.805997
1.39539 -0.770391 -0.623897
1.43759 -0.789891 -0.620067
-2.12031 0.334009 -0.799747
-1.79151 0.224809 -0.759107
-2.77571 0.533909 -0.800657
1.45859 -0.79449 -0.550817
-1.47091 0.11701 -0.683817
-1.52001 0.136109 -0.678977
-3.23821 0.678309 -0.770767
-2.56661 0.451609 -0.682537
-1.34891 0.0882095 -0.598177
-1.33361 0.0812095 -0.585347
-2.84631 0.527209 -0.661237
-3.98091 0.920309 -0.692127
-1.76181 0.218209 -0.574577
-3.78481 0.851909 -0.652457
-2.10341 0.332609 -0.516077
-1.68951 0.201609 -0.483077
-3.84391 0.856709 -0.587827
-3.70421 0.83121 -0.575967
-3.66941 0.805609 -0.511317
-3.60261 0.787809 -0.491317
-3.53531 0.761309 -0.487647
-2.91011 0.567409 -0.442987
-2.85341 0.560409 -0.408737
-1.82701 0.227609 -0.361347
-1.92571 0.259009 -0.351737
-2.02031 0.298009 -0.328127
-2.78391 0.518909 -0.334767
-2.54681 0.453509 -0.318867
-2.80631 0.541809 -0.324267
0.649086 0.18441 0.0274633
0.571685 0.218209 0.0425134
-2.55811 0.462909 -0.221317
-2.58271 0.457709 -0.200917
-4.01321 0.930109 -0.226847
-4.00641 0.938509 -0.146357
-2.15111 0.338109 0.000113317
-3.49491 0.77991 -0.0407466
0.892386 -0.265091 0.229583
-2.51491 0.436609 0.0204833
0.928686 -0.273291 0.248203
-0.856715 0.283209 0.194453
-0.867813 0.284709 0.206643
-2.28891 0.376609 0.116773
-3.00451 0.624209 0.0976034
-1.16611 0.537209 0.278633
-0.902514 0.294509 0.255123
1.59609 -0.824591 0.307633
0.0121856 0.181109 0.356483
1.51259 -0.812491 0.323703
-3.03931 0.629609 0.157683
-2.31101 0.385709 0.246473
-1.06651 0.344609 0.366063
-1.06121 0.337409 0.376303
-1.07361 0.346509 0.384213
-1.85381 0.231409 0.341383
-1.81521 0.220509 0.352193
-2.76391 0.522809 0.337533
-2.80991 0.522109 0.351423
-4.01821 0.930309 0.319083
-2.07421 0.309609 0.390303
-2.09981 0.314909 0.400903
-2.84861 0.549009 0.476203
0.917586 -0.251491 0.684123
-2.81611 0.542909 0.534323
-2.63121 0.479809 0.579193
1.10329 -0.332191 0.796073
-1.96151 0.273809 0.702433
-1.12181 0.361409 0.810843
0.0547862 0.190309 0.909283
0.0388865 0.190209 0.919643
-3.73451 0.849609 0.756373
-1.31961 0.413409 0.899403
-1.36721 0.442009 0.906073
-1.34941 0.424909 0.923173
-2.11881 0.318509 0.892163
-2.16081 0.340509 0.925173
-3.88991 0.896409 0.936703
-1.45801 0.470009 1.04722
-1.46801 0.471509 1.08505
-2.73481 0.521109 1.13859
-1.55681 0.607709 1.22426
-4.03041 0.929909 1.12575
-2.94051 0.58611 1.16607
-3.38541 0.727709 1.20045
-3.01991 0.606009 1.21481
-3.39681 0.73641 1.21291
0.0326857 0.305609 1.36078
-1.48131 0.473509 1.31907
0.469886 0.0243095 1.48827
0.129787 0.0223087 1.58386
1.09239 -0.337691 1.59478
-3.42161 0.731109 1.56217
0.052486 0.0636095 1.63413
-3.61531 0.809809 1.56363
-3.05451 0.636109 1.64818
-3.31571 0.714409 1.65209
-0.475514 0.310109 1.72935
-1.15731 0.436409 1.72219
0.260486 0.203809 1.75397
-1.08361 0.411609 1.77141
-1.12871 0.426809 1.78608
-1.86311 0.58821 1.82114
-3.14921 0.668509 1.80809
0.388086 0.188109 1.9302
0.332487 0.203809 1.93054
-3.30181 0.691109 1.90918
-3.77691 0.860909 1.92291
0.380487 0.194509 1.99409
-0.229514 0.292509 1.99257
-0.394213 0.288409 1.99651
0.468887 0.0229095 2.0157
-3.70121 0.837909 2.00737
-2.93571 0.590909 2.11333
-0.481413 0.316809 2.14048
0.636386 -0.0310913 2.15149
-0.484614 0.311409 2.15642
-3.93881 0.917409 2.15417
-3.63761 0.817309 2.18933
-3.16741 0.674409 2.19878
-3.84091 0.887909 2.32377
-3.12621 0.638009 2.33003
-3.36501 0.74201 2.40096
-3.36801 0.741109 2.45052
-1.96241 1.10031 2.60216
-3.33371 0.712909 2.64187
-3.74491 0.849209 2.69538
-1.89751 1.08421 2.68384
-3.58621 0.809609 2.80769
-0.888514 0.756709 2.77652
-2.95931 0.597009 2.86892
-3.95171 0.928409 3.04937
-3.81141 0.888309 3.11515
-3.01881 0.605909 3.11027
-3.49061 0.764109 3.4099
0.691886 2.08943 3.34615
0.614385 2.11456 3.35262
1.39519 -0.771491 -1.07794
1.58099 -0.831791 -1.01639
1.89599 -0.928391 -0.988257
1.91659 -0.926991 -0.971757
1.51619 -0.798891 -0.909297
1.57739 -0.825291 -0.891147
1.45409 -0.782591 -0.885547
1.49889 -0.796791 -0.838187
1.62339 -0.833791 -0.781837
1.77979 -0.892491 -0.690367
1.43649 -0.787191 -0.698237
1.33069 -0.751691 -0.665487
-0.918314 0.649709 -0.569407
1.45509 -0.79169 -0.565707
1.63489 -0.836291 -0.471217
-3.41111 0.740509 -0.747287
-3.41851 0.737709 -0.727807
-1.87671 0.23921 -0.648187
-2.24801 0.362309 -0.660367
-0.342814 0.450109 -0.351147
1.34119 -0.759291 -0.353307
-3.65821 0.823209 -0.584097
-3.93731 0.894009 -0.598547
-3.73021 0.834409 -0.577117
0.695786 0.195709 -0.0542766
0.545887 0.244909 -0.0571467
0.697886 0.198409 -0.0379166
0.798186 0.152709 -0.0176167
-0.665413 0.575309 -0.0865366
0.517187 0.236609 -0.0197467
-0.279713 0.485609 -0.0558867
-3.47921 0.748009 -0.367927
0.719786 0.161309 0.0206533
-3.52401 0.777909 -0.359037
-2.35451 0.411709 -0.295087
-0.470414 0.534609 -0.00939673
-1.89701 0.266609 -0.247437
-2.09751 0.305809 -0.194577
-3.96161 0.929409 -0.209377
1.67499 -0.851791 0.0685332
-3.72611 0.844409 -0.104867
-3.82621 0.872009 -0.0861666
-2.18331 0.329109 -0.00185674
-1.93991 0.271609 0.0588034
-3.61491 0.810309 0.0237733
1.02259 -0.297691 0.335323
-2.44201 0.428409 0.130893
1.07919 -0.328291 0.399663
-1.02661 0.328909 0.361673
-2.48891 0.429909 0.307933
-1.77671 0.20691 0.342433
-2.47941 0.419609 0.322173
-2.73531 0.516709 0.350593
-2.85451 0.551909 0.370493
-3.42341 0.759209 0.381373
-3.68251 0.835809 0.381473
-3.10521 0.647809 0.433723
-3.45391 0.758909 0.554923
-2.22691 0.366909 0.593853
-3.43201 0.74551 0.591613
-3.83031 0.873009 0.622383
-2.68221 0.511609 0.704843
-1.07491 0.305609 0.877843
-1.33261 0.417509 0.910603
-2.50191 0.447509 0.874683
-2.33171 0.394509 0.880683
-2.71621 0.539709 0.986533
-1.50751 0.510209 1.10809
-1.47551 0.467009 1.1267
-3.93861 0.917209 1.10798
-3.87421 0.881309 1.14724
-3.89101 0.887809 1.15342
-3.42691 0.746709 1.21857
-3.00641 0.61491 1.2941
-3.39241 0.733809 1.32012
-3.15431 0.661509 1.32918
0.558086 0.00170934 1.47527
-2.69271 0.51661 1.47349
-1.14371 0.345809 1.57338
-2.79671 0.512509 1.53515
-1.60051 0.511609 1.64018
1.08189 -0.283391 1.67728
-2.81001 0.554709 1.61683
-1.11921 0.430409 1.69111
-0.637213 0.374309 1.7182
-0.555914 0.333409 1.72562
0.546386 8.93732e-06 1.75068
0.0907855 0.406609 1.78091
-1.72631 0.549209 1.74079
0.149286 0.399709 1.80025
0.899186 -0.306191 1.79075
-0.887114 0.247909 1.78473
0.854486 -0.29939 1.80208
-1.38411 0.395609 1.8026
0.221385 0.365509 1.84836
-2.95561 0.602909 1.792
-2.50431 0.475409 1.88705
-2.60261 0.485909 1.88849
-2.58051 0.479109 1.89275
-0.0689149 0.375609 1.96062
0.544086 0.00330865 1.98579
0.576887 -0.0047909 1.98904
-2.85671 0.570909 1.95593
-1.06741 0.293109 1.97696
-0.638314 0.364409 1.98566
0.558885 -0.000590923 1.99565
-0.539713 0.337509 1.99193
-1.11351 0.308609 2.00635
-1.09921 0.297309 2.01305
-2.79651 0.546709 2.01682
-1.93151 0.761609 2.08556
-2.92011 0.57841 2.10909
-2.89651 0.567709 2.10926
-1.46131 0.412109 2.1197
-1.84211 0.744709 2.13406
-1.82921 0.740309 2.14714
-3.05751 0.613209 2.34091
-1.66621 1.00541 2.55689
-0.412714 0.606909 2.56559
-1.15381 0.837609 2.58074
-1.04301 0.803209 2.57909
-0.535815 0.639409 2.58009
-1.11871 0.831709 2.58666
0.805986 0.223509 2.5723
0.0858855 0.446009 2.58049
-1.52491 0.963009 2.6109
0.594387 0.290909 2.60359
-3.88321 0.910909 2.67412
-3.43461 0.757509 2.68475
-0.314515 0.574609 2.63637
-1.88701 1.07151 2.69005
-1.98411 1.10841 2.70256
-1.26511 0.871109 2.69449
-3.64871 0.83051 2.75943
-1.53941 0.965009 2.70845
-0.743813 0.712909 2.70202
-1.43611 0.936909 2.71246
-0.720414 0.70901 2.71281
-0.300713 0.570809 2.70763
-2.98271 0.622209 2.77066
-0.839613 0.741909 2.71934
0.323186 0.374109 2.70776
-0.733115 0.711209 2.72186
-0.109713 0.517409 2.72157
-2.98211 0.599509 2.85427
0.353487 0.360109 2.77793
-3.01271 0.60931 2.8666
0.452386 0.339109 2.80797
-3.85611 0.902309 3.10615
-3.38061 0.751009 3.10452
-3.04251 0.615109 3.11433
-3.04321 0.614709 3.12701
-3.41411 0.756609 3.22749
-3.33091 0.729509 3.27601
-3.42011 0.750909 3.39522
-3.48431 0.763509 3.42819
-2.93571 0.598209 3.41493
-2.90111 0.590809 3.42431
-0.123314 2.34696 3.11743
-0.135014 2.34663 3.12762
0.179885 2.24344 3.14251
0.184286 2.25044 3.24964
0.721786 2.08095 3.27666
0.590887 2.12114 3.2893
-0.177313 2.36062 3.34012
0.589786 2.11999 3.34944
0.513086 2.15215 3.35596
0.601985 2.11479 3.38257
-0.146914 2.34994 3.47615
0.196987 2.24365 3.48908
-0.242814 2.47657 3.68288
1.35169 -0.759891 -0.700717
1.75529 -0.882391 -0.550357
-3.47801 0.752909 -0.761417
0.326086 0.231709 -0.336337
-1.63161 0.175409 -0.354947
-2.93091 0.572209 -0.353027
-2.36731 0.396509 -0.322817
-1.93591 0.280609 -0.294037
0.621986 0.179609 0.0440734
-2.06731 0.303409 -0.186457
-3.34491 0.705609 -0.233647
1.69109 -0.859691 0.0508834
-2.79831 0.540709 -0.0486166
-2.59751 0.456609 -0.00444668
-3.16081 0.657209 -0.0154165
-2.17001 0.338209 0.0253933
-2.14031 0.333409 0.0268935
-0.104514 0.214109 0.244293
-3.60731 0.80861 -0.00131672
-1.95091 0.270209 0.0782533
-2.28771 0.373009 0.0986834
1.48779 -0.807391 0.318773
-2.45451 0.427509 0.198433
-2.14321 0.331609 0.356613
-3.72741 0.841109 0.308403
-2.08191 0.319009 0.366353
-3.28121 0.687509 0.337743
-3.14531 0.653109 0.384223
-3.13831 0.656409 0.416243
-3.57281 0.79471 0.466753
1.10059 -0.333691 0.724063
-3.65931 0.825209 0.535363
-2.78761 0.532509 0.557513
-2.67991 0.502809 0.582733
-3.13901 0.649809 0.576273
-2.00221 0.299609 0.614633
1.10049 -0.33029 0.776723
-1.09711 0.334709 0.841563
-2.13851 0.346709 0.857383
-2.09161 0.313509 0.888113
-3.45631 0.762009 1.06801
-3.87181 0.891709 1.10828
-3.87981 0.888309 1.12953
-3.24361 0.676809 1.17992
-3.05001 0.61281 1.22036
-1.09721 0.306509 1.40815
-1.05061 0.293709 1.40796
-1.04251 0.284009 1.42515
-1.37111 0.385809 1.4413
-2.74261 0.528009 1.47869
-0.890013 0.246709 1.55149
-2.61061 0.477009 1.52777
-2.45561 0.448609 1.77337
0.581386 -0.00519049 1.85398
-2.64921 0.499909 1.83976
0.352186 0.198309 1.93181
-2.63131 0.496709 1.91871
-0.510214 0.327809 1.9541
-0.278115 0.269809 1.98189
0.604585 -0.00939047 1.9818
-3.62431 0.808209 2.03119
-2.81531 0.545109 2.10957
-3.08861 0.648309 2.17091
-3.19511 0.682109 2.19392
-1.97091 0.781209 2.19973
-3.41241 0.757809 2.29324
-0.713213 0.462709 2.30103
-3.09281 0.638009 2.35202
-2.77631 0.52081 2.35587
-3.40861 0.761909 2.42049
-3.37111 0.744609 2.49117
-0.402014 0.476809 2.46963
-3.21811 0.688809 2.50079
-3.08221 0.635009 2.49895
-2.00701 1.12451 2.52028
-2.02931 1.12111 2.52901
-2.02351 1.11651 2.55291
-1.03771 0.801309 2.55109
-1.02881 0.802109 2.56545
-3.63871 0.82981 2.65815
-3.54281 0.79821 2.65925
-2.92831 0.602409 2.74387
0.458286 0.340009 2.68149
0.312786 0.380509 2.69424
-0.137515 0.521009 2.7105
-0.167214 0.537809 2.84157
-3.69321 0.864009 2.96678
-3.84211 0.900209 3.05775
-4.02511 0.934609 3.0763
-3.07741 0.643909 3.12297
-3.44751 0.76311 3.15087
-3.63221 0.825409 3.15883
0.246385 2.22611 3.13571
0.276487 2.2158 3.15726
-0.137213 2.34954 3.25756
0.219085 2.24291 3.27068
-0.155715 2.35084 3.29144
-2.94781 0.741809 3.73178
0.700886 2.08914 3.45348
0.271785 2.21705 3.48007
0.295585 2.21295 3.47953
0.252586 2.22185 3.49626
0.265287 2.22041 3.50784
0.211486 2.32762 3.8374
1.83819 -0.942791 -0.933287
1.50149 -0.805691 -0.734717
1.75779 -0.886091 -0.551497
-1.98301 0.280209 -0.705957
-2.79051 0.52501 -0.682297
-3.53221 0.777209 -0.527827
0.570186 0.231709 -0.0517468
-0.539114 0.545909 0.0114134
-0.489813 0.521109 0.00915346
-2.11671 0.325009 -0.161997
-0.523714 0.514909 0.124363
-3.72961 0.837209 -0.163287
-3.71101 0.83111 -0.0851867
-3.48541 0.776609 -0.0684168
-2.50251 0.448609 0.0138334
0.245586 0.107109 0.255623
-2.52091 0.445709 0.0268935
-0.125514 0.218909 0.251413
-1.23031 0.554909 0.271083
1.52819 -0.792491 0.278503
-3.34661 0.724409 0.305353
-0.249915 0.256409 0.521313
0.217086 0.109809 0.549973
-0.952414 0.269209 0.475843
-3.05461 0.61911 0.351143
-1.66151 0.191609 0.405743
0.301086 0.0789093 0.623953
-3.14681 0.654109 0.556563
-2.73261 0.519309 0.576113
-1.96241 0.283609 0.620033
-2.82501 0.532409 0.603923
-3.00271 0.610109 0.619093
-0.648514 0.547409 0.882743
-3.74341 0.852009 0.716213
-1.95631 0.282109 0.822413
-1.96201 0.282509 0.857653
-2.31521 0.409709 0.912573
-2.68311 0.502209 0.910853
0.658686 -0.0294911 1.22906
0.0922866 0.125909 1.24275
-0.378214 0.293709 1.45684
-0.488015 0.327909 1.46503
-1.18291 0.356709 1.5691
-0.553713 0.352209 1.60215
-1.07151 0.323009 1.59209
-0.464714 0.314509 1.63145
0.447187 0.0312094 1.73749
-0.639513 0.371509 1.74272
-1.56621 0.459609 1.78085
-1.25391 0.369809 1.8182
-2.64611 0.507909 1.81079
-3.31541 0.699709 1.90835
-0.667214 0.372509 2.01356
-1.92081 0.764609 2.10899
0.566785 -0.0047909 2.14784
-0.555714 0.340009 2.15083
-0.463713 0.310809 2.15565
-2.65861 0.517209 2.28807
-2.84621 0.571609 2.4133
-3.58981 0.82341 2.48942
-3.55601 0.809009 2.52162
-3.39811 0.758609 2.56166
-3.21161 0.67881 2.69301
-1.40711 0.921409 2.68154
0.460487 0.339209 2.69725
0.581586 0.292709 2.71809
-1.47981 0.941709 2.74946
0.448587 0.338009 2.79417
-3.25521 0.717609 3.00289
-3.47211 0.782409 3.09657
-3.65491 0.839709 3.12607
-3.83561 0.887809 3.14939
-2.85351 0.565309 3.42037
0.196987 2.2484 3.34752
0.617885 2.11229 3.47919
-1.67171 0.17041 -0.876556
-1.79221 0.223609 -0.787867
-1.66291 0.157809 -0.741257
-1.90321 0.246809 -0.527577
-3.31231 0.705009 -0.399367
-0.367114 0.512909 -0.0365566
-0.853915 0.453009 -0.106987
0.781586 0.148209 0.0426033
-3.74121 0.861309 -0.305607
-0.418414 0.481409 0.121453
-0.560315 0.509509 0.125093
-1.66941 0.200309 0.376083
-1.72351 0.205009 0.376073
-3.15711 0.663309 0.339303
-3.10301 0.632809 0.361323
-1.99101 0.285209 0.769793
-1.17051 0.390709 1.12701
-0.421814 0.314509 1.24158
-3.85761 0.872509 1.1846
-3.05231 0.619209 1.22872
-2.71971 0.527909 1.37239
-0.668114 0.377609 1.48783
-0.511013 0.330809 1.61132
1.04239 -0.321191 1.64151
0.520385 0.00710905 1.75317
-0.601614 0.348809 1.74639
-0.296914 0.252509 2.02573
-0.0960144 0.326309 2.04589
0.620786 -0.031591 2.16485
-1.96291 0.77641 2.17317
-2.71471 0.520609 2.33324
-3.10811 0.656709 2.41204
-3.51651 0.79611 2.52868
-3.43521 0.766309 2.53121
-0.708414 0.695109 2.53909
-1.22131 0.852809 2.54698
-0.918713 0.77221 2.58112
-0.308014 0.578109 2.57933
-0.266215 0.566909 2.72099
-0.0799145 0.508209 2.7688
-3.46681 0.778209 3.12729
-3.70961 0.837809 3.16631
-0.221613 2.42941 3.59769
0.633186 0.147309 -0.316027
0.700486 0.194209 -0.0333866
-0.439314 0.537809 -0.0479166
0.576786 0.233209 0.0153333
0.625186 0.213109 0.0221134
-2.16671 0.353409 -0.151327
-0.376315 0.473209 0.114633
0.0921855 0.137509 0.0987034
-1.19741 0.600909 0.121383
-3.14601 0.655509 0.379933
-1.10511 0.387809 0.764293
-0.132115 0.205109 0.920723
-2.20011 0.362409 0.951303
-0.0508141 0.177709 1.10578
-3.20991 0.679609 1.12302
1.05909 -0.343091 1.41126
-3.55641 0.787009 1.36836
0.454086 0.0411095 1.4908
-2.78221 0.541409 1.47232
0.454887 0.0348095 1.70363
-2.65941 0.501609 1.72306
-2.56231 0.47301 1.8954
0.318986 0.256209 2.00327
-3.24321 0.691009 2.01483
0.314186 0.201509 2.04902
-1.98891 0.804209 2.23934
-2.74371 0.527909 2.39277
-0.315215 0.573809 2.70737
0.358386 0.369509 2.72134
0.654787 2.10745 3.47371
-3.56251 0.796909 -0.137677
0.313787 0.102709 0.271783
0.00738668 0.189109 0.309033
-2.19271 0.373809 0.124973
-3.23741 0.682409 0.331883
-1.12111 0.330009 0.860793
-0.741814 0.443409 0.904733
-0.0538144 0.290509 1.38856
0.130487 0.198509 1.41868
-2.55491 0.486509 1.85048
-3.65721 0.851109 2.19107
0.151685 0.439709 2.57062
-2.01721 1.10601 2.6587
-1.91561 1.08781 2.70831
-2.07321 1.13971 2.76696
-3.05141 0.602109 3.15418
0.862386 0.249309 -0.580347
0.796986 -0.00199092 -0.482457
-0.521914 0.502209 -0.277487
-1.99141 0.274409 -0.346127
1.32389 -0.250891 0.298923
0.436986 0.046409 0.730963
0.614187 -0.00549089 1.30743
-0.510014 0.328609 1.64846
-1.93261 0.737609 1.69544
0.124185 0.438309 1.93924
-1.99671 0.786509 2.16789
-1.85261 1.10221 2.51462
-1.52891 0.961109 2.5699
-0.892014 0.753209 2.56289
-1.22691 0.858209 2.64832
-3.51311 0.785909 2.74671
-1.40671 0.933909 2.71758
-3.58871 0.81011 3.47973
-0.066214 0.0848087 1.0123
0.479486 0.0312094 1.41958
0.492986 0.0372089 1.69961
-0.493914 0.322709 2.0956
-1.75921 1.04551 2.51938
0.831186 2.33394 3.84619
-0.838013 0.270909 0.812623
-0.722113 0.357709 0.950283
-3.25881 0.749809 2.28793
-3.39151 0.781709 2.6066
-1.78571 1.02561 2.61541
-0.504614 0.358509 0.962133
0.0467868 0.15771 1.0466
0.806387 0.0301088 0.428003
0.620386 -0.0411907 0.771583
-3.49251 0.782109 -0.0405866
-2.91331 0.563409 -0.657027
-2.77411 0.536409 -0.801237
-3.29721 0.710309 0.340383
-2.75421 0.523309 -0.332427
-3.13511 0.647809 0.342663
-2.84821 0.550109 0.473323
-1.89851 0.239409 -0.686187
-3.47931 0.744309 1.25683
-1.79681 0.220409 -0.762577
-2.70271 0.505009 0.341793
-3.28401 0.70131 1.14752
-2.96591 0.596809 0.880403
-2.70291 0.502409 0.596203
-1.82621 0.229509 -0.360897
-2.30961 0.390709 0.249123
-1.47031 0.122009 -0.684337
-2.20231 0.359709 0.255123
-1.37351 0.13741 -0.661587
-1.35031 0.0880092 -0.598777
-2.79621 0.539009 1.16123
-1.33421 0.0810093 -0.614327
-2.74611 0.524209 1.12321
-3.35531 0.718109 1.90952
-3.17641 0.666109 1.82051
-3.14961 0.66971 1.80709
-3.15051 0.661309 1.82437
-3.39161 0.696209 2.1229
-3.74551 0.849709 2.69456
-3.37051 0.747309 2.35962
-3.18981 0.682509 2.19896
-2.13801 0.323309 0.892463
-3.19021 0.68371 2.21291
-2.13521 0.343609 0.927523
-2.11371 0.322809 0.890903
-1.95981 0.270909 0.698903
-3.10121 0.652209 2.19197
-3.81521 0.886109 3.11368
-3.04401 0.624809 2.1615
-0.0131135 0.407309 -0.781627
-2.93481 0.590709 2.11121
-3.09301 0.640509 2.36314
-3.00451 0.611509 2.33469
-1.07371 0.346009 0.383603
-1.04041 0.338909 0.368913
-2.48251 0.460709 1.83729
0.252286 0.330809 -0.779877
-0.901514 0.298209 0.253903
-1.45861 0.471909 1.04489
-1.47181 0.469709 1.08293
-1.08941 0.354409 0.650933
-1.47831 0.469609 1.12636
-3.06471 0.649709 2.84811
-3.08151 0.642909 2.88922
-1.11911 0.361809 0.807533
-1.48171 0.476009 1.31836
-1.67891 0.535409 1.70767
-1.70541 0.531409 1.74393
-1.68951 0.529209 1.7318
-1.96401 1.10061 2.60031
-2.98791 0.610509 3.32311
-1.06341 0.299409 1.22151
-1.77781 1.03981 2.56587
-3.06781 0.728209 3.67312
-1.67531 1.00811 2.57125
-1.17641 0.440109 1.76794
-1.12191 0.432209 1.71005
-1.52851 0.964909 2.61075
0.536087 0.240309 0.00331339
0.792287 0.151909 -0.0190467
0.0118861 0.190809 0.923793
0.0393863 0.19001 0.918843
-0.199914 0.242209 1.2232
-0.374314 0.284309 1.48885
