-0.486246 0.157702 0.64956
0.223691 0.267083 1.44197
-0.29157 -0.0754225 0.659667
1.00094 0.192637 2.32441
-0.0265072 -0.129128 0.793653
0.00341241 -0.0695122 0.365006
0.92796 0.154976 1.85126
0.0598273 -0.0921917 0.408727
0.474995 -0.20513 0.735098
-0.074507 -0.184505 -1.66466
-0.348269 -0.0795276 -2.55477
1.55776 -0.668644 0.940844
1.59657 -0.609106 0.205173
1.27884 -0.460191 -0.960136
2.01478 -0.798876 1.60666
1.89733 -0.658916 0.407232
2.67128 -0.869044 1.46924
2.78529 -1.55119 -1.36353
-1.99898 0.648418 -0.263656
-1.60336 0.268867 1.26867
-1.64108 0.269307 1.20118
0.952905 1.33492 2.21215
0.867684 1.37164 1.93977
-1.35378 0.326687 0.141756
-1.33 0.316289 0.123167
-0.531009 0.116813 1.13189
-0.497639 0.135336 0.905355
-0.462605 0.111501 0.972099
-0.103491 -0.136448 0.908012
0.976097 0.174539 2.2317
1.04473 0.111634 2.01394
0.979757 -0.0816085 0.657205
0.149198 -0.251621 -1.47946
1.40751 -0.620792 0.57716
1.59743 -0.690982 1.09873
1.34632 -0.540345 -0.26247
1.87781 -0.750487 1.24908
2.52738 -0.831515 1.02629
2.23565 -0.6358 -0.520528
2.25198 -0.64087 -0.492682
2.27945 -0.63568 -0.514283
3.46155 -0.826335 1.4579
3.45518 -0.824093 1.42028
0.647257 1.76761 2.36731
-3.67015 0.392353 -1.95336
-3.6432 0.379628 -1.97235
-1.79805 0.367473 0.640107
0.910515 1.35317 2.07356
-1.17747 0.245475 0.492602
-0.435205 0.246119 1.42714
-0.842801 0.245666 0.289328
-0.550388 0.125405 1.07742
-0.483733 0.110334 1.13875
-0.455433 0.117281 1.04312
0.397977 -0.131716 0.545592
1.21059 -0.499913 -0.121032
1.34158 -0.539684 -0.221258
1.89379 -0.754881 1.29505
1.95157 -0.650281 0.123708
2.21747 -0.744053 0.723077
2.40127 -0.698064 -0.189103
3.11146 -0.789959 1.51751
3.35745 -0.822743 1.55691
3.40236 -1.66376 0.703007
-0.872721 0.534129 -0.657867
-0.516514 0.121872 1.05697
1.04651 0.11606 1.98022
0.412097 -0.183621 0.588341
-0.407607 -0.110966 -1.94799
1.29133 -0.467358 -0.912377
2.31592 -0.779969 1.46396
1.58448 -0.423497 -1.87327
-4.67653 0.490197 -1.34395
-2.44664 0.278356 0.641771
-0.673564 0.159982 1.12596
-0.190616 -0.00151338 -0.0870215
0.974316 -0.446014 -0.477066
0.995553 -0.455745 -0.512239
3.20089 -0.810387 1.59481
-0.764468 0.37866 -1.15821
0.995028 0.172798 2.20568
2.20712 -0.610568 -0.782002
3.35338 -1.70536 0.825882
-2.0046 0.57397 -0.365351
-1.31953 0.265886 0.180822
-0.766919 0.383355 -1.17799
1.7647 -0.677515 0.677294
1.27328 0.149267 1.02887
3.23182 -1.66993 0.349521
-0.947197 0.21049 0.661858
0.884537 0.206762 1.75065
0.783065 1.48376 1.96558
-1.62777 0.253132 1.49371
-1.79234 0.322751 0.997069
-0.975892 0.402535 0.96886
-4.49472 0.51653 -2.03025
-0.520587 0.117955 1.13004
-0.634268 0.196571 0.469752
1.03555 0.127722 1.91682
0.933623 0.158599 1.78763
0.842335 0.196118 1.23546
-0.0714012 -0.0652058 0.348408
-1.49541 0.0793689 -2.27789
-1.50223 0.0858871 -2.31176
1.6838 -0.743559 1.42988
2.03793 -0.7924 1.67128
1.55558 -0.669715 0.940938
1.34235 -0.539825 -0.277424
3.25034 -0.827915 1.67118
0.862907 1.37711 1.93061
-0.933257 0.427609 1.69268
-1.85446 0.322097 1.09947
-1.28438 0.396133 0.574731
-2.0587 0.751738 -0.630198
-0.445326 0.11886 0.971699
-1.06131 0.322285 -0.124607
-0.695367 0.255963 0.172661
1.46739 0.0787871 1.78869
1.53271 0.0608099 1.83927
-0.176421 -0.0416056 0.178438
-0.190298 -0.00219699 -0.145374
1.05373 -0.554841 0.632244
1.86777 -0.756351 1.52364
1.60611 -0.684437 1.05738
1.88726 -0.748523 1.20685
1.67152 -0.684487 0.780025
1.7021 -0.696426 0.773809
2.52151 -0.738061 1.72859
2.45403 -0.807711 1.03099
1.29344 -0.475078 -0.877049
1.18904 0.091463 1.99956
-0.222536 -0.0337767 0.125852
1.89784 -0.776062 1.57174
-0.423551 -0.108724 -1.91132
1.50937 -0.503391 -0.918627
-1.35859 0.329929 0.299074
-1.06756 0.304974 -0.0717142
-1.21025 0.637905 -0.88309
-0.216735 0.30607 -1.16084
-0.388824 -0.0624495 -2.62091
1.28606 -0.502416 -0.465557
0.090799 -0.132388 -2.59522
1.53608 -0.495143 -0.939854
3.35964 -0.816149 1.46694
0.913686 0.795619 2.14621
-0.685017 0.133906 1.13118
-0.726952 0.219537 0.371719
1.26356 0.155625 1.00977
-1.15134 0.334108 -0.249013
-0.831669 0.48598 -0.40426
-2.16323 0.628894 -0.25541
-0.796372 0.369825 -0.250877
-0.841538 0.481477 -0.475493
-0.016171 -0.0322628 -0.171636
-0.301396 0.217014 -0.587268
-0.461444 0.228129 -0.771099
3.40678 -1.67364 0.750569
1.90654 -0.636945 0.620298
-1.61775 0.40285 0.304157
-1.22934 0.346417 0.0708872
0.685659 1.69733 2.27899
-1.62287 0.248937 1.49429
-0.263076 0.338243 1.53695
-1.01094 0.427001 0.962471
-0.563372 0.135187 0.977697
-0.408274 0.116533 0.936412
-0.671472 0.159386 0.760402
1.53935 -0.729079 1.67482
1.69777 -0.751911 1.60371
1.87566 -0.794581 1.64986
-3.94767 0.441008 -2.15278
-3.25617 0.355629 -2.35451
2.41024 -0.807292 1.20727
2.38275 -0.796406 1.18124
2.33491 -0.755322 0.759506
2.44677 -0.767438 0.672882
0.0957292 -0.279762 -1.05136
-1.52016 0.0963779 -2.37812
1.90473 -0.632499 -0.0266827
-0.403947 -0.101352 -2.08139
2.92005 -1.62792 -1.0163
1.1193 -0.265998 -2.83213
0.942314 1.34578 2.19602
1.00069 0.192786 2.26701
-0.971342 0.463552 1.0397
-0.562908 0.120585 1.09434
-3.74944 0.290589 -0.848906
-0.714916 0.205715 0.486269
-4.70225 0.55129 -2.14799
1.70335 -0.747443 1.4854
1.86292 -0.756901 1.52057
2.0055 -0.799389 1.59668
-1.16978 0.584229 -0.821557
1.45406 -0.62361 0.685761
2.51514 -0.821426 1.2009
2.9084 -0.908724 1.39209
0.961749 -0.49789 -0.0845552
2.08699 -0.727949 0.692364
2.41023 -0.798716 0.90517
0.972931 -0.467768 -0.434607
0.395125 -0.336383 -0.856876
0.978556 -0.452163 -0.56266
2.97889 -0.864109 0.835737
1.27142 -0.51663 -0.486914
2.38587 -0.719036 0.25216
1.51606 -0.493578 -0.84015
2.25875 -0.649192 -0.496104
2.76334 -0.715947 -0.403111
1.63721 -0.366742 -2.57112
-1.12305 0.529064 1.139
-1.20879 0.634407 -0.927002
1.94333 -0.757358 1.44448
1.65313 -0.685199 0.737827
3.21395 -0.828819 1.7043
3.39275 -0.83473 1.56024
1.6034 -0.621444 0.219148
1.49684 -0.590372 0.0550981
2.06606 -0.661402 0.248765
0.618276 -0.247408 -2.13138
1.44699 -0.313746 -2.76525
1.03942 0.119956 1.88756
-1.97778 0.556445 -0.221669
1.56269 -0.718541 1.65981
1.80461 -0.736219 1.33919
2.30724 -0.802025 1.38168
2.50708 -0.862003 1.42526
1.58567 -0.610472 0.233116
1.29957 -0.518691 -0.257024
2.38132 -0.701541 -0.134661
0.919401 -0.323352 -1.94181
1.1197 -0.334594 -2.08004
-0.00371798 0.294685 1.42308
-0.628224 0.32524 -0.973666
1.57342 -0.651818 0.678147
1.80125 -0.685494 0.73112
1.62518 -0.641768 0.50253
1.07371 -0.505572 -0.0431291
3.46229 -0.82216 1.42017
1.65566 -0.374546 -2.59113
-1.99295 0.600276 -0.0411947
-0.848322 0.467961 -0.550726
1.5278 -0.678843 0.989266
3.41355 -0.82623 1.4904
2.31828 -0.639244 -0.56359
0.00758455 0.145763 -0.368896
-1.46044 0.401169 0.13357
-0.922564 0.267424 -0.064551
1.83085 -0.681005 0.616175
0.766439 -0.343158 -0.0105281
-1.46693 0.238001 1.29597
-0.0412552 0.308958 1.433
1.47511 0.0856004 1.68387
-0.744142 0.287943 1.03664
1.54313 -0.734538 1.67644
1.64447 -0.735825 1.59448
-2.49854 0.298083 0.527489
1.70674 -0.744554 1.48824
2.44141 -0.844594 1.49108
1.515 -0.667729 1.14569
0.478185 -0.210469 0.730072
3.46716 -0.8274 1.43853
2.28581 -0.785829 1.18145
1.96873 -0.731982 1.1021
-0.794175 0.272701 0.202617
2.38386 -0.803242 1.0953
2.24025 -0.767349 1.04502
2.46234 -0.822036 1.08178
1.66877 -0.692194 0.771192
-0.183141 -0.0423332 0.175977
-1.35061 0.378345 -0.316885
2.81906 -0.84776 0.89687
2.19858 -0.746826 0.712042
1.56243 -0.624203 0.517294
1.60976 -0.624504 0.473198
-4.63547 0.49128 -1.46777
2.24772 -0.715312 0.452869
-1.1891 0.640295 -0.83716
-5.21753 0.616118 -1.9501
-1.28078 0.644137 -0.900898
-5.0881 0.599365 -1.95647
-1.06742 0.604678 -0.881543
2.3163 -0.716662 0.244425
2.41312 -0.719656 0.252056
2.35556 -0.712858 0.225944
2.26335 -0.673635 -0.107411
-3.3786 0.365982 -2.16728
2.85092 -0.766545 0.00414548
0.0901811 -0.281258 -1.05123
-1.4752 0.609796 -1.9052
-0.0764136 -0.221915 -1.36697
1.49312 -0.504145 -0.874183
2.76778 -0.716064 -0.399959
2.1369 -0.587961 -0.869279
0.0851316 -0.205032 -1.90922
-0.398771 -0.072522 -2.573
1.17057 -0.35297 -1.98573
1.33292 -0.373429 -2.17158
0.648059 -0.226434 -2.62645
1.68928 -0.378384 -2.53249
0.699461 1.68403 2.29182
0.878362 1.42001 2.20757
-1.10685 0.435759 1.94009
-1.27921 0.453486 1.81612
-1.62209 0.235556 1.50019
1.76512 -0.652064 1.94691
-0.976179 0.429746 1.0054
0.839194 0.18908 1.31865
1.70331 -0.761971 1.60387
2.23208 -0.812265 1.60946
-1.83333 0.386163 0.559103
-0.289795 -0.0694226 0.657927
1.90435 -0.763124 1.25583
-0.588343 0.186298 0.460104
1.75111 -0.708196 1.13552
1.4696 -0.652198 1.01959
-1.43034 0.34392 0.145882
1.64979 -0.667931 0.797647
1.35142 -0.60385 0.659371
-2.05868 0.599144 -0.469651
1.02498 -0.544597 0.452031
-0.211252 0.0189619 -0.16425
2.7252 -0.809395 0.714134
-0.624831 0.0806657 -0.342729
2.74741 -0.811576 0.704368
3.01827 -0.837101 0.653783
-1.02621 0.593501 -0.891281
1.62194 -0.602934 0.0280989
2.53429 -0.743145 0.286666
2.47054 -0.721836 0.22166
-3.97782 0.443819 -1.98476
1.29323 -0.51547 -0.303848
2.19905 -0.663476 -0.105667
1.19052 -0.490064 -0.504096
2.4234 -0.703675 -0.178839
1.14174 -0.34848 -1.95258
1.16044 -0.341508 -2.00969
1.25693 -0.342033 -2.26061
0.279149 -0.144968 -2.83202
0.285583 1.94444 2.40117
0.609233 1.76589 2.23888
-0.707032 0.395939 1.66939
-1.77533 0.312784 1.00162
-0.533075 0.119696 1.09019
-1.738 0.325705 0.83584
-1.30369 0.259922 0.368551
2.9152 -0.898976 1.35393
1.87986 -0.723677 1.0328
1.68368 -0.667806 0.820645
1.52066 -0.629694 0.616691
2.99067 -0.848837 0.739499
0.796312 0.156777 -0.119302
-1.19244 0.614954 -0.873044
-0.916483 0.442943 -0.788676
0.963825 -0.490489 -0.0846745
1.12524 -0.502789 -0.109662
2.36123 -0.72819 0.262196
-0.432395 0.254659 -0.865364
2.06272 -0.649993 -0.0149949
1.34232 -0.509057 -0.388918
-0.944925 0.670261 -1.61078
2.13427 -0.614949 -0.511825
0.155941 -0.254335 -1.41996
-0.53736 -0.0829914 -1.97413
0.609656 -0.314759 -1.58951
1.32576 -0.412734 -1.4803
1.56505 -0.425871 -1.87688
0.970971 0.207145 2.23156
0.885817 0.174302 1.37912
-2.34965 0.225727 0.921616
-0.914662 0.315106 1.01173
2.3874 -0.820169 1.39716
2.56405 -0.824717 1.03556
1.31947 -0.601749 0.670726
-0.624358 0.0746788 -0.354718
1.97661 -0.663012 0.304906
2.06537 -0.64642 -0.0338087
-1.00603 0.540726 -1.20947
0.96896 -0.473183 -0.43998
1.32643 -0.520752 -0.371557
0.70058 -0.316715 -1.63282
-0.0450837 0.304785 1.44674
3.1992 -0.817117 1.642
3.35764 -0.823449 1.55657
-0.188509 -0.0519121 0.204626
1.46272 -0.626044 0.623638
-1.49162 0.653208 -2.05452
0.914554 1.38177 2.19453
1.60926 -0.713239 1.46982
-1.62986 0.382235 0.0284589
0.738416 1.6597 2.32162
3.25638 -0.829574 1.63441
-0.627127 0.134312 -0.164555
-1.21094 0.206351 0.252625
-0.665499 0.158349 1.06451
1.54565 -0.618524 1.50531
0.754091 1.56498 2.12378
1.46809 0.0886525 1.6822
-1.13188 0.443119 1.93516
1.07819 0.139505 1.66099
1.17882 0.122166 1.62753
-1.56837 0.504154 1.94283
3.51269 -0.835555 1.42518
-0.95642 0.424272 1.74291
2.49549 -0.863208 1.44885
-0.963747 0.4304 1.68216
-0.250571 0.313933 1.56655
-0.326633 0.341577 1.52298
-0.0961092 0.315967 1.45274
0.68945 0.204117 1.35908
1.73808 -0.726583 1.3267
3.04826 -0.903174 1.18434
0.424904 0.248742 1.3053
2.18494 -0.7611 1.08394
1.63904 -0.70511 1.0915
2.23851 -0.767327 1.04486
2.57443 -0.83305 1.01748
1.70787 -0.680938 1.06493
1.87289 -0.732986 1.05044
1.82717 -0.723676 1.04836
1.90836 -0.740832 1.03823
1.78493 -0.698151 1.04541
1.76526 -0.698516 1.03464
1.97656 -0.765292 1.00632
3.02878 -0.875346 0.866257
2.52942 -0.799845 0.87282
1.50272 -0.667654 0.913491
1.50716 -0.646931 0.864733
2.82477 -0.838644 0.78437
3.09215 -0.864869 0.730888
1.41554 -0.623774 0.724189
1.54647 -0.628649 0.642606
1.57702 -0.634335 0.632342
1.56429 -0.630618 0.558204
1.81649 -0.670636 0.466865
2.4414 -0.75281 0.442659
1.67058 -0.622368 0.361683
2.14865 -0.682681 0.315885
2.5357 -0.733466 0.196213
1.40963 -0.57154 0.10215
1.90251 -0.633988 0.0434685
2.0543 -0.649737 0.00376846
0.681037 0.143327 -0.0201183
2.22237 -0.667674 -0.050579
2.79061 -0.757297 -0.0446271
0.991291 -0.486709 -0.106642
2.29923 -0.674144 -0.115934
1.06454 -0.484766 -0.228276
2.34926 -0.681936 -0.190096
1.42419 -0.542841 -0.249893
0.846861 -0.448935 -0.367054
1.29305 -0.505978 -0.383003
-2.05356 0.721285 -0.566731
1.91653 -0.595817 -0.426642
1.24198 -0.507836 -0.486595
0.886834 -0.436225 -0.682646
-1.19773 0.632338 -0.882357
-1.01917 0.598345 -0.936135
-0.96192 0.628318 -0.992799
1.73932 -0.529205 -0.998345
2.53342 -0.630048 -0.993083
-0.0851989 -0.208613 -1.40444
2.13567 -0.549451 -1.17281
0.146012 -0.230496 -1.65868
-1.36798 0.57555 -1.88879
-1.20637 0.582832 -1.93148
-3.26458 0.357464 -2.40705
1.63884 -0.420234 -1.90992
1.16033 -0.33823 -2.04292
-0.810068 -0.0105835 -2.45802
-1.03359 0.02247 -2.62634
1.99857 -0.455968 -2.08563
1.67275 -0.390123 -2.35868
-0.0109327 1.99504 2.48691
0.742404 1.63337 2.33497
0.590251 1.76616 2.15274
0.803034 1.46023 2.0487
1.45903 0.0671932 1.82649
3.57758 -0.845858 1.61352
0.954138 0.138529 1.81549
2.1296 -0.806174 1.65247
3.42289 -0.81681 1.42746
1.71217 -0.745632 1.6037
-0.503739 0.359114 1.7381
2.07942 -0.795763 1.55914
2.87976 -0.855809 1.43802
-0.276366 0.345767 1.55222
3.4693 -1.48523 1.13395
1.04196 0.171727 1.10312
1.86211 -0.745025 1.11071
1.79871 -0.729938 1.11311
-0.881955 0.379324 1.07708
3.10029 -0.879228 0.869228
-1.02977 0.463324 1.00383
1.56295 -0.661277 0.870239
3.07513 -0.858255 0.789945
1.61856 -0.67104 0.866069
-2.53819 0.240407 0.987225
1.76647 -0.682264 0.757093
2.16439 -0.744102 0.726334
1.72917 -0.675955 0.744486
-0.297532 -0.0601314 0.675173
1.99665 -0.68855 0.589106
0.0760416 -0.0951212 0.490961
1.64311 -0.624746 0.460381
1.41911 -0.620909 0.355617
2.50925 -0.741461 0.282471
-0.238873 -0.0363472 0.229579
-0.733398 0.252976 0.201414
2.47004 -0.709046 -0.0478699
2.22638 -0.666212 -0.119501
2.26187 -0.666769 -0.130877
1.30744 -0.520964 -0.180799
-1.99098 0.550669 -0.266174
2.1851 -0.648197 -0.19207
1.49469 -0.555151 -0.248404
2.44817 -0.683941 -0.275785
1.32311 -0.515847 -0.425159
-0.151499 -0.274309 -0.671387
1.63409 -0.543056 -0.637102
-1.30713 0.669056 -0.910218
-0.0415459 -0.26095 -1.0153
1.5797 -0.508113 -0.894302
0.907171 -0.411572 -1.03874
2.01675 -0.553976 -1.08167
0.804194 -0.373208 -1.26053
1.36431 -0.427959 -1.36318
2.00633 -0.531577 -1.35252
0.0912992 -0.220721 -1.62071
-0.444337 -0.109485 -1.88188
0.89974 -0.344948 -1.70435
-3.28592 0.320945 -2.3951
0.944554 -0.333459 -1.93725
1.47747 -0.39175 -1.85105
-2.23045 0.324287 -2.5225
1.28416 -0.346305 -2.24376
1.80114 -0.425148 -2.30424
1.12657 -0.282871 -2.80227
1.44504 0.119415 2.28759
2.48514 -0.729449 1.71016
-0.962465 0.412269 1.94114
1.77337 -0.781531 1.67667
3.42322 -0.808821 1.44514
-0.26203 0.339048 1.52776
0.610063 0.216937 1.35481
-1.60766 0.236453 1.50182
-1.42201 0.253454 1.35822
-1.51896 0.204455 1.30734
2.59895 -0.855105 1.05499
2.41904 -0.787362 0.858288
1.55033 -0.659756 0.85371
0.822566 -0.0543633 0.639134
-1.83908 0.385031 0.55798
2.33144 -0.739107 0.319584
1.6559 -0.626164 0.27086
2.4945 -0.738724 0.258499
-0.898395 0.25715 0.257513
-2.76123 0.545741 -0.0814038
1.93352 -0.630347 -0.378206
-3.94049 0.320044 -0.786841
2.07566 -0.567824 -1.10905
-0.107037 -0.223588 -1.34206
-4.438 0.486216 -1.79455
0.175682 -0.261241 -1.39409
0.967774 -0.390769 -1.35344
0.673221 -0.3459 -1.61171
0.137194 -0.20142 -1.91126
-1.63722 0.0979017 -2.45618
0.190364 -0.124472 -2.7919
-0.106734 1.99254 2.52088
3.45078 -0.820471 1.46257
1.92535 -0.792526 1.60769
1.88457 -0.780444 1.58674
1.97083 -0.795175 1.56083
2.45651 -0.842085 1.50469
2.86954 -0.88656 1.25534
1.57741 -0.691623 1.31276
-1.24812 0.300211 1.27609
1.6425 -0.682843 0.791487
2.33231 -0.738037 0.31854
-0.763791 0.24431 0.232207
-0.187906 -0.0455396 0.207376
2.74937 -0.763905 0.106753
-2.05658 0.554123 -0.430637
2.24714 -0.607201 -0.842885
-0.0854552 -0.237219 -1.05776
1.28582 -0.432242 -1.46544
-1.09665 0.897487 -1.64807
-1.18369 0.558514 -1.90513
-0.340548 -0.119273 -1.87274
2.01079 -0.431205 -2.43286
3.23034 -0.820167 1.54575
2.04711 -0.762684 1.17195
-0.617089 0.113355 1.13109
2.28948 -0.757018 0.850535
-0.837565 0.0886309 0.837741
-0.600103 0.12669 -0.2012
-2.05555 0.573238 -0.504876
0.901647 -0.381355 -0.44881
2.02204 -0.60639 -0.459158
2.10491 -0.62106 -0.493569
-0.938547 0.746549 -1.63138
-1.59253 0.573593 1.95914
1.04044 0.162502 1.03882
1.59455 -0.648326 1.04531
-1.0372 0.11439 0.771468
2.03476 -0.657008 0.247316
0.723651 -0.0280109 0.219529
-1.44134 0.338225 0.171905
-1.27118 0.596716 -0.589779
-2.10099 0.762953 -0.648799
-0.370921 -0.0650624 -2.62393
2.95304 -0.902519 1.27031
0.744935 0.198617 1.37042
2.0692 -0.72135 0.692933
-1.37118 0.388556 -0.462379
-0.858339 0.0870531 -1.56349
-1.15816 0.863628 -1.55739
-1.39004 0.656053 -1.91497
1.62544 -0.707895 1.56283
2.75987 -0.844224 1.27278
-0.639815 0.14593 0.926175
-1.46191 0.389873 -0.368977
-0.13831 -0.337649 -1.03466
0.892935 0.205137 1.75627
3.604 -0.978766 1.57817
3.46895 -1.1827 1.23418
-0.938308 0.301798 1.18496
-2.56417 0.60547 -0.855408
-0.632163 0.17802 1.05656
-0.896787 -0.0228285 -2.10417
1.16061 -0.326608 -2.16427
0.454529 -0.23161 -2.07206
0.895649 -0.306769 -1.96194
1.18004 -0.367335 -1.97948
-0.121441 -0.185593 -1.68948
0.304066 -0.251855 -1.72164
1.36169 -0.408794 -1.83128
0.884555 -0.330522 -1.65925
-1.10911 0.561272 -0.795997
0.693233 -0.331609 -1.26817
0.435041 -0.327333 -1.13395
0.34245 -0.309961 -1.11392
-0.0796151 -0.249778 -0.997952
2.36997 -0.572195 -1.2194
1.67532 -0.529814 -0.975639
1.27864 -0.482248 -0.881128
1.55066 -0.50105 -0.922941
0.559616 -0.359651 -0.616735
-0.332971 0.0364197 -0.318334
-1.72789 0.510794 0.247137
1.03588 -0.469768 -0.476284
0.940485 -0.447695 -0.443539
-0.700456 0.252286 0.159285
-0.726813 0.25628 0.191426
1.32521 -0.52472 -0.370773
1.3271 -0.526909 -0.339628
1.92211 -0.601085 -0.414437
2.5446 -0.675077 -0.568817
-0.242794 -0.0394651 0.226193
-1.19812 0.212272 0.736655
0.0200263 -0.071732 0.376635
2.2259 -0.669695 -0.153358
2.15064 -0.665608 -0.129143
1.50525 -0.588512 0.0644545
1.25286 -0.565293 0.152294
1.58621 -0.60785 0.0747078
2.66467 -0.721318 -0.226488
-1.06319 0.438167 0.980383
1.99954 -0.642789 -0.0233092
1.90383 -0.640673 0.0873566
2.2216 -0.680031 0.0649914
-0.745919 0.263502 1.06297
0.842757 -0.105977 0.569002
1.24824 -0.587778 0.408986
-0.215639 -0.112174 0.910696
0.8652 -0.0805998 0.784323
1.70011 -0.641894 0.473501
2.12343 -0.682589 0.362129
1.74472 -0.655869 0.557002
1.30311 -0.619522 0.764876
1.59855 -0.654279 0.711036
-1.3759 0.476772 1.87924
1.05547 0.169779 1.06873
0.464058 0.246567 1.27746
1.0444 0.168572 1.09947
0.370842 0.241618 1.36567
0.989212 0.167225 1.16398
1.77992 -0.703878 0.805893
2.52011 -0.785533 0.580766
2.52543 -0.791034 0.589873
1.49631 -0.643356 0.966974
3.04813 -0.842673 0.419951
0.7897 0.192419 1.31272
2.52598 -0.776549 0.814743
2.96466 -0.842125 0.686386
2.14323 -0.759156 1.07851
2.19667 -0.761554 1.07498
1.5899 -0.696108 1.37829
1.85575 -0.761544 1.2935
2.60496 -0.823069 1.00809
2.27376 -0.786824 1.1507
0.822999 0.837718 1.83575
0.891237 1.38447 2.03993
0.942983 0.137761 2.01044
2.05828 -0.797095 1.67947
3.29235 -0.832143 1.66253
3.30262 -0.810504 1.69362
1.07215 -0.352951 -2.43843
1.87451 -0.468613 -1.97256
0.763745 -0.31999 -1.66871
0.708826 -0.332593 -1.63625
-3.94069 0.310945 -0.781508
2.12747 -0.562357 -1.40987
-2.28533 0.694232 -0.315239
-2.26275 0.699161 -0.303907
0.0308628 -0.308766 -0.732981
0.1583 -0.334048 -0.474824
2.23614 -0.640811 -0.823477
1.36538 -0.519681 -0.543984
0.683453 0.0879241 -0.227711
2.27608 -0.634819 -0.571761
-0.141992 -0.0650319 0.168476
-0.309367 -0.0268589 0.242025
1.5504 -0.570806 -0.252351
1.8263 -0.604573 -0.324568
2.09998 -0.637785 -0.165363
0.0202872 -0.0462464 0.51777
1.73082 -0.617174 -0.0306398
2.36699 -0.692104 -0.113399
1.21018 -0.563351 0.389886
0.822324 -0.062426 0.600034
0.895317 -0.0586575 0.647497
2.00937 -0.662626 0.372422
0.861424 0.00217029 0.879536
1.45835 -0.642238 0.707921
1.60007 -0.650008 0.665743
1.66685 -0.665313 0.644385
1.46754 -0.629851 0.722057
-0.360204 0.351949 1.54668
1.32814 0.130931 0.986759
1.38062 -0.64891 0.916913
1.54257 -0.656822 0.876599
2.65877 -0.787978 0.516048
-1.1073 0.431015 2.02435
2.05865 -0.759356 0.986225
2.58518 -0.797334 0.792336
1.64921 -0.707114 1.36091
1.89982 -0.770838 1.26683
1.02692 0.158627 1.67848
1.9686 -0.774715 1.25631
1.13602 0.139286 1.64154
2.04859 -0.776476 1.23266
1.23968 0.128728 1.60798
2.67048 -0.847822 1.01105
0.784482 1.49304 2.04169
1.92234 -0.765789 1.54957
2.80968 -0.869733 1.28963
2.13139 -0.804862 1.65176
2.3465 -0.83397 1.58092
1.27481 0.101873 2.11102
-0.739833 0.0337861 -2.4475
1.1467 -0.361021 -2.33544
1.16364 -0.326314 -2.12689
1.44985 -0.366292 -1.7957
-2.19169 0.653315 -0.472421
-2.06342 0.559234 -0.377569
-2.13915 0.680003 -0.317761
0.185524 -0.317774 -0.772536
-1.28387 0.352807 -0.337245
-1.2731 0.357992 -0.305623
0.67143 -0.403258 -0.626105
1.24116 -0.509115 -0.511204
0.737652 0.0960331 -0.191709
2.32675 -0.674569 -0.230177
-1.10701 0.470668 1.07517
1.98929 -0.656898 0.0379889
1.6807 -0.598796 0.227333
1.79904 -0.625448 0.215665
1.71912 -0.623698 0.26165
1.15126 0.155138 1.0477
2.01678 -0.700485 0.673103
1.50131 -0.661293 0.933001
0.724054 0.22113 1.35224
1.92327 -0.719929 1.01416
2.32504 -0.770704 0.863423
2.04781 -0.698189 0.985708
0.903458 1.35359 1.61215
2.84268 -0.852613 0.959807
0.259971 1.98678 2.17128
2.02632 -0.80629 1.55348
2.56139 -0.870053 1.42422
1.22643 -0.378543 -1.99759
0.647888 -0.282796 -1.6515
-2.03048 0.585996 -0.440395
1.36419 -0.549166 -0.170771
1.22955 -0.526253 -0.115987
0.756908 0.502677 1.55109
2.23044 -0.782565 0.922661
2.01071 -0.789718 1.57661
2.14611 -0.821628 1.5966
2.26852 -0.763594 1.59475
2.22783 -0.698406 1.79908
1.05369 -0.399357 -1.72282
-0.48306 0.0521127 -0.339153
0.326526 -0.368054 -0.533
-0.610325 0.183715 0.964122
-0.78948 0.300314 1.0595
-0.967772 0.361423 1.14753
-0.501603 0.111204 1.06593
-1.63839 0.210509 1.44184
0.340046 0.257063 1.28969
2.26992 -0.785973 1.18102
1.65576 -0.704505 1.68172
-1.99384 0.634933 -0.549199
-1.38537 0.334248 0.201683
-1.33056 0.325464 0.369005
2.14757 -0.648023 -0.456914
1.44327 -0.615467 0.62274
0.0415522 0.106412 1.26129
1.77697 -0.67674 0.835725
1.67039 -0.725549 1.36357
2.39717 -0.822838 1.10045
-1.18134 0.270658 0.900293
2.01146 -0.619357 -0.0801385
0.742679 0.133365 0.991818
0.873564 0.249718 1.65208
0.332702 1.95311 2.05816
0.693143 1.88529 2.56329
-2.59847 0.230114 -2.4158
0.308407 -0.145351 -2.86079
0.178343 -0.143039 -2.79661
-0.00291631 -0.0969376 -2.71747
0.595621 -0.189861 -2.78576
-4.35619 0.43189 -1.27223
1.13853 -0.279807 -2.79865
0.267201 -0.187202 -2.51358
0.418063 -0.208943 -2.55377
1.49707 -0.361863 -2.57646
1.50621 -0.356466 -2.55915
-0.606317 -0.0892371 -1.89489
0.788583 -0.272087 -2.33441
-0.0191888 -0.208248 -1.92203
-0.38229 -0.0664579 -1.73968
2.10584 -0.446085 -2.44425
2.04694 -0.434771 -2.41675
-0.247286 -0.166138 -1.64589
1.23404 -0.362044 -2.14857
0.45902 -0.257899 -1.87395
-0.719359 0.425295 -1.17368
0.489144 -0.252998 -1.86792
0.716555 -0.291681 -1.95016
0.831 -0.296541 -1.9457
-1.11112 0.56422 -0.794211
0.88997 -0.343272 -1.6872
1.36485 -0.379377 -1.82362
0.60906 -0.306143 -1.55049
1.85632 -0.447337 -1.99269
1.51199 -0.421623 -1.8476
0.850941 -0.378418 -1.31044
1.77686 -0.479038 -1.60403
1.95966 -0.492841 -1.6494
1.33181 -0.44368 -1.16943
1.16688 -0.448079 -1.09183
2.06208 -0.534451 -1.37627
-0.697433 0.24891 0.158361
-0.237491 0.0490913 -0.0894574
1.27422 -0.477392 -0.884875
2.04548 -0.559103 -1.09292
0.721206 0.200103 -0.199642
-0.24547 -0.0401996 0.227318
-0.973635 0.398318 0.959309
2.28336 -0.603962 -0.847073
-0.916445 0.320478 1.02573
2.47314 -0.635267 -0.822313
1.64185 -0.588264 -0.291265
2.27846 -0.649845 -0.577598
1.52897 -0.58579 0.0697463
2.09227 -0.643692 -0.085367
0.449275 0.248364 1.28466
0.371028 0.242069 1.36652
2.63881 -0.729828 -0.0835617
2.5357 -0.744865 0.249375
1.49493 -0.65281 0.904534
0.824892 0.840206 1.83474
1.53633 -0.678297 1.13175
1.58496 -0.687806 1.11983
2.5607 -0.784453 0.579685
1.93271 -0.743669 1.11005
1.1413 1.24457 2.37557
1.85776 -0.767244 1.57218
2.62978 -0.13522 1.97057
3.29835 -0.829603 1.6562
-5.0965 0.605978 -1.73807
-3.80932 0.372685 -2.04776
-1.72324 0.668939 -1.90307
-2.44248 0.939675 -1.23353
0.454203 -0.198621 -2.52984
1.17883 -0.288023 -2.5443
1.79203 -0.374419 -2.64151
-3.97661 0.283831 -0.787866
0.841348 -0.297856 -2.21573
-2.32557 0.690857 -0.67075
0.851346 -0.300981 -2.03085
-2.06791 0.738659 -0.632912
-0.950347 0.531671 -0.838799
1.41468 -0.378296 -1.87732
1.42624 -0.389986 -1.86521
1.22781 -0.388331 -1.78791
1.65445 -0.418991 -1.90377
1.40426 -0.397971 -1.80377
1.87902 -0.4593 -1.97129
1.88972 -0.482489 -1.72367
1.58664 -0.489739 -1.22391
1.03571 -0.421888 -0.727772
-2.48555 0.231353 0.943319
-1.2349 0.277062 0.559204
-0.304327 -0.0261361 0.250476
1.06617 -0.513542 -0.460868
-0.0853066 -0.0476487 0.391249
1.19612 -0.491396 -0.282573
1.80665 -0.603019 -0.344663
2.22136 -0.660626 -0.14757
-0.509668 0.364727 1.56272
1.94589 -0.637058 0.011202
1.06531 0.169861 1.08155
0.616353 0.220592 1.38945
1.50327 -0.626281 0.742963
1.58866 -0.647935 0.695136
0.834151 1.41819 2.01264
2.33173 -0.766924 0.629571
1.1468 1.30307 2.39841
1.90094 -0.785433 1.60201
-3.61392 0.374651 -2.09012
-3.97877 0.387672 -1.99509
-3.81426 0.433501 -1.96727
-2.318 0.758488 -1.82832
-4.21826 0.414017 -1.3315
-2.01689 0.805634 -1.43831
0.165597 -0.191681 -2.14243
1.4184 -0.336576 -2.52028
0.490311 -0.255557 -2.10529
0.371188 -0.232835 -2.05265
0.785307 -0.301292 -1.9042
0.781636 -0.334698 -1.89831
1.80196 -0.481194 -1.67985
1.77428 -0.499403 -1.27982
-1.10699 0.247504 0.564013
1.32827 -0.545958 -0.162869
1.87363 -0.668311 0.454393
1.90831 -0.661037 0.48245
-0.193681 2.00038 2.55394
3.02686 -0.845582 0.647095
1.05977 1.28841 2.33259
1.13289 1.15949 2.36646
2.23426 -0.812935 1.60614
3.03182 -0.900137 1.2413
3.3606 -0.825111 1.56279
-1.04034 -0.044487 -2.68073
1.44143 -0.284178 -2.88374
-1.03406 0.804146 -1.55709
-2.85945 0.916063 -0.999408
1.41746 -0.326158 -2.53478
1.26761 -0.329648 -2.46632
-0.192514 -0.162982 -1.87357
-1.03066 0.610806 -1.19639
0.139089 -0.229077 -1.94439
-1.96428 0.690863 -0.695477
0.0557697 -0.23535 -1.62126
1.21309 -0.354608 -1.98936
-1.99558 0.554357 -0.409968
0.697517 -0.319063 -1.25593
0.954561 -0.412746 -1.05388
0.352213 -0.351363 -0.522177
1.2367 -0.525824 -0.116427
1.87022 -0.634431 -0.00274036
1.76361 -0.651041 0.43438
1.62817 -0.638506 0.515882
1.87421 -0.657266 0.45459
1.07869 1.18105 2.31495
2.22388 -0.804504 1.48326
-0.95464 0.728821 -1.64381
-0.268159 -0.146311 -1.97444
0.907168 -0.295365 -2.24278
-2.51796 0.636549 -0.798617
0.897096 -0.297308 -2.01109
1.18988 -0.39827 -1.78973
1.37793 -0.398116 -1.82537
1.70754 -0.428304 -1.93281
-0.0114956 -0.105026 0.610972
0.992743 0.423442 2.2637
1.01616 0.266718 2.27328
-2.34124 0.948981 -1.23216
-1.01496 0.531594 -0.89256
-1.87528 0.506988 0.185386
-0.841837 0.200679 0.128504
0.965528 0.192834 1.12211
2.14838 -0.796188 1.43183
3.56111 -1.10529 1.30009
3.65764 -0.956819 1.57813
-0.833807 0.170716 -1.46201
1.10724 -0.423074 -0.786106
0.540972 1.88922 2.04339
2.04174 -0.592599 -2.40803
-1.00438 0.121502 0.722432
1.1025 -0.420275 -0.397197
0.956729 -0.227735 0.0294566
-1.05021 0.143374 -0.539843
-4.3109 0.481767 -2.00688
-4.71477 0.530415 -1.71013
-0.0731797 -0.104773 -2.70759
-0.0602207 -0.102031 -2.64403
0.700506 -0.19575 -2.98437
-2.00428 0.71487 -0.679224
-2.1139 0.697913 -0.469418
-2.80265 0.59031 -0.0888343
0.726737 -0.239985 -2.39215
-0.0615835 -0.164259 -1.9258
-1.90618 0.468095 -0.382264
-0.902414 0.536339 -0.743612
0.0496091 -0.21099 -1.61104
1.82783 -0.38844 -2.67949
0.611237 -0.309134 -1.57233
-0.147079 -0.0487897 0.0298146
-1.57436 0.234112 1.48821
0.0719159 0.283004 1.55353
0.565443 1.84793 2.20966
1.2515 -0.601484 0.684347
0.770388 1.55786 2.17946
1.39416 0.102992 1.56442
-4.92388 0.551782 -1.83591
-3.88062 0.431996 -1.95762
-0.499082 -0.0508006 -2.55933
-1.18503 0.80543 -1.48243
-0.390514 -0.0723023 -2.57429
-1.97869 0.733435 -0.701957
0.498605 -0.210339 -2.56048
-0.49019 -0.105684 -1.90336
0.767095 -0.281078 -2.16709
-1.5703 0.341667 0.177074
-2.54067 0.242307 0.98993
1.6608 -0.421922 -1.91371
-1.28013 0.247697 0.374819
1.7171 -0.479162 -1.65825
1.5771 -0.449878 -1.54762
1.76977 -0.471497 -1.62647
0.874969 -0.455258 -0.402772
-0.468253 0.0994755 1.12132
2.50437 -0.627925 -0.990207
0.890207 -0.0523618 0.623405
-2.40949 0.304133 -2.42902
-2.29291 0.723614 -2.00491
-2.38177 0.849499 -1.31699
-1.70316 0.823345 -1.47439
-1.06229 0.0179542 -2.16686
-0.942557 0.600713 -0.997412
1.14938 -0.277896 -2.70412
-0.892654 0.4699 -0.729856
0.680524 -0.275713 -2.13205
0.434451 -0.24668 -1.83483
1.00537 -0.359771 -1.34699
-0.290381 -0.0311195 0.3154
-0.752091 0.274239 1.03526
0.1462 0.278086 1.48287
0.868201 1.38953 2.06155
0.984118 0.218948 2.25318
3.16597 -0.808693 1.56171
-1.20296 0.542535 -1.91634
-0.919903 0.784231 -1.61683
0.54967 -0.21045 -2.54077
-0.99107 0.453127 -1.22839
0.847076 -0.295213 -1.95798
-2.50786 0.361261 0.486692
-0.812229 0.381405 1.71193
1.24271 -0.532424 -0.110899
2.28346 -0.646809 -0.518267
0.844896 0.196854 1.10471
0.981516 0.350119 2.26527
3.18381 -0.800992 1.51354
3.2192 -0.804424 1.52258
-1.33352 0.935835 -1.50167
-0.997208 0.566147 -0.713715
-0.752371 0.228984 0.126542
-0.319403 0.25204 -1.03817
-1.24793 0.620984 -0.966196
3.36284 -0.820635 1.55051
-1.89755 0.336475 0.306005
-0.592251 0.114095 0.0411492
-4.28534 0.494624 -1.99699
-3.82045 0.359391 -1.50143
-1.7196 0.636566 -1.90018
-1.50359 0.0901771 -2.34684
-2.06212 0.741303 -0.631664
-1.57988 0.638834 -1.08355
-0.262566 -0.0611142 -2.78058
-0.479472 -0.042646 -2.56526
-0.382708 -0.0819485 -2.62317
-1.07538 0.616837 -0.94513
-2.73762 0.537399 0.31184
-1.91811 0.465321 -0.376968
0.0853296 -0.119147 -2.70844
0.590639 -0.191843 -2.92844
0.0589299 -0.211816 -1.61548
0.916751 -0.318423 -2.03157
0.39065 -0.30767 -1.13446
-0.618427 0.174426 0.626108
0.741749 0.189705 -0.0671362
1.77799 -0.474575 -1.60356
1.3161 -0.522357 -0.231103
0.847913 0.179749 1.28182
1.586 -0.690662 1.10871
-3.28063 0.386866 -2.39967
-2.06211 0.711555 -0.611852
-2.21514 0.702158 -0.363941
-0.360184 -0.0755464 -2.56882
-1.48392 0.400638 -0.448814
-1.68755 0.272998 1.36886
-0.730133 0.192392 1.05695
-0.49951 0.107619 1.1295
-0.462062 0.104827 1.11479
0.0368427 2.1482 3.02773
0.20772 0.264488 1.47536
1.34417 0.0804752 1.82831
-2.48172 0.830829 -1.74958
0.293214 -0.132469 -2.92773
-0.604469 0.0670111 -0.305568
-0.372693 -0.058043 0.39998
-0.271359 0.318374 1.56645
1.27316 -0.470749 -0.87542
0.0920835 0.275398 1.57271
0.727791 0.209041 1.18842
0.665395 0.213297 1.37957
1.51281 -0.553817 -0.281655
1.02802 0.168376 1.11665
2.28504 -0.649774 -0.52375
-0.864724 0.32523 -0.650837
-1.50375 0.292832 0.454846
0.769821 0.212691 1.19069
1.28898 0.135173 1.16417
1.49653 -0.668479 0.954436
1.56205 -0.683855 1.08803
-1.82815 0.407451 0.492743
-0.324188 0.237838 -0.870591
-1.34817 0.335902 0.279153
0.467989 0.0790889 -0.124949
3.31427 -0.834495 1.5754
-1.95727 0.829946 -1.45616
-1.80242 0.449618 -0.294984
-1.35981 0.368677 0.410354
0.753719 0.205499 1.20679
1.04965 -0.504903 -0.197253
-4.7352 0.53881 -2.10052
-2.24361 0.326515 -2.51702
-1.07996 0.584875 -1.24707
-1.01962 0.597301 -0.955414
-1.12035 0.56103 -0.844941
-1.68914 0.318985 0.824616
-0.490135 0.124382 0.962041
0.605941 1.82714 2.3673
-0.319157 -0.0675465 0.661747
0.951901 -0.372877 -1.44264
0.833171 1.44511 1.92513
0.801417 0.205329 1.18152
1.58558 -0.696043 1.10293
-4.2696 0.486715 -2.04667
-3.34355 0.387103 -2.39385
-3.26722 0.346161 -2.43501
-2.61108 0.237173 1.03054
-0.382914 -0.0818642 -2.62657
-0.499176 -0.105755 -1.90232
-0.472247 -0.116989 -1.91444
0.606856 -0.178119 -2.93093
-0.767234 0.25133 0.223353
-0.557281 0.0641248 -0.36966
0.0306613 1.97832 2.43358
-0.618908 0.183503 0.471905
0.391073 1.94298 2.26928
-0.443758 0.0955758 1.04756
-0.103238 -0.0633337 0.184642
0.0550396 -0.125183 0.57098
0.165142 -0.119004 0.603901
0.241175 0.252549 1.42834
1.58809 -0.614512 0.21707
2.29327 -0.648348 -0.531177
-1.82591 0.321971 0.764442
-2.14542 0.12246 1.41982
-0.514964 0.130019 0.971988
-0.398541 0.343547 1.66936
1.60051 -0.697097 1.03877
1.62635 -0.691476 1.10891
-1.40214 0.636012 -1.84938
-2.45719 0.287111 0.688763
3.37201 -0.817237 1.48201
3.40384 -0.821647 1.48631
-2.59031 0.589157 0.229921
-2.88297 0.722526 -0.297548
-1.39223 0.566086 -1.93939
-1.95872 0.41293 0.588415
-1.78223 0.375211 0.496648
-1.85568 0.334456 0.870608
-1.7187 0.309343 0.978938
-0.559141 -0.0168509 -2.78403
-0.808611 0.243167 0.253739
-0.742319 0.209658 0.508946
-0.578247 0.187428 0.458182
-0.578499 0.361927 1.79632
-0.519211 0.116603 0.966007
-0.48954 0.124359 0.963149
-0.423802 0.114481 0.94787
-0.073192 -0.177983 -1.61887
0.994783 0.126313 2.05135
1.2574 -0.469252 -0.912003
2.24522 -0.646399 -0.578475
-2.91627 0.536931 0.571853
-1.70369 0.634696 -1.96824
-2.37289 0.250292 0.671435
-1.09321 0.625138 -0.941644
-1.61656 0.253177 1.41684
-1.55157 0.236389 1.40607
0.659111 0.211682 -0.127911
0.696769 0.212936 1.27871
-2.35829 0.2328 0.696122
-1.21323 0.64081 -0.917836
-1.49144 0.47912 -0.521476
-1.80626 0.342534 0.767578
-0.262445 -0.0325168 0.193749
0.0927606 0.288604 1.4723
1.30655 0.126559 1.12835
-1.01791 0.604378 -0.880185
0.798757 1.44693 1.9518
0.0775262 -0.107658 0.531262
3.49998 -0.861381 1.65241
3.53082 -0.851933 1.58932
-2.55188 0.246426 0.888624
-1.0795 0.602456 -0.832364
-0.579456 0.257198 0.144385
-2.04793 0.69574 -0.311857
-2.67634 0.655556 -0.647223
-0.62572 0.0751167 -0.144653
-1.91305 0.412372 0.308213
-1.00667 0.281035 0.159128
-2.54034 0.850489 -1.80297
-1.76076 0.275941 1.38702
-0.6542 0.144363 1.01788
-0.53567 0.138138 0.838242
0.636827 -0.371304 -0.792055
1.07462 -0.255108 -2.90202
1.16466 -0.34643 -1.99652
1.25718 -0.319072 -2.40628
2.26784 -0.641488 -0.556777
-3.80932 0.361399 -1.38004
-2.20912 0.326093 -2.43514
-1.512 0.366812 0.510955
-1.32669 0.334396 0.0731321
-0.915726 0.576217 -0.97006
-0.513294 0.155433 0.714259
-0.328047 -0.0788465 -2.50891
-0.308586 -0.0792679 -2.55012
1.29501 -0.555155 0.0844022
1.32188 -0.523493 -0.36744
1.63021 -0.690083 1.0948
-2.16144 0.716887 -0.552001
-2.17825 0.179985 1.2432
-2.19097 0.116719 1.50586
-1.32096 0.350788 0.48183
-1.22439 0.593614 -1.94544
-1.13392 0.341227 -0.232959
-0.718965 0.215535 0.36251
-0.472335 0.157051 0.718391
0.0873884 -0.105183 0.493712
1.28592 -0.464697 -0.904635
1.58989 -0.433936 -1.87196
1.688 -0.375308 -2.57927
3.16838 -0.79862 1.58452
3.23911 -0.798283 1.46307
-1.38578 0.340628 0.180798
0.985932 -0.449688 -0.526228
1.95051 -0.747565 0.691429
3.37195 -0.809266 1.61121
-1.06757 0.617889 -0.80784
-1.3158 0.293097 0.319081
0.0720666 -0.142877 0.657595
0.979587 0.133588 1.95112
-2.94339 0.475867 0.629108
-1.24664 0.314597 0.128516
-1.03304 0.162471 0.613449
-1.8481 0.452151 -0.166833
-0.774688 0.341217 -0.407154
-4.68667 0.531842 -1.74848
-4.50718 0.515542 -2.04565
-3.73393 0.387373 -2.04324
-2.56073 0.849173 -1.71527
-1.67985 0.268859 1.36321
-1.58808 0.258322 1.32851
-1.28876 0.320236 1.02619
-0.421682 0.114201 0.937695
-0.273564 0.3785 -1.14695
-0.69504 -0.0404363 -2.31846
-0.514644 -0.0389855 -2.6247
0.903472 -0.403661 -1.07278
1.68047 -0.677047 0.822625
2.03182 -0.795908 1.65784
2.74793 -1.52312 -1.48735
3.47869 -1.66099 0.794298
-2.48204 0.315567 0.606167
-3.64587 0.383362 -1.97111
0.911869 1.35258 2.0749
-0.45949 0.114523 1.03818
-0.942461 0.458758 -1.00192
-1.53117 0.102355 -2.41924
-1.14647 0.0231323 -2.14066
0.924687 0.159012 1.80394
0.959638 -0.443453 -0.629723
2.25118 -0.642917 -0.494868
2.2556 -0.6392 -0.531768
2.94485 -1.64501 -1.00036
-2.42354 0.343171 0.531488
-1.71857 0.249444 1.0962
-1.41268 0.399874 0.53922
-0.721488 0.359604 -1.08077
0.0770378 -0.100644 0.461062
0.992287 -0.456884 -0.518985
1.99738 -0.627916 -0.129088
1.1175 0.162263 2.37281
-2.67624 0.454074 0.148291
-1.6709 0.365977 0.552082
-1.50393 0.32072 0.327738
-0.469192 0.356413 -1.08684
3.2353 -1.63085 0.318245
-1.45591 0.419357 0.527301
-1.32622 0.373492 0.36923
-0.788592 0.33138 -0.506582
-2.13241 0.717288 -0.462563
-3.66526 0.286702 -0.752791
-1.58594 0.255023 1.32975
-1.67677 0.320483 0.802631
-1.78386 0.400694 0.047678
-0.437793 0.102139 1.09757
-0.410855 -0.00798566 0.196702
-0.274883 0.383914 -1.15589
1.68733 -0.7377 1.43472
0.95339 -0.375917 -1.42053
2.89597 -0.867025 0.921826
3.44311 -1.62477 0.752299
0.645777 1.76692 2.36506
0.912367 0.771034 2.15932
-0.381517 -0.0656852 -2.55437
2.2459 -0.745979 0.780429
-1.41013 0.357498 0.597588
-0.382203 -0.0662397 -2.61202
0.962837 -0.442578 -0.615306
3.17821 -0.814088 1.62492
2.47093 -0.698243 -0.0628311
-2.44267 0.277989 0.633111
-1.98345 0.59244 -0.180613
1.34093 -0.531523 -0.287005
0.0949627 -0.133243 -2.59347
3.20629 -0.823106 1.70951
3.46718 -0.82608 1.41621
-0.848712 0.468556 -0.469049
-0.78176 0.378 -1.16435
2.24007 -0.630861 -0.67477
-2.19187 0.593359 -0.286077
-1.20663 0.32134 0.710026
-0.779994 0.165693 0.94675
-2.7199 0.506848 0.144398
-1.1146 0.186898 0.42594
-2.70479 0.743266 -0.964758
0.898452 1.36095 2.05048
0.860532 1.37831 1.92805
-1.62581 0.244879 1.49618
-0.613927 0.153877 0.86586
-0.40606 0.11487 0.941909
-3.24004 0.359717 -2.33752
-0.179538 -0.0424189 0.177842
1.60035 -0.689102 1.05461
0.874254 -0.506544 0.257685
1.669 -0.696476 0.7738
3.38346 -0.829302 1.55429
0.990609 0.184092 2.26985
-1.04646 0.12299 0.852418
-1.096 0.349551 -0.137426
-0.422017 0.0011634 0.182937
-0.850324 0.488821 -0.619103
-1.50169 0.0816077 -2.30917
2.52753 -0.73458 1.69914
1.70094 -0.695646 0.772708
1.58752 -0.616193 0.223836
0.930438 -0.433289 -0.708377
-1.78646 0.680228 -2.05949
1.66864 -0.704569 1.30231
-0.39388 -0.060546 -2.62561
1.65517 -0.716307 1.45332
3.23742 -0.825086 1.67383
-0.769192 0.361997 -1.05554
-0.645456 0.329579 -0.950445
-0.212133 0.226525 -0.576278
2.241 -0.623066 -0.670208
-0.805403 0.145962 0.917747
-0.954082 0.170055 0.762091
-0.891738 0.265711 -1.00786
-0.870875 0.410711 -1.20322
0.244178 0.08506 -0.105631
0.749907 1.56528 2.11916
0.895026 1.36756 2.04446
0.855293 1.38271 1.92347
-1.13299 0.493161 1.03084
-0.728539 0.210452 0.498676
1.701 -0.744959 1.48015
-0.182371 -0.0428761 0.177811
-1.17069 0.611098 -0.900663
-1.4652 0.702588 -2.08732
-1.0226 0.141831 0.827313
-1.30234 0.265376 0.360443
-1.74665 0.459086 -0.427131
-0.439199 0.00401421 0.171055
3.21378 -0.827986 1.70215
1.70462 -0.695265 0.77473
2.43106 -0.798187 0.847117
-1.48871 0.0785912 -2.29434
0.645507 -0.330708 -1.59442
2.21224 -0.634131 -0.552201
-1.71182 0.620692 -1.9941
-0.256575 0.34925 -1.20214
1.88069 -0.670143 0.460582
0.784691 -0.424959 -0.375806
1.96696 -0.656223 0.298938
1.08671 -0.391334 -1.38555
0.479671 -0.224846 -2.28358
0.382977 0.245247 1.36087
-2.04748 0.645107 -0.484078
1.34785 0.120857 1.04518
0.965214 -0.483559 -0.114571
0.776248 1.60146 2.3357
3.4308 -0.838134 1.57004
-1.12765 0.29405 0.737208
-0.98344 0.571009 -0.596076
-2.96217 0.56685 -0.165823
-1.00361 0.147637 0.762235
-0.306794 0.229263 -0.603292
0.544994 1.81875 2.07566
1.53972 -0.733554 1.67434
1.92026 -0.782642 1.64361
1.72803 -0.725628 1.47416
2.27051 -0.783705 1.19237
0.578665 -0.19328 0.472152
1.67628 -0.685834 0.789062
1.53887 -0.623733 0.585197
2.53675 -0.745101 0.287349
1.33879 -0.536297 -0.284236
2.85473 -0.764764 0.0823309
-2.3523 0.352001 -2.49811
2.14124 -0.587294 -0.866481
1.15548 -0.399709 -1.40721
0.0193484 -0.179146 -2.11005
1.55735 0.101824 2.24386
-1.05143 0.518328 1.06154
1.5592 -0.73616 1.66315
1.96614 -0.784344 1.64318
1.83542 -0.752914 1.32286
2.13475 -0.753917 1.1243
2.97856 -0.885791 1.32662
1.7252 -0.701104 0.803703
1.58999 -0.636886 0.532393
0.803628 0.158779 -0.112741
-0.980153 0.571569 -0.909328
2.04369 -0.655107 0.0630507
-0.544974 -0.0799112 -1.97687
0.648269 -0.332429 -1.59479
2.38908 -0.82493 1.40067
3.2349 -0.803021 1.50354
1.53474 -0.646711 0.974387
3.44811 -0.825634 1.45066
2.40661 -0.705663 0.236094
1.32365 -0.517411 -0.374848
-1.60998 0.629551 -1.89503
-0.115066 -0.203989 -1.38247
0.956472 0.164956 1.81718
0.727825 0.206088 1.36964
3.39919 -0.819593 1.41193
-1.63039 0.433955 -0.48154
-0.489965 0.265045 -0.860807
-0.574147 0.324855 -0.939822
0.92492 -0.333208 -1.93766
-0.399753 -0.0616461 -2.63115
1.79951 -0.727152 1.51372
-1.2008 0.243912 0.735014
-0.971678 0.174286 0.777502
-0.650048 0.347322 -0.912665
0.846675 0.184629 1.31806
-1.19245 0.390499 1.22784
1.59997 -0.705602 1.37507
2.91091 -0.901611 1.39718
2.24526 -0.777416 1.20169
2.59041 -0.795742 0.746545
1.57649 -0.64163 0.590819
1.66028 -0.638155 0.486498
-0.472422 0.00955383 0.157632
1.94909 -0.653886 0.500947
3.02424 -0.846655 0.620899
2.47937 -0.738686 0.273134
2.84212 -0.772361 0.0820304
-1.21668 0.639723 -0.900279
-1.0103 0.59119 -0.932719
2.36758 -0.680765 -0.247775
-0.00855214 -0.27833 -0.719856
2.60211 -0.676766 -0.621529
-3.30823 0.408665 -2.37589
0.0199986 -0.178862 -2.10931
1.74476 -0.45697 -1.69924
2.04217 -0.458462 -2.10348
0.762372 1.61174 2.3562
0.573083 1.81985 2.209
2.5381 -0.735245 1.70065
3.1583 -0.836604 1.67878
0.593712 0.224108 1.27847
-1.04503 0.511523 1.07218
2.92304 -0.915749 1.29402
-0.11444 -0.118245 0.762183
2.26551 -0.768029 0.91332
2.27019 -0.740961 0.690116
0.378677 -0.162168 0.418705
-0.196884 -0.0100898 -0.237633
-0.841598 0.459464 -0.631301
1.98632 -0.64822 -0.0861207
2.12737 -0.623362 -0.493886
2.13225 -0.611233 -0.508325
-0.724166 0.420304 -1.25586
-0.669618 0.405274 -1.25753
0.269989 -0.295586 -1.06728
1.1487 -0.39462 -1.40837
-2.39286 0.295746 -2.48602
1.08247 -0.287479 -2.69351
-1.00763 0.442917 1.13297
2.49763 -0.844821 1.39142
1.77009 -0.759179 1.2893
1.33365 0.134427 1.00405
2.56938 -0.828674 1.03595
1.61046 -0.650315 0.806679
1.72694 -0.704136 0.80204
1.72508 -0.700918 0.777069
1.54981 -0.640006 0.648069
-0.788426 0.240799 0.229022
1.72844 -0.62157 0.329448
0.759473 0.192173 -0.151419
1.73142 -0.611957 -0.0196779
1.9227 -0.649113 -0.0338279
0.972278 -0.472422 -0.439573
2.08254 -0.607468 -0.777563
0.14464 -0.131672 -2.67255
2.07765 -0.44182 -2.40066
0.908945 1.36081 2.20121
1.4339 0.124295 1.68044
3.17827 -0.816729 1.64764
1.76082 -0.78317 1.61187
1.50832 -0.620756 0.940837
-1.38864 0.386983 0.100296
-1.64562 0.371271 0.0396764
0.655763 0.119027 -0.226824
2.32643 -0.674706 -0.119139
-0.733567 0.419117 -1.29662
-1.50932 0.645597 -2.06625
-1.49567 0.687255 -2.0935
0.93307 -0.328095 -1.93571
0.91672 0.190549 1.14942
-0.690779 0.176554 1.0595
-1.64941 0.372908 0.142743
-0.892881 0.689478 -1.6557
3.51831 -0.844638 1.59559
-1.16915 0.184957 0.341993
-0.303395 0.189419 -0.551504
-0.413833 0.187531 -0.886935
-1.0339 0.222207 0.659666
1.87369 -0.676877 0.709489
-0.408776 0.195199 -0.616398
0.771007 0.486788 1.80889
3.07843 -0.920677 1.2317
3.45584 -1.49059 1.10533
1.85234 -0.757278 1.29529
0.363242 0.245386 1.36753
2.66921 -0.830095 0.979043
3.04127 -0.875466 0.866192
3.06158 -0.871387 0.790912
2.35685 -0.780744 0.850308
1.55926 -0.656154 0.872059
-0.999664 0.428312 0.987189
-0.991618 0.403051 0.966677
2.18507 -0.738045 0.661011
2.29693 -0.761054 0.63529
1.56036 -0.631231 0.558332
2.44009 -0.745276 0.443
2.49698 -0.747311 0.281256
2.34852 -0.729693 0.288341
1.60724 -0.629539 0.251573
-0.242081 -0.0366213 0.228133
1.91216 -0.620843 0.0879726
2.14633 -0.66595 0.0357179
1.95811 -0.651474 -0.0301261
2.66164 -0.726679 -0.207135
0.93246 -0.455504 -0.422432
0.184598 -0.332708 -0.441979
2.41267 -0.671979 -0.511986
2.2455 -0.604319 -0.83948
-1.10192 0.595464 -0.843666
1.67375 -0.524886 -0.981603
0.79948 -0.366634 -1.25872
-0.455645 -0.104095 -1.91838
0.972121 -0.340868 -1.95076
1.83427 -0.431392 -2.03907
0.409392 -0.193509 -2.50042
0.649414 -0.227177 -2.62836
0.80334 1.46856 2.04663
3.47652 -0.852496 1.58603
3.33173 -0.819953 1.52004
3.23669 -0.807196 1.50326
2.13452 -0.812915 1.62479
1.76591 -0.756094 1.60696
3.25217 -0.925094 1.29376
3.28908 -0.941894 1.27882
-0.751289 0.40621 1.65694
-0.882751 0.422089 1.67867
2.63865 -0.832197 0.998247
0.791541 0.211363 1.15629
1.70806 -0.671685 1.06566
1.04797 0.167945 1.10133
2.55499 -0.804062 0.841329
-0.977159 0.466518 1.07591
2.44334 -0.781047 0.599208
1.45392 -0.622408 0.635844
0.359756 -0.158371 0.419686
2.83422 -0.760644 -0.0156208
0.777911 0.153556 -0.138167
1.77342 -0.586298 -0.269089
-0.236424 -0.00841324 -0.241223
1.62782 -0.541092 -0.638359
-0.931794 0.516849 -0.78027
-0.738735 0.429808 -1.33067
-1.44795 0.633324 -1.86582
-2.26928 0.342396 -2.49871
-0.534636 -0.0510391 -2.3967
1.81722 -0.770151 1.68948
1.75489 -0.721956 1.3073
1.22668 0.157948 1.00398
2.65676 -0.817238 0.732043
1.52279 -0.649115 0.827493
-1.04889 0.499837 1.06625
0.818727 -0.0544765 0.65995
1.57174 -0.58595 0.042105
-2.09685 0.663074 -0.418411
-0.859005 0.45707 -0.632011
0.915952 -0.422616 -1.03977
-0.958185 0.493588 -1.2346
-1.70003 0.755558 -1.59205
-0.368314 -0.0592644 -2.6037
2.00334 -0.783702 1.5146
2.31185 -0.822849 1.45919
2.33863 -0.778254 0.871969
1.4731 -0.656785 0.944915
2.39475 -0.771233 0.825409
-0.832465 0.34893 1.08998
-0.598872 0.0964384 -0.158214
1.21932 -0.4475 -1.12446
1.67357 -0.728541 1.68341
2.09482 -0.829289 1.52259
-1.65926 0.212868 1.43056
1.53597 -0.659953 1.01496
1.87425 -0.646667 0.228818
-1.67182 0.310925 0.248217
-1.46246 0.336285 0.174484
-0.94859 0.502366 -0.783486
0.966734 0.169812 2.24129
-0.724996 0.377801 1.59157
0.145846 -0.142707 0.619923
1.31917 -0.46261 -1.16393
-0.67247 0.492459 -1.75726
0.456127 0.243988 1.29449
-0.569241 0.130924 1.04352
3.47696 -0.857713 1.63089
3.28799 -0.834338 1.66335
3.40571 -0.821386 1.41964
0.0663391 1.97975 2.5686
0.761168 1.56238 2.18727
0.94079 0.138664 2.01135
1.88216 -0.757278 1.5842
1.35258 0.0892967 1.6841
1.41055 0.109722 1.55867
2.27231 -0.788682 1.15106
1.96313 -0.775916 1.25843
2.56374 -0.826738 1.02882
2.68116 -0.821923 0.856729
1.95667 -0.729385 0.990703
1.76197 -0.702929 1.05371
1.57648 -0.691159 1.11745
0.632059 0.207179 1.4434
-0.937062 0.398966 1.93641
1.49089 -0.651351 0.967592
0.98515 0.16546 1.16491
0.368121 0.244152 1.36673
2.15815 -0.753007 0.698903
2.11414 -0.741071 0.705073
0.979818 0.187287 1.13277
-1.59026 0.507843 1.94877
-1.48624 0.496889 1.91534
0.978535 0.180261 1.11805
0.249037 0.275237 1.34641
0.887652 0.201122 1.12502
1.56657 -0.63417 0.556934
0.859418 -0.00170472 0.829993
2.29892 -0.745868 0.331449
2.11881 -0.684728 0.363477
0.865487 -0.0785879 0.784354
1.69865 -0.635208 0.474508
1.57062 -0.617824 0.418341
0.824429 -0.0647033 0.674701
-0.218682 -0.110416 0.911408
0.904005 -0.0590827 0.612002
-0.73965 0.275291 1.0623
0.906893 -0.0626135 0.582867
1.24748 -0.586384 0.409865
0.792454 -0.0629394 0.591984
1.78661 -0.643024 0.219914
1.95503 -0.667535 0.160124
1.93952 -0.636658 -0.00670893
1.25061 -0.559151 0.153917
2.66268 -0.723537 -0.227002
1.98754 -0.655945 -0.0831461
2.22844 -0.659781 -0.153258
-1.20225 0.215235 0.738561
-2.43714 0.23625 0.953449
1.37965 -0.565187 -0.192948
-0.245417 -0.0397044 0.226638
1.69552 -0.586824 -0.282212
-0.312288 -0.0261941 0.241793
1.91869 -0.601678 -0.413638
2.5401 -0.672437 -0.566626
1.03212 -0.469761 -0.475761
1.59803 -0.542483 -0.62164
2.1788 -0.619677 -0.77666
-0.426738 0.0400251 -0.299388
-0.345 0.045141 -0.331008
1.34833 -0.487433 -0.857146
-0.0839006 -0.251643 -0.997316
0.386231 -0.313259 -1.11054
-2.24675 0.760204 -0.541986
-0.932003 0.520367 -0.964324
0.260085 -0.235453 -1.70211
0.888074 -0.312883 -1.96297
0.0831494 -0.193517 -1.93343
-5.04086 0.587525 -1.56911
1.16616 -0.321524 -2.16197
-4.73557 0.503934 -1.72389
-0.901792 -0.0237062 -2.10399
-4.84665 0.504746 -1.84931
-0.593866 -0.0900654 -2.24987
-0.429865 -0.0863999 -2.28166
-4.31676 0.507587 -2.09894
0.650658 -0.223671 -2.62709
-1.44716 0.104071 -2.58293
-2.44387 0.366502 -2.50678
0.988431 -0.232653 -2.96123
1.50846 -0.296048 -3.17136
2.91932 -0.903262 1.32058
2.51509 -0.848098 1.39403
1.86023 -0.784838 1.64759
1.93247 -0.771398 1.56296
1.33811 0.127129 1.58184
2.53161 -0.839097 1.05814
1.7271 -0.718412 1.31187
1.43123 0.160795 1.26929
-1.10455 0.430423 2.02357
0.101979 0.289441 1.55104
2.75782 -0.807613 0.492722
-0.877044 0.411221 1.70945
-0.0662929 0.315259 1.44961
1.31616 0.106104 0.906805
0.863958 0.0147002 0.880513
2.60833 -0.74679 0.223784
2.06514 -0.672171 0.35017
