2.26222 -0.315091 -0.304822
1.62222 0.0928088 -1.57462
2.96392 -1.22849 -0.204442
3.01352 -1.22629 -0.234692
0.48142 -0.445091 -2.54343
3.07052 -1.24859 -0.583853
3.01642 -1.22619 -0.809983
3.04472 -1.24029 -1.09343
1.90662 -0.895791 -2.16815
2.84282 -1.18339 -1.57112
3.52082 -1.38299 -1.9645
1.39502 2.00198 3.01967
-0.55098 0.699108 2.22507
0.64392 0.171409 1.90016
1.07002 -0.117991 1.50849
0.281421 -0.0742912 0.618707
0.99562 -0.0752916 0.676174
2.35852 -0.714091 1.52657
2.14292 -0.447692 1.16916
0.29972 0.0837089 -0.000982423
1.28512 -0.0911912 0.325597
1.33262 -0.250091 0.428127
0.32482 0.0905086 -0.253662
2.12802 -0.420591 0.644447
2.52712 -0.768392 0.859785
2.28472 -0.679491 0.680496
1.08272 0.0589086 -0.465603
-0.602179 -0.114692 -1.25123
0.247819 -0.122592 -1.00734
2.23822 -0.321292 -0.415672
2.77792 -1.14959 0.0709675
-0.420781 -0.168892 -2.37366
2.56052 -0.544592 -0.765263
2.98832 -1.22049 -0.602072
3.02782 -1.24149 -0.570343
1.44042 -0.613892 -2.35666
3.30902 -1.32509 -0.771632
2.90212 -1.19769 -1.71827
3.08972 -1.25149 -1.94799
0.16232 0.474209 2.07928
0.470121 0.361408 2.02489
-2.09818 0.370909 0.982596
-0.48088 0.339808 1.14306
-0.354781 0.420408 0.746309
0.89972 -0.0773916 1.2622
2.34412 -0.696491 0.725582
1.02372 0.136409 -0.603373
2.29892 -0.710092 0.284937
1.64452 -0.108591 -0.872763
2.27502 -0.276591 -0.799033
0.98392 0.0187083 -1.76801
1.64822 -0.0349912 -1.36673
-0.13898 -0.238791 -2.62746
3.08792 -1.26079 -1.8939
-1.99558 0.380408 1.91283
-0.15568 0.555808 1.97126
-1.49328 0.187509 1.36133
1.57532 -0.00959105 1.27751
2.05852 -0.415392 0.669198
1.24962 -0.210992 0.116188
1.43402 -0.235492 -0.103612
2.53572 -0.774892 0.629777
1.11972 -0.0606918 -0.496103
1.44792 -0.221492 -0.261342
1.61802 -0.244091 -0.369322
1.92822 -0.163292 -0.591892
2.05352 -0.217192 -0.496372
2.78022 -0.696092 0.162677
2.24632 -0.240992 -0.509483
1.93372 -0.0511913 -1.11701
3.23712 -1.29239 -0.780533
1.53572 -0.250591 1.14892
1.05182 0.017109 -1.67064
1.55772 -0.227792 0.783985
1.21902 -0.250691 0.165577
1.43842 -0.432092 0.192847
3.61982 -1.42119 -1.75382
1.71872 -0.413992 0.794161
0.945819 0.0615083 -0.275462
1.13012 -0.0149917 -0.228422
2.49592 -0.576692 -0.418563
2.18302 -0.332492 -0.946173
-3.69078 1.19638 3.19786
1.99842 -0.393991 0.214827
2.54762 -0.622891 -0.522343
2.78022 -1.00409 -0.102112
-0.469479 0.250709 1.05322
1.70602 -0.371792 0.307057
2.83572 -1.18159 -1.84895
2.83382 -1.18079 -1.58257
2.28142 -0.414692 -1.52455
-2.22458 0.396309 -2.69945
-0.0913799 -0.279592 -2.15412
3.20792 -1.28489 -1.34263
3.12232 -1.27339 -1.23899
2.83972 -1.18599 -1.18417
-0.54288 -0.114891 -1.82159
3.01212 -1.23509 -1.08829
2.65392 -1.11039 -1.03076
2.88012 -1.19039 -0.900142
2.84342 -1.17699 -0.900203
3.07622 -1.24359 -0.802113
1.90302 -0.205992 -0.903773
-0.46128 -0.139491 -1.2569
-0.51998 -0.127891 -1.25472
-0.52728 -0.140191 -1.23837
-2.54218 0.517809 -1.55482
2.02772 -0.184491 -0.521073
3.06102 -1.23079 -0.455862
2.20592 -0.261291 -0.440663
-2.19408 0.402108 -1.11828
-2.10158 0.358808 -1.05765
-1.89338 0.301608 -0.898083
-2.27508 0.398108 -0.844403
-2.17778 0.392208 -0.756823
1.52612 -0.254691 -0.0883124
1.59302 -0.267491 -0.0795625
-2.09718 0.391808 -0.533873
1.42652 -0.224192 -0.0370724
-2.47448 0.487308 -0.206562
1.48802 -0.233891 0.365437
-1.58138 0.204208 0.0393976
-2.45028 0.502008 0.364057
2.30052 -0.693192 0.998788
-2.08628 0.368608 0.780308
-2.08538 0.375608 0.797466
1.54632 -0.311891 1.05806
-0.133481 0.0958081 1.08764
-0.513779 0.355208 1.11695
1.75352 -0.182591 1.39601
2.08342 -0.422491 1.41059
-1.60118 0.217308 1.35666
-0.42928 0.336609 1.53609
2.03352 -0.417091 1.59668
2.12152 -0.446292 1.59862
-2.50698 0.528208 1.81419
1.21072 0.147409 2.22233
1.86202 1.76068 2.58795
1.67742 1.83027 2.89311
1.75132 -0.842292 -2.35254
-0.07388 -0.265891 -2.33991
2.89842 -1.18849 -1.41151
-1.45788 0.145908 -2.35969
2.97142 -1.21849 -1.28896
3.22342 -1.30669 -1.10059
-0.706981 -0.0491914 -1.84306
2.98182 -1.22529 -1.08305
-0.889979 -0.0410919 -1.84657
3.02902 -1.22339 -0.810993
-1.22268 0.101109 -1.55153
2.10422 -0.202891 -0.525843
-2.07528 0.360108 -1.11502
2.96722 -1.21649 -0.229973
-2.30348 0.461008 -0.859653
-2.49168 0.493708 -0.876123
-2.50108 0.492208 -0.537703
1.35612 -0.212791 -0.0101525
2.59362 -0.760291 0.303417
-0.864381 -0.00899119 0.0456975
2.18692 -0.442692 0.602887
-1.20058 0.101309 0.335747
2.58242 -0.780992 0.793607
2.56652 -0.781692 0.845213
-2.48808 0.502008 0.602017
1.54382 -0.331692 1.06774
-2.53398 0.507708 1.01172
1.64162 -0.0364913 1.26206
0.17802 0.460608 1.97713
-0.45778 0.677408 2.03079
-2.85598 0.982328 3.27025
3.23122 -1.26739 -1.24045
2.73362 -1.13859 -1.25379
2.20592 -0.242691 -0.567203
2.18842 -0.228891 -0.491822
1.47372 -0.222591 -0.460323
-2.66988 0.541108 -1.06836
2.66942 -0.834592 0.421997
1.22122 -0.0210914 0.361497
1.31512 -0.251291 0.414187
2.16672 -0.441092 0.661468
0.19222 -0.0529918 0.859041
0.87622 -0.0539913 0.957314
-1.67468 0.236209 1.15289
1.59122 -0.00749106 1.36736
1.69882 -0.057291 1.41825
-3.43998 0.950028 3.21623
-1.17348 1.61715 3.30619
3.08002 -1.27789 -1.85317
-1.62968 0.268708 -1.86354
0.69082 0.227308 -1.15569
0.998719 0.160508 -0.726783
2.24142 -0.412891 -0.449832
-1.44858 0.168809 -0.842723
2.07172 -0.427092 0.672617
1.61782 -0.219392 0.909004
-0.42808 0.207708 1.21433
1.74712 -0.0954913 1.40789
1.30682 -0.107891 1.51923
-0.0669792 0.546609 2.01434
0.18072 0.466808 2.01123
1.43222 0.0766087 2.00372
0.0658199 0.517109 2.16988
3.19672 -1.28049 -1.85507
-0.478181 -0.117691 -2.62535
2.49292 -0.180891 -1.22446
2.23312 -0.112492 -1.14426
-1.79518 0.296208 -1.86565
2.26172 -0.353291 -0.859233
1.12612 0.0993091 -0.483153
1.54812 -0.195291 -0.400332
1.95312 -0.408892 0.682023
1.58562 0.013609 1.28506
1.68052 -0.0356912 1.42274
1.94152 -0.380092 1.52305
1.81302 -0.348091 0.0371876
1.57002 -0.0351915 1.23967
2.08512 -0.401092 1.26352
0.22092 -0.0391912 1.34714
2.49832 -0.735791 0.289327
1.12252 -0.0875911 0.252337
1.56452 0.117008 1.295
1.97072 -0.414991 1.59193
1.88082 -0.315891 0.744175
0.36172 0.404208 1.96442
2.68772 -1.17869 -1.15731
2.39502 -0.618892 -0.945033
2.27772 -0.424891 -0.915003
1.80862 -0.369791 0.561367
2.19072 -0.180391 -0.884443
1.86132 -0.275191 -0.193352
2.34212 -0.716091 0.490248
-1.50418 0.158209 -2.94598
-1.47498 0.149109 -2.92909
-2.10788 0.378308 -2.74655
-2.02858 0.351708 -2.74732
-2.16048 0.364408 -2.74519
-2.04398 0.327608 -2.7343
-2.23038 0.391108 -2.70876
-1.76998 0.242808 -2.74998
-0.808579 -0.0484914 -2.71794
-1.43148 0.132909 -2.56681
-1.37288 0.118209 -2.55885
0.427619 -0.367791 -2.58116
0.43592 -0.416592 -2.61538
-1.32438 0.129209 -2.34473
-0.40088 -0.173191 -2.36297
0.465819 -0.449092 -2.42603
0.642419 -0.482592 -2.39671
-1.08088 0.0380088 -2.05972
-1.75288 0.250209 -1.90013
1.99642 -0.935092 -2.36758
-0.520079 -0.135491 -1.858
-2.43528 0.469608 -1.56362
-2.27928 0.436408 -1.55433
-2.14948 0.388509 -1.53156
-1.85338 0.284509 -1.57767
2.02962 -0.924392 -2.02308
1.36352 0.0257083 -1.38643
1.37602 0.0124083 -1.38237
-2.21368 0.409808 -1.25073
-2.81808 0.572208 -1.08699
2.29522 -1.01829 -1.8415
2.44522 -1.05659 -1.83506
-0.931981 0.0107089 -1.23009
3.30042 -1.32829 -1.94887
-0.50348 -0.124492 -1.25284
-0.63948 -0.104591 -1.2345
-0.526681 -0.138692 -1.23955
2.98792 -1.20039 -1.81694
-0.364381 -0.183091 -1.22214
3.22532 -1.29709 -1.83718
3.57172 -1.41059 -1.83071
3.55002 -1.39739 -1.81427
2.95292 -1.21839 -1.57209
1.77442 -0.164592 -0.898503
3.19762 -1.28949 -1.5627
2.00672 -0.237391 -0.899173
2.76902 -1.14459 -1.32837
-1.02568 0.028309 -0.538403
-2.48868 0.486809 -0.202753
1.16572 0.0637084 -0.524333
2.76612 -1.15519 -1.25416
3.20792 -1.28779 -1.34368
0.99742 0.0981084 -0.449753
-2.47208 0.493209 0.0670075
2.70722 -1.13549 -1.05794
-2.29828 0.448608 0.0701276
2.16242 -0.225991 -0.508013
1.11822 0.0329085 -0.291282
1.15172 -0.00589174 -0.238612
1.72652 -0.307491 -0.318802
-0.85328 -0.010291 0.0470075
-0.78398 -0.0331916 0.0661275
0.39372 -0.0659913 -0.00325241
-1.28868 0.139309 0.367287
-2.40838 0.476909 0.643477
1.56662 -0.263191 -0.0635824
1.58972 -0.275592 -0.0511225
3.05332 -1.23309 -0.601912
3.02242 -1.22939 -0.578463
3.05882 -1.24219 -0.589863
3.06462 -1.23419 -0.456433
1.49362 -0.214691 0.354147
0.977919 -0.0483913 0.626457
1.08792 -0.121991 0.677733
0.0929195 -0.0320911 0.889483
0.23972 -0.0624913 0.86087
2.57022 -0.742291 0.225247
2.56682 -0.760692 0.281767
-2.46548 0.501509 1.62634
2.54032 -0.775191 0.314627
0.83212 -0.0426912 0.928246
2.14352 -0.414791 0.623557
-2.59228 0.552608 1.81468
-2.53178 0.524809 1.81051
-2.55768 0.554209 1.83161
1.58572 -0.163292 0.916795
1.60962 -0.178291 0.90551
-0.28398 0.0946084 1.34708
2.20562 -0.462091 0.6835
1.61772 -0.204492 0.941085
1.48142 -0.277092 1.0465
1.95332 -0.387491 0.930215
0.368819 -0.117791 1.46129
2.48192 -0.762792 0.871146
1.00072 -0.101891 1.45644
-0.23078 0.593208 2.05665
-0.249181 0.601309 2.15915
1.87362 -0.230391 1.38625
2.55772 -0.756592 1.03725
0.0807201 0.503308 2.16571
1.89422 -0.353991 1.4705
2.08512 -0.418591 1.40666
0.57932 0.337708 2.22069
1.33632 1.93832 2.72101
1.73142 1.81385 2.57672
2.11852 -0.445791 1.59532
-1.15698 1.58344 3.30582
1.32122 1.93463 2.92472
1.18512 0.266808 2.30734
2.17892 1.66712 2.79142
2.25662 -0.185891 2.05616
-0.441479 -0.152492 -2.61792
-0.56508 -0.123591 -2.57681
-0.11608 -0.258991 -2.60028
-0.28028 -0.205192 -2.55863
-0.61078 -0.0959911 -2.51208
-0.24018 -0.225291 -2.52858
-0.193379 -0.254492 -2.54049
0.400519 -0.427591 -2.54929
-1.19998 0.0620089 -2.37332
0.471021 -0.450492 -2.55048
-2.27648 0.417808 -2.11024
-0.11048 -0.285992 -2.35901
-1.78198 0.269608 -2.11666
0.814719 -0.579891 -2.40841
0.868819 -0.593692 -2.39969
-2.42798 0.508009 -1.57059
-0.86708 -0.0528917 -1.83249
2.03962 -0.926891 -2.00318
1.28892 0.0305081 -1.36431
2.60382 -1.11609 -2.04149
-2.60108 0.509708 -1.13497
-2.01248 0.363209 -1.13658
2.68502 -1.12159 -1.89794
2.32062 -1.02789 -1.83189
3.06812 -1.26139 -1.85812
3.27662 -1.30259 -1.87467
-0.43488 -0.169291 -1.21279
3.35602 -1.34029 -1.85995
-1.46968 0.170308 -0.957593
3.52602 -1.37859 -1.81932
2.95252 -1.21639 -1.54982
3.23582 -1.29929 -1.57435
-1.87088 0.298108 -0.240802
2.04612 -0.188292 -0.602752
3.33822 -1.34099 -1.25926
2.23642 -0.292292 -0.438203
2.19242 -0.287291 -0.422472
1.27232 -0.171592 -0.298522
3.32672 -1.34849 -1.06751
1.46742 -0.233492 -0.0828624
3.07892 -1.26219 -0.586313
1.77842 -0.340692 0.103978
2.53972 -0.730091 -0.145613
-2.10248 0.371609 0.932132
1.90222 -0.376792 0.261407
2.31372 -0.705791 0.321237
1.99992 -0.395391 0.691937
-0.34298 0.328709 1.56786
0.876319 -0.0564918 1.19468
-0.397981 0.660008 2.02153
2.06292 -0.422292 1.09116
1.72012 -0.122492 1.34391
1.13882 -0.121991 1.47384
1.99702 -0.397191 1.19988
1.12312 -0.122392 1.49993
2.16852 -0.458291 1.20375
-3.55688 1.00494 3.2544
1.90852 -0.376891 1.47738
2.00112 -0.405392 1.44698
0.83742 0.266708 2.02203
0.65702 0.320108 2.15828
2.33012 -0.701892 1.50658
2.17352 1.66634 2.89784
2.21452 2.09285 3.33786
-1.94928 0.287509 -2.59951
-0.692481 -0.0719918 -2.60509
-0.596881 -0.129191 -2.61056
-0.51398 -0.125992 -2.51716
-2.12898 0.351309 -2.34087
-0.688081 -0.0792913 -2.4135
-2.46918 0.500809 -2.09533
0.330319 -0.397291 -2.38452
0.30762 -0.402592 -2.36136
0.84122 -0.546492 -2.41278
1.73262 -0.813292 -2.3773
-1.68438 0.219708 -1.89508
-0.85438 -0.0437917 -1.85033
-0.750581 -0.0763912 -1.86117
-0.45378 -0.180291 -1.84791
-2.33088 0.371509 -1.55832
2.32542 -1.03469 -2.15808
-2.64068 0.497909 -1.17618
2.27752 -0.108392 -1.29168
2.35102 -0.141691 -1.15035
3.74842 -1.46079 -1.86187
0.80462 0.118009 -0.765083
0.96552 0.123509 -0.705723
3.49062 -1.37879 -1.57488
2.18552 -0.218592 -0.564483
-1.42198 0.159008 0.0347875
1.21122 -0.155392 -0.278423
3.42062 -1.35859 -1.04439
1.61032 -0.276892 -0.201132
-1.21748 0.116109 0.338897
1.29402 -0.218991 0.0821476
2.72632 -0.629791 -0.264042
-1.86688 0.322008 0.646187
3.06662 -1.22579 -0.224462
0.0182201 -0.0115919 1.24744
0.892119 -0.0652913 1.15737
0.99812 -0.0865917 1.27412
-0.407479 0.692609 2.14996
1.73232 -0.105091 1.39894
-0.41578 0.661408 2.18836
0.640821 0.151308 1.90282
-1.92238 0.317208 -2.34141
-0.27228 -0.222792 -2.3867
0.453321 -0.435991 -2.40262
1.08162 0.047309 -1.86744
-0.730679 -0.0833911 -1.83231
1.59282 -0.00259108 -1.40238
2.56592 -1.12569 -1.89243
2.92202 -1.21259 -1.72337
1.68392 -0.00199122 -0.817033
1.17122 0.0659085 -0.543873
1.12192 0.0850087 -0.490572
0.38502 0.0830089 -0.344322
1.09222 0.060609 -0.384892
2.03832 -0.189491 -0.529333
2.39072 -0.713092 0.194677
-1.89268 0.330608 1.89961
1.59132 -0.00259108 1.23744
1.53702 0.0169087 1.33456
-0.43348 0.664509 2.10637
2.64432 -0.808492 0.847881
0.178319 0.473008 2.02173
1.90292 -0.261492 1.38677
1.52502 0.00490861 -1.36664
2.44732 -0.129592 -1.25239
2.47662 -0.283591 -1.2384
3.72612 -1.44689 -1.82478
0.19242 0.194709 -0.465183
2.09562 -0.173191 -0.616203
2.28412 -0.349591 -0.506843
1.62052 -0.271691 -0.282612
1.84792 -0.335092 0.217457
0.96622 -0.0674915 0.663295
1.31442 -0.201692 0.643867
1.95122 -0.406391 0.696552
2.06502 -0.422591 0.671191
1.58772 -0.170691 0.932696
1.66052 -0.302892 0.879967
0.79222 0.276209 2.01308
2.04282 -0.114291 2.11769
1.04172 0.0086089 -1.78616
2.73512 -1.13829 -2.13369
3.62022 -1.45529 -1.64984
-0.582181 0.358708 1.14605
2.33882 -0.663292 0.332537
1.63512 -0.290392 0.932874
0.224219 0.428008 1.96523
1.00382 0.126409 -0.273072
2.83932 -0.690991 -0.396073
-0.37048 0.313309 1.12972
0.919619 -0.106892 1.5495
1.02592 -0.617492 -2.37955
2.12802 -0.242691 -0.628243
-0.78698 0.220509 1.03364
2.05772 -0.379191 0.413727
1.61652 -0.433492 1.07391
1.25492 1.9748 3.05612
1.74422 -0.00739187 -1.42626
-0.504281 0.451009 0.79359
1.84552 -0.358292 0.636887
1.49362 -0.603891 -2.18324
1.17332 -0.0534915 -0.326862
2.19442 -0.310092 -0.494612
-0.337979 0.0180083 -1.2135
0.926021 -0.0134916 -0.0889525
0.100419 0.0589086 0.281127
-2.02068 0.322808 -2.73708
-2.53348 0.516608 -2.10956
-2.54678 0.517608 -1.55037
-1.08658 0.0364085 -2.06162
-1.23548 0.0889083 -1.52072
0.406221 -0.417091 -2.58214
0.456719 -0.437491 -2.62569
-1.96718 0.342308 -0.207383
2.13802 -0.285891 -1.83327
1.82902 -0.127392 -1.35097
1.00252 0.128609 -0.600273
1.34142 -0.0269918 -0.895563
0.951619 0.0974084 -0.429882
-0.70888 -0.0632915 0.0653976
-2.49798 0.519508 1.61409
-2.13858 0.400808 1.65528
1.17522 -0.136191 -0.367783
1.32682 -0.182591 -0.319952
2.34902 -1.01799 -1.67861
2.17712 -0.221091 -0.508043
2.32692 -0.290591 -0.618363
1.40622 -0.224292 -0.0346124
1.50122 -0.248491 -0.0725924
2.56032 -1.08729 -1.54716
0.261621 -0.0580911 0.862642
-0.41858 0.658308 2.1396
2.26312 -0.295691 -0.276892
2.70072 -1.13099 -1.25872
3.57382 -1.40839 -1.83018
0.17262 0.471808 2.1797
0.83252 -0.0478915 1.4555
1.58632 -0.159391 0.92468
1.00262 -0.0983915 1.45587
2.20402 -0.470391 1.19521
2.15442 -0.446892 1.42033
2.58072 -0.785392 0.800507
2.56782 -0.780091 0.839139
1.79852 -0.0408916 2.17294
2.59852 -0.767591 1.02393
-2.20988 0.392908 -2.7091
1.13242 0.311008 -1.42432
1.43972 -0.612391 -2.36785
2.02572 -0.251792 -1.88889
2.11202 -0.265692 -1.80234
1.86372 -0.879691 -2.35816
1.89602 -0.963692 -2.44685
-2.09528 0.386708 0.907903
1.02062 0.090809 -0.513803
0.912219 0.112908 -0.384092
1.29222 -0.176891 -0.296612
2.22612 -0.313891 -0.867283
2.17532 -0.197492 -0.577883
2.06542 -0.207292 -0.533073
-1.96028 0.357908 1.98018
2.35012 -1.01879 -1.65695
2.09832 -0.246391 -0.416433
2.79762 -1.16069 -1.81007
-0.117079 0.0506087 1.23625
2.26372 -0.281792 -0.242132
3.42532 -1.34999 -2.04404
0.88102 -0.0586919 1.2066
0.899619 -0.0808915 1.18476
3.77842 -1.46239 -1.89518
1.06282 -0.108392 1.19954
0.86592 -0.0545911 1.42312
0.68542 0.168308 1.90984
1.64712 -0.0363912 1.24358
1.67852 -0.0465917 1.26498
1.49012 -0.0960912 1.47217
1.21532 -0.122091 1.60769
2.03122 -0.416792 0.897824
2.08642 -0.418192 0.882083
2.14302 -0.451591 0.901654
1.43702 0.0795089 2.02682
1.87892 -0.331491 1.48724
1.92622 -0.381191 1.50882
2.34972 -0.714091 1.25539
2.03632 -0.112791 2.17621
-1.17868 0.0623084 -2.37424
0.357619 -0.403892 -2.60049
0.28522 -0.402991 -2.39717
0.98442 0.283608 -1.30217
-1.75308 0.288809 -0.221013
1.09462 0.088009 -0.629823
1.94942 -0.212091 -0.877843
-3.49808 1.01712 3.23768
1.33052 -0.193292 -0.212022
-1.85658 0.300908 1.93393
3.28042 -1.31609 -1.91347
-0.104279 0.560308 2.06012
0.85242 -0.0580911 0.94364
3.56322 -1.40839 -1.85351
2.94112 -0.546492 -0.512502
2.86602 -1.18929 -1.22506
0.227719 0.444809 2.09957
1.01022 -0.109192 1.26355
0.90092 -0.070691 1.47045
2.04122 -0.391992 0.574197
1.02692 -0.105791 1.47204
1.99572 -0.401992 1.08839
2.14732 -0.445691 0.947551
2.66832 -0.825091 0.693508
2.09192 -0.136592 2.10725
2.18022 -0.434092 -1.67547
1.97402 -0.921791 -2.15638
2.55972 -1.08609 -2.04383
-1.90968 0.330708 1.90272
2.30242 -0.490992 -0.659403
2.24282 -0.270291 -0.347562
-0.26038 0.624008 2.06952
0.980319 -0.0612916 0.66049
-0.0321797 0.546208 2.01851
0.646319 0.332008 2.17154
3.15652 -1.26829 -0.797473
2.32192 -0.716492 1.00401
2.07162 -0.427992 1.54818
-1.17048 0.0777083 -1.95993
0.41422 0.0561086 -0.386022
0.449821 -0.100592 0.525067
1.19582 -0.105291 0.291407
0.97082 -0.0610914 0.594217
3.27932 -1.34899 -1.885
2.96482 -0.640391 -0.488342
3.13442 -1.24839 -0.607183
-3.52548 1.18419 3.09062
-2.89168 0.916279 3.18961
3.73762 -1.45849 -1.87326
1.17842 0.161009 2.25952
-0.134579 0.311608 0.885835
1.66612 -0.268392 -0.371952
1.52382 -0.306191 0.573747
2.88922 -0.686791 -0.405432
2.62842 -0.794592 0.76383
1.89822 -0.144192 -0.570873
1.95692 -0.176291 -0.504003
-0.261281 0.304209 1.11008
1.19492 -0.0789918 -0.561543
2.44152 -0.679591 -0.781913
1.63862 -0.382392 0.481418
1.55702 -0.274491 1.00978
2.85272 -1.18219 -0.258172
-0.245379 0.205709 1.14106
0.65932 0.0857087 -0.809813
-3.56988 0.930538 1.64953
-3.57158 0.933168 1.70894
-2.57858 0.517009 -1.55084
-3.53378 0.895679 1.93957
-1.97808 0.334309 -2.72757
-1.42778 0.149009 -1.81481
-1.92788 0.338308 1.60955
-1.92238 0.354109 2.02078
-0.416381 0.526308 0.842056
0.846219 -0.558492 -2.39164
0.44012 -0.116192 1.11325
0.907019 -0.0304918 0.617217
1.56432 -0.0906915 -0.895273
1.92622 -0.222792 -0.923583
1.52062 -0.312991 -0.0555624
2.17502 -0.224292 -0.550223
2.12392 -0.239592 -0.442132
1.61052 -0.181492 0.91504
2.32052 -0.290992 -0.580383
2.29042 -0.703591 1.02444
3.02272 -1.23559 -1.88337
3.33312 -1.34889 -1.25803
-3.58448 0.957998 2.95232
-2.35608 0.465508 -0.163613
-1.59388 0.213609 1.35615
0.17822 0.470308 2.18205
0.193719 0.458308 2.15004
0.45712 -0.120392 1.19109
1.79512 -0.260192 -1.88599
1.28402 -0.175892 0.0604075
0.950719 -0.0828914 1.39096
2.13962 -0.282492 -1.80133
0.975619 -0.0922918 1.45946
1.72872 -0.305491 -0.308862
2.09572 -0.199092 -0.571953
1.20512 -0.122891 1.6169
2.08302 -0.213592 -0.493202
2.03642 -0.245591 -0.414122
1.58162 -0.160392 0.902862
1.69382 -0.0363912 1.31126
1.94342 -0.387491 1.15834
1.95232 -0.393592 1.45517
2.12822 -0.442891 0.898875
2.02822 -0.415491 1.59676
2.12362 -0.442592 1.45634
2.33502 -0.712691 1.23873
2.35442 -0.712691 1.20259
2.65342 -0.736591 0.510287
2.38602 -0.722292 1.46926
3.15332 -1.25959 -0.834643
-2.15608 0.391309 -0.529673
-1.89418 0.324709 2.01901
-0.21358 -0.215391 -2.40252
-0.414679 0.661408 2.02847
0.168519 0.553509 2.0083
0.955819 -0.0910911 1.33991
1.00272 -0.0954913 1.61016
1.99352 -0.388592 0.953291
2.08072 -0.450591 1.45479
2.64732 -0.805491 0.841726
3.80992 -1.44819 -1.87035
-3.51148 1.0823 3.2054
0.37922 -0.114391 1.45971
1.30102 -0.182692 -0.233923
1.00552 -0.0946912 0.736103
2.07302 -0.249991 1.89546
2.71532 -0.822492 0.575367
-0.36428 0.433409 0.728207
1.58892 -0.254392 -0.297992
1.57802 -0.280091 -0.251672
3.56722 -1.42239 -1.71344
1.61432 0.00220876 1.23562
1.50362 -0.198591 0.731708
1.53212 -0.262292 0.535317
2.21492 -0.240091 -0.531643
1.07272 -0.0542917 -0.138272
1.50062 -0.205591 0.615087
2.25362 -0.268592 -0.0546224
1.83752 -0.297992 1.34443
0.12782 0.168509 -0.470772
2.02112 -0.336692 0.440438
1.57662 -0.345391 0.991786
2.55742 -0.508191 -0.320692
-3.63578 1.17565 2.79897
1.54572 -0.268191 0.738001
2.27912 -0.425591 0.121257
1.51772 -0.269591 1.21272
1.58082 -0.243591 0.300457
-3.56748 0.932499 1.99976
-3.57098 0.930729 1.64895
1.67032 1.83376 2.797
-3.54038 0.899638 -0.153073
-3.52048 0.893599 -2.52026
-1.70088 0.255909 1.13646
-1.70638 0.255609 -0.160433
-2.17548 0.398209 -1.51124
1.54072 0.0457088 1.98157
1.13592 0.016409 -0.174522
1.70232 -0.0882911 1.22141
1.20112 0.0618087 -0.608453
1.60402 -0.180491 0.914621
0.14422 -0.350491 -2.38239
1.67712 -0.303391 -0.00348248
0.55112 -0.474491 -2.3877
1.75952 -0.323892 0.0287275
2.13422 -0.442492 1.20444
2.06782 -0.207392 -0.535563
2.19602 -0.245992 -0.545173
2.19822 -0.249891 -0.570442
2.22702 -0.254991 -0.583363
2.14062 -0.284991 -1.79713
2.65452 -0.811992 0.858318
2.03412 -0.925792 -1.93316
2.56572 -1.07999 -1.5047
2.79522 -1.17009 -1.85333
-3.57278 0.937789 2.78568
-3.54258 0.910708 1.71306
-3.54218 0.892538 -0.105493
-1.92318 0.353908 1.89821
-1.90658 0.331509 1.94578
-1.87058 0.323008 1.71048
-2.00898 0.343808 0.707993
-1.81068 0.287309 0.617147
-0.0765808 0.566608 2.03507
-0.60238 -0.100692 -0.162662
-0.437779 -0.147092 -1.17536
-0.399381 -0.159092 -1.14783
1.79222 -0.0287914 2.1549
1.70142 -0.110091 1.27034
1.13912 0.0332089 -1.84935
1.96312 -0.389992 1.45578
1.94452 -0.386691 1.19965
0.46202 -0.445891 -2.42613
1.61112 -0.0779914 -1.33983
1.94592 -0.381592 0.649197
2.03622 -0.403192 0.936834
2.12622 -0.439092 1.07869
1.83782 -0.118192 -1.32527
2.11812 -0.273091 -1.83732
2.48332 -0.755692 0.827016
-3.64448 1.06303 3.00704
-3.58028 0.969138 2.76584
-2.34178 0.456308 0.640217
0.30782 0.430709 2.03505
-0.41088 0.419808 0.705039
-0.07388 0.0622083 1.34387
-1.68868 0.236408 -2.56433
0.876319 -0.0494918 1.28188
0.92722 -0.0635919 1.32976
1.00802 -0.0934915 1.41107
1.04052 -0.105692 0.680269
2.12802 -0.445592 1.59996
2.15532 -0.450191 1.63147
2.14812 -0.458391 1.60468
2.56482 -0.780992 0.842461
2.93962 -0.598592 -0.527473
3.12492 -1.27229 -1.83545
-3.56448 0.929748 1.83536
-0.35508 0.411108 0.72353
0.37252 -0.045391 0.499897
1.03132 -0.108791 1.17584
1.18512 -0.142491 0.113598
-0.0644806 -0.271292 -2.27784
-0.01908 -0.289791 -2.28398
1.72362 -0.223391 1.32954
2.02882 -0.417791 1.3915
2.09232 -0.419991 0.876091
2.15652 -0.457791 1.04098
2.27932 -0.516492 -0.618173
2.56702 -0.783792 0.763076
2.72482 -0.644192 -0.241402
-1.46038 0.184209 1.38163
0.229619 0.499908 2.27094
-0.43818 -0.152991 -1.11711
1.06352 -0.0628919 -0.0102124
1.95612 -0.165591 -0.581133
2.13032 -0.420992 0.66676
2.26192 -0.350491 -0.160142
2.94282 -1.20609 0.0232576
3.63742 -1.42589 -1.64507
-1.87688 0.344508 2.08619
0.481219 0.0693083 -0.975043
2.15502 -0.232391 -0.508803
1.30632 -0.191892 -0.0738125
1.91622 -0.381891 0.222797
1.48042 -0.138791 0.784595
1.60202 -0.360191 0.756125
1.56832 -0.366092 0.960656
2.54442 -0.584991 -0.525393
2.72212 -0.654991 0.0367676
1.58502 -0.180092 0.294517
2.97082 -0.734092 0.125838
-3.54248 0.906499 1.75266
-2.06808 0.387508 1.79861
-0.0655792 0.572609 2.02683
-0.0584801 0.545408 2.05098
1.14762 0.291509 2.32879
-1.26228 0.110108 0.384147
1.57392 0.0354081 2.00394
0.88552 -0.0603914 1.42641
0.92612 -0.0770911 1.44741
-3.52018 0.890738 -2.52085
0.913319 -0.0674915 1.3219
1.08272 -0.121592 1.45564
0.824719 -0.042591 1.191
0.29042 -0.0800914 0.820064
0.33892 -0.0258912 0.486248
0.82862 -0.0376911 0.677136
-1.65498 0.216309 -1.26916
0.905919 -0.0358915 0.617737
0.928019 -0.0417919 0.636857
-1.64448 0.226309 -1.44028
1.84712 -0.226191 1.39879
-2.55438 0.505809 -2.59802
0.85962 0.0186082 0.272417
-2.20988 0.387408 -2.37445
-2.15008 0.372309 -2.33175
1.99982 -0.405592 1.42319
2.04722 -0.420092 1.44644
2.19982 -0.468592 1.45584
2.12072 -0.446192 1.19528
1.11772 0.0591088 -0.388122
1.05822 0.0937081 -0.575423
2.32472 -0.710591 1.2527
1.08932 0.0914088 -0.597293
1.16162 -0.137491 -0.379403
2.19242 -0.457191 0.652517
1.64192 -0.293991 -0.0297724
1.69182 -0.304992 -0.0415925
-1.05678 0.0232087 -2.76135
-0.13338 -0.151092 -2.57054
1.04242 0.0847083 -1.85857
1.05792 0.0532084 -1.81521
0.14692 -0.344892 -2.37954
1.13392 0.0474082 -1.87929
2.89172 -0.518891 -0.505033
2.09342 -0.947891 -1.87229
2.57402 -1.11239 -2.0817
3.15952 -1.27809 -1.77961
3.31822 -1.32789 -1.89911
-1.92298 0.352308 1.90063
-2.01038 0.378908 1.81978
-1.96178 0.358909 1.84119
-1.95618 0.361809 1.65637
-0.503381 0.363508 1.6179
-1.70178 0.240909 -0.206392
0.92282 -0.0704917 1.60829
-1.36908 0.123009 0.0116175
0.89462 -0.0646915 1.56529
0.84442 -0.0503911 1.47031
1.02782 -0.116391 1.61007
0.96412 -0.076991 1.40657
1.14182 -0.135092 1.49658
1.70802 -0.0709914 1.34068
1.70732 -0.0629911 1.31057
0.29202 0.282908 -0.534923
2.11092 -0.437592 1.41636
-0.882781 -0.0068912 -1.24102
1.54632 -0.305491 0.68122
1.05562 0.0980083 -0.524703
1.10602 -0.0184917 -0.424262
1.90192 -0.352192 0.266327
2.65812 -0.818091 0.70139
2.07652 -0.220792 -0.581423
2.29772 -0.261191 -0.559093
0.535119 -0.483492 -2.39654
2.98422 -1.23159 -0.606023
2.04172 -0.928191 -1.94824
2.86052 -1.17409 -1.16382
3.00432 -1.22639 -1.09479
2.97642 -1.21639 -1.37136
2.84462 -1.17959 -1.56919
3.36812 -1.33989 -1.07798
3.15542 -1.28199 -1.81381
-0.56808 0.710008 2.26058
-1.97548 0.365108 1.89379
-0.553481 0.710408 2.03851
-2.09638 0.373009 0.972113
0.665219 0.159609 1.9009
-2.35178 0.475808 -0.163773
2.02512 -0.113091 2.01686
1.04552 -0.110891 1.14197
0.844319 -0.0457916 0.943923
2.00782 -0.411792 1.47269
2.13232 -0.448392 1.46308
2.08552 -0.430491 1.09679
2.17622 -0.461391 0.956051
2.35322 -0.715391 1.25148
1.16102 0.0879088 -0.560773
-0.897679 -0.0184917 -2.13516
1.19462 -0.149291 -0.334073
1.91342 -0.369191 0.244287
-0.334479 -0.189192 -2.40218
-0.29188 -0.210491 -2.41162
2.16512 -0.250192 -0.492162
2.14662 -0.226292 -0.554173
1.69642 -0.0754918 -1.40519
3.33942 -1.34299 -1.55543
3.08842 -1.25079 -1.95232
-2.69878 0.582808 2.27788
-1.63838 0.197208 1.35219
-0.49808 0.337909 1.14496
0.252219 -0.0375919 1.4344
1.70392 -0.145592 1.32818
0.924819 -0.0468911 0.651937
2.06182 -0.425591 1.33104
2.54392 -0.791792 0.604547
2.32132 -0.703892 0.171498
1.72912 -0.0628919 -1.34176
-0.0167797 0.543709 2.08872
1.23972 -0.164692 0.217137
1.23552 -0.225991 0.166758
1.07702 0.0333081 -0.441003
2.04232 -0.396091 0.65598
2.85392 -1.17319 0.00509761
3.19262 -1.29379 -1.87875
1.54942 -0.307591 0.631697
1.40022 -0.230692 0.379227
1.50652 -0.245292 0.359177
3.61512 -1.41789 -1.74113
1.82122 -0.403791 1.31026
2.06822 -0.205392 -0.484132
-0.424281 0.315708 0.627317
1.22642 -0.171791 0.791403
1.55592 -0.270592 -0.103162
1.92772 -0.196092 -0.522273
1.57072 0.0639087 1.1236
1.68032 -0.333792 1.27252
2.02022 -0.445492 0.361167
2.34632 -0.455791 -0.761493
1.52512 1.88607 2.56975
-1.99758 0.376808 1.85834
-1.74148 0.272408 1.64142
1.41602 0.0763083 2.17002
2.21892 -0.179392 2.07388
-2.54338 0.514008 0.565647
-1.38308 0.142408 0.978224
-2.46218 0.500608 0.576757
1.47242 -0.0791911 1.47858
0.826619 -0.0395917 1.18876
-2.27438 0.433208 0.0682976
1.65562 0.00350862 1.28767
-1.26518 0.105908 0.371047
-1.24998 0.0997087 0.333267
1.70352 -0.112091 1.28038
2.19702 -0.469691 1.45133
2.17422 -0.458291 1.4288
1.94432 -0.386691 1.19288
2.12662 -0.439192 1.07296
-0.932981 0.000308088 -0.524313
-1.67598 0.230108 -1.26038
2.61922 -0.790792 0.785793
1.17572 -0.139392 -0.0370125
1.72602 -0.316491 0.0183476
1.66592 -0.294791 -0.0343724
1.01742 0.127309 -0.539583
-2.23948 0.403008 -2.40863
-2.07218 0.347709 -2.62766
-1.08268 0.0448085 -2.10735
-2.03648 0.339508 -2.68966
2.22602 -0.254492 -0.594893
-1.23378 0.105908 -2.54831
2.91102 -0.508391 -0.516423
2.08702 -0.369791 -1.56748
2.89512 -1.20689 -1.23705
3.19572 -1.29109 -1.11353
3.05292 -1.24539 -1.25099
3.18382 -1.27509 -1.46019
3.15572 -1.27629 -1.78581
3.15392 -1.28399 -1.81771
3.03202 -1.24429 -2.08389
3.57032 -1.40129 -1.8364
-3.51108 0.946348 3.21817
2.31982 1.62978 2.79534
-0.503779 0.352508 1.61934
2.02512 -0.112492 2.22524
-1.72968 0.256609 0.586967
1.81912 -0.312192 1.60292
1.72052 -0.0588912 1.4169
1.63792 0.0399085 1.30457
1.71812 -0.0987911 1.33964
2.12292 -0.445991 1.602
2.06442 -0.422091 1.3195
0.35822 -0.0686912 0.424177
-2.20938 0.414308 -0.816083
2.08812 -0.419691 0.889516
1.35802 -0.243892 0.336767
0.29252 0.182809 -0.596943
0.958819 0.131509 -0.538353
0.88572 0.160809 -0.594702
1.11672 0.0180083 -0.453643
1.01362 0.127709 -0.597273
-2.00728 0.340609 -2.35116
2.16162 -0.217192 -0.581372
-1.47658 0.162008 -2.75118
3.01112 -1.22669 -0.236463
2.52312 -0.543892 -0.734822
-0.341281 -0.174492 -2.63019
3.07742 -1.24179 -0.620973
3.14582 -1.27949 -1.5689
3.28092 -1.31469 -1.54752
3.35952 -1.33449 -1.53524
3.11392 -1.27579 -1.83881
-0.0922801 0.553509 1.97356
0.452119 -0.0987911 1.19896
0.908219 -0.0742912 1.27343
1.75922 -0.117991 1.41732
0.22062 -0.0597915 0.864851
1.60292 -0.181791 0.928492
0.34422 0.0370084 0.0262975
2.58942 -0.791191 0.819819
1.14912 0.076109 -0.562873
1.18162 0.0812083 -0.581583
2.17412 -0.248391 -0.494943
2.53082 -0.569491 -0.705963
3.30642 -1.31609 -0.770813
-2.04288 0.377109 1.93173
0.0603191 0.502508 1.95308
1.12862 0.182109 2.02136
0.92962 -0.0886916 1.61984
2.37352 -0.457691 0.357157
2.26662 -0.387892 -0.732263
3.03122 -1.24609 -0.571863
-2.30088 0.454609 1.75703
-0.17908 0.565108 1.97011
0.13782 0.480708 2.02184
1.59532 -0.204592 0.869708
1.58372 -0.352692 0.688946
1.61132 -0.375491 0.658495
2.06392 -0.416692 0.667098
2.64412 -0.795591 0.841357
1.43982 -0.210691 -0.275022
0.72442 0.109208 -0.831003
2.06992 -0.288192 -1.82264
0.982119 -0.112692 1.54504
0.16722 0.00370889 1.26782
1.77972 -0.131391 1.44158
2.10492 -0.462992 1.53781
1.51722 -0.231892 0.273797
1.25902 -0.231292 0.125207
1.09742 -0.0104913 -0.135282
2.40112 -0.489291 -0.889823
1.86992 -0.308692 1.52327
1.48842 -0.246291 0.408117
1.20372 -0.280191 0.170538
2.88432 -1.15829 -1.20812
0.94382 -0.121092 0.658943
1.68812 -0.318191 -0.110882
2.80642 -0.242592 -1.24176
1.01182 0.0877086 0.0155276
2.38072 -0.749392 0.503477
2.02302 -0.396992 0.205087
2.12002 -0.279092 -0.471143
2.61792 -1.12869 -1.18632
-1.36918 2.13587 3.28623
-2.25018 1.45726 3.28153
-3.34798 1.19077 3.23531
1.33042 1.94163 2.72335
1.17932 0.273508 2.32349
1.19532 0.143708 2.2245
-0.0609806 0.534108 2.23189
2.04772 -0.120992 2.16757
0.58722 0.340908 2.16849
-0.0378808 0.540608 2.17037
0.764819 0.287509 2.16792
1.92412 -0.0735912 2.14712
2.25872 -0.186791 2.05979
1.66672 -0.000891634 2.02848
-0.155379 0.587209 1.99954
-2.00858 0.380608 1.8586
-2.51398 0.525208 1.81409
-1.70058 0.237309 1.80327
-1.95828 0.343409 1.63991
2.11842 -0.444892 1.59881
2.03142 -0.415892 1.59628
1.17992 -0.156692 1.48352
-1.67638 0.232808 1.35611
-0.0160797 0.056409 1.34625
2.15562 -0.454692 1.4435
2.06772 -0.423491 1.42836
-1.67888 0.245708 1.13896
0.86472 -0.0559911 1.19498
-1.99448 0.338609 1.0066
-0.135079 0.0993091 1.08767
1.98352 -0.401192 1.19974
-2.08928 0.375109 0.7998
2.02982 -0.410292 1.08152
0.0942203 -0.0313911 0.887744
-0.43228 0.526408 0.844595
-2.09088 0.370809 0.673593
2.57962 -0.765592 1.02372
0.346919 -0.0954913 0.845891
1.64852 -0.269992 0.865462
-2.40098 0.482009 0.369377
-0.0410794 0.104909 0.557177
2.61462 -0.792591 0.789596
0.884419 -0.0275916 0.617447
2.17052 -0.416692 0.601327
-2.31918 0.453508 0.0719175
-1.60958 0.230609 0.0266475
-1.34218 0.113508 0.0279876
1.43162 -0.241391 0.365067
-2.46778 0.492708 -0.206672
-2.75798 0.592608 -0.245822
1.22322 -0.179192 0.163287
0.34312 -0.0117912 0.0411476
0.38112 -0.0736913 0.0178876
-2.04768 0.345208 -0.500123
-2.11308 0.391008 -0.536213
1.62622 -0.286892 -0.0372424
-1.24748 0.100509 -0.550063
-2.27728 0.421908 -0.781473
1.45242 -0.225191 -0.195803
-2.19378 0.401809 -0.857163
1.10472 0.0167085 -0.298092
-1.76128 0.263309 -0.866833
-0.99438 0.0240088 -0.753783
-1.82318 0.270609 -0.888843
1.32262 -0.183791 -0.323502
-2.71248 0.558509 -1.08959
1.04912 0.0682088 -0.432862
-1.00468 0.00650891 -0.858813
-2.56258 0.517608 -1.12992
-2.20498 0.402008 -1.12039
-1.99278 0.337708 -1.11131
0.93452 0.137109 -0.597872
-2.54848 0.519008 -1.55521
2.15762 -0.216791 -0.591902
-1.65098 0.229308 -1.44139
-0.36098 -0.167791 -1.21332
-0.524581 -0.126391 -1.25524
1.21172 0.00380807 -0.906383
2.01132 -0.236292 -0.899193
3.05512 -1.24809 -0.795733
3.07202 -1.24119 -0.802143
2.30992 -0.483992 -0.897373
3.08052 -1.26419 -0.892463
-2.50938 0.500408 -2.14681
2.65062 -1.10929 -1.03108
-0.80778 -0.0472917 -1.85721
-2.25868 0.398309 -2.35789
1.55582 -0.0268916 -1.33977
1.62152 -0.0459918 -1.33809
2.84242 -1.17949 -1.18206
-1.90908 0.285209 -2.3577
2.79722 -1.14499 -1.23287
2.83862 -1.18119 -1.22977
-1.71058 0.214909 -2.3571
-0.98928 0.0252086 -2.24332
3.12592 -1.26439 -1.23594
2.96942 -1.21409 -1.28795
-2.44908 0.472308 -2.72894
-1.02058 0.0106088 -2.36915
-0.0909793 -0.274391 -2.15265
-2.20318 0.407509 -2.69013
-0.0355805 -0.290992 -2.15285
-0.42018 -0.162091 -2.28347
-2.19068 0.420709 -2.73878
-2.00418 0.375408 -2.73061
2.08762 -0.367791 -1.56539
2.03642 -0.354591 -1.60668
1.92912 -0.323192 -1.65137
-0.42318 -0.152991 -2.4621
-0.0655792 -0.283591 -2.38984
0.26472 -0.400492 -2.36677
-1.95488 0.292909 -2.99157
-0.24368 -0.218491 -2.52843
2.32162 -1.02709 -1.8559
0.39202 -0.423391 -2.3965
0.58822 -0.485891 -2.37911
-0.33598 -0.165892 -2.63289
0.630019 -0.500192 -2.38157
2.57582 -1.10729 -1.87835
0.854819 -0.591891 -2.38397
3.62572 -1.43839 -1.59898
2.82912 -1.16219 -1.88205
2.99652 -1.23239 -1.85479
0.397821 -0.401591 -2.6122
0.468221 -0.437491 -2.61534
1.50482 -0.629091 -2.37143
2.30392 -1.00869 -2.3206
3.39462 -1.34169 -2.00999
3.12392 -1.28009 -2.13667
2.27652 1.91109 3.33001
-1.15528 1.68881 3.30409
-2.83538 1.03466 3.27639
-2.85008 0.988559 3.26897
1.46132 1.89146 2.79432
-3.31398 1.1894 3.26056
2.35572 1.613 2.57537
1.86982 1.768 2.5873
0.0415203 0.516508 2.13426
-2.00688 0.361809 2.13186
-0.25998 0.602908 2.07913
0.94082 0.231009 2.00906
0.442519 0.385709 1.99744
0.74912 0.283709 1.98741
-1.93658 0.351808 1.98491
-2.01998 0.370909 1.97792
-2.11558 0.412608 1.64407
-0.36698 0.333709 1.55623
1.24642 -0.118992 1.59696
1.86972 -0.319692 1.49183
1.63482 0.000908903 1.40706
0.418519 -0.104092 1.2604
0.44922 -0.109591 1.19742
-2.48448 0.495909 0.603037
-0.403479 0.504208 0.780041
2.48862 -0.760592 0.872231
1.04192 -0.0934915 0.683654
0.91492 -0.0456914 0.638607
-1.26428 0.113508 0.368807
2.06502 -0.412891 0.649777
2.67822 -0.828591 0.681997
1.92452 -0.373092 0.601887
2.12392 -0.406792 0.602637
-1.50008 0.185008 0.0645076
-1.53988 0.210909 0.0148876
-2.54508 0.525108 -0.231822
-1.78668 0.287708 -0.208492
1.24792 -0.167791 0.0823276
2.77392 -1.16939 0.0828175
-1.24218 0.136108 -0.867783
-1.00018 0.0291081 -0.872063
-0.94888 -0.00729174 -0.875733
1.15062 0.148109 -0.494363
1.16912 0.024109 -0.532303
2.04432 -0.241192 -0.435272
2.08172 -0.234692 -0.446732
2.15432 -0.248092 -0.442682
0.98372 0.180208 -0.743042
2.02702 -0.177792 -0.585643
2.03022 -0.185191 -0.608103
-2.01838 0.414609 -1.54166
2.27832 -0.297491 -0.738302
2.89782 -1.19319 -0.821633
0.691819 0.345009 -1.17294
-2.52548 0.500809 -2.07671
0.947619 0.307408 -1.28054
-0.86278 -0.0237913 -1.83563
-0.773681 -0.0772914 -1.86653
-0.597381 -0.114692 -1.85365
2.97872 -1.22499 -1.08334
-1.08308 0.0458089 -2.05051
-1.19008 0.0807086 -2.1028
-1.88058 0.257209 -2.34333
2.19692 -0.0747918 -1.2919
2.89722 -1.18599 -1.41078
2.54672 -1.07009 -1.5236
-1.98208 0.344508 -2.70847
1.97802 -0.333591 -1.63796
-1.74338 0.259809 -2.73872
-0.0754803 -0.262391 -2.33884
-1.47028 0.145708 -2.91959
2.13882 -0.263991 -1.78493
2.71672 -1.13969 -1.8592
1.28972 -0.556791 -2.39596
3.11982 -1.27929 -1.91804
2.42772 -1.05719 -2.1187
3.25572 -1.31049 -1.88039
1.74792 -0.840192 -2.35247
1.80682 -0.853592 -2.34917
1.72122 -0.825691 -2.3789
3.61252 -1.43199 -1.83208
-1.16588 1.62357 3.30486
-1.16798 1.55596 3.30867
1.69912 1.821 2.79924
-3.45448 0.949649 3.21703
0.88202 0.257309 2.01739
-0.37758 0.654709 1.98357
1.35332 0.0962087 1.98748
1.84962 -0.0652913 1.9882
2.07452 -0.256492 1.91574
2.33052 -0.699492 1.50443
2.15922 -0.457392 1.48144
1.71642 -0.0854911 1.44237
1.88882 -0.239291 1.43366
1.69092 -0.0638913 1.41677
-2.15188 0.403008 1.00414
1.52152 -0.258891 1.09032
0.295421 -0.0733918 0.862312
0.998519 -0.0782918 0.638317
1.61412 -0.433991 0.368937
2.62482 -0.755992 0.270877
1.73292 -0.326092 0.0793376
1.29172 -0.175991 -0.276982
-2.67698 0.538608 -1.06952
2.04372 -0.183991 -0.535793
2.20822 -0.232291 -0.560453
2.93142 -1.15329 -0.574963
2.96062 -1.18539 -0.618743
3.10982 -1.26289 -0.599853
2.53262 -0.544392 -0.707462
0.542319 0.226508 -1.18789
3.16702 -1.27869 -0.754273
-0.521979 -0.120691 -1.85738
1.56912 -0.0548915 -1.35056
-2.16568 0.397509 -2.39513
3.29472 -1.31389 -1.46728
-0.61588 -0.0547914 -2.56233
-0.708581 -0.0749912 -2.626
2.34842 -1.02759 -1.87654
3.15402 -1.27319 -1.8848
3.29642 -1.31539 -1.85649
3.20182 -1.29039 -1.89761
3.46532 -1.41549 -1.85337
2.22772 2.06353 3.34099
-0.43908 0.663008 2.09676
1.60922 0.0257083 2.00791
-2.12288 0.420009 1.70108
1.93782 -0.380391 1.52369
-0.422181 0.216708 1.21341
0.42652 -0.0908918 1.23143
0.872319 -0.0508918 0.956885
-1.91348 0.284008 0.635737
1.56272 -0.302491 0.851118
2.07242 -0.422192 0.673256
1.39932 -0.255691 0.446308
1.19492 -0.187892 0.192307
0.240621 0.234609 -0.447052
0.20502 0.250608 -0.485553
0.93962 0.0924083 -0.386403
2.69502 -0.615392 -0.273062
0.68122 0.222709 -1.15726
3.24962 -1.30779 -0.740272
-1.42208 0.147509 -1.82272
-1.85278 0.202008 -1.92789
0.86852 0.397908 -1.23655
2.57972 -1.10309 -1.06672
1.51642 -0.00699133 -1.37256
2.49342 -0.209991 -1.20691
2.24132 -0.105791 -1.30706
1.65962 0.0608083 -1.57848
-0.696879 -0.0882911 -2.41867
-0.54708 -0.120591 -2.38824
-0.0898807 -0.227192 -2.35849
0.204219 -0.345692 -2.36596
1.89092 -0.876291 -2.35616
2.85522 -1.19779 -2.15077
2.16622 2.06311 3.32141
-2.01488 0.373109 1.91839
0.73182 0.135908 1.8986
-1.46088 0.185509 1.40846
-1.51258 0.189908 1.1329
1.69642 -0.180991 1.30819
0.960219 -0.0554914 1.2577
-0.65208 0.349008 1.15131
-0.52138 0.464409 0.944885
2.00162 -0.374991 0.689977
2.54032 -0.779592 0.629637
2.49752 -0.724591 0.288657
1.28552 -0.238091 0.0844975
-1.12778 0.0346089 -0.505763
-1.26858 0.0830089 -0.776503
0.969621 0.0588084 -0.357942
0.71452 0.115008 -1.00257
2.28362 -0.270991 -0.763653
2.30952 -0.395291 -0.796303
1.01182 0.221309 -1.2827
2.58472 -1.04259 -1.2404
2.41402 -0.214592 -1.15993
2.24992 -0.0900916 -1.26248
-0.470481 -0.108492 -2.62005
-0.10648 -0.239592 -2.63127
1.06912 -0.604192 -2.40899
3.07182 -1.25579 -1.87942
2.39862 1.61676 2.80148
0.21322 -0.0461911 1.34667
1.57622 -0.0286912 1.23989
2.07902 -0.398891 1.26375
1.62632 -0.251891 0.942667
0.92682 -0.0398912 0.579227
0.445319 -0.132992 0.323387
2.83942 -1.15859 0.0134776
1.51622 -0.240091 -0.289692
1.54332 -0.193392 -0.408353
2.21502 -0.967792 -1.9199
3.70272 -1.44429 -1.82305
-0.48638 0.382708 0.998479
2.69212 -0.608992 -0.373722
2.98082 -1.21289 -1.16121
-3.11458 0.943438 3.22484
-1.68688 0.313309 1.73919
-0.0481804 -0.0218915 1.22522
1.53482 -0.504691 1.09925
1.15412 -0.0280914 0.746518
1.01682 -0.0532913 0.679017
2.53122 -0.720592 0.374047
1.00992 0.110409 -0.276922
2.62012 -1.11919 -1.0707
1.97602 -0.0621919 2.26281
1.29332 -0.216891 1.02119
2.20902 -0.194291 -0.254542
1.16422 -0.159391 0.853645
0.193019 0.0717087 0.248868
2.11472 -0.458892 0.212507
1.23342 -0.114291 -0.00157239
2.81812 -0.696892 0.276457
0.81952 -0.118391 -0.938083
3.66522 -1.43009 -1.86085
0.520919 -0.471191 -2.40119
3.02102 -1.21959 -1.61442
-2.12828 0.328308 -2.35403
2.13022 -0.0893916 -1.12989
2.98072 -1.23009 -1.08435
2.66222 -1.12409 -1.05758
3.08342 -1.27039 -0.895483
2.88682 -1.19659 -0.902433
2.66342 -1.12009 -0.919293
3.08372 -1.24229 -0.618593
-2.28248 0.398508 -1.54482
1.52262 -0.255292 -0.463702
0.28712 0.250909 -0.496582
1.11642 0.0257083 -0.294202
-1.63158 0.228309 -0.225632
-1.79458 0.280808 -0.207063
1.24932 -0.0657911 0.361827
2.66252 -0.821591 0.697776
-2.39448 0.474109 0.367407
2.64392 -0.809192 0.844456
2.56422 -0.782991 0.845453
2.51972 -0.766591 0.854102
-2.20918 0.418809 0.66562
0.39462 -0.112191 0.855709
0.129319 -0.0461911 0.873522
-2.35918 0.464508 1.01235
1.63322 -0.0314912 1.23402
-1.76858 0.263409 1.37294
-0.289679 0.411609 1.78433
-2.11148 0.428509 1.93955
-2.40928 0.485608 2.12457
-2.41488 0.497508 2.14191
1.82082 -0.0510911 2.22813
3.74952 -1.46299 -1.8424
-0.608479 -0.0575914 -2.5622
3.19522 -1.28449 -1.56453
2.73312 -1.14809 -1.25878
2.08202 -0.217091 -0.502803
2.09912 -0.245091 -0.367973
2.97742 -1.21549 -0.209173
-1.13178 0.0411082 -0.550993
1.25392 -0.179591 -0.162662
-0.547379 -0.0888919 -0.206773
2.15532 -0.431591 0.617817
-2.25088 0.421208 1.0112
1.64212 -0.0381917 1.2629
2.16222 -0.459691 1.48083
2.34692 -0.719492 1.51996
-0.324981 0.635709 2.05812
-2.03048 0.372008 2.30561
2.98682 -1.19459 -1.16803
-0.51578 -0.116192 -1.85547
2.28392 -0.359692 -0.515783
2.26202 -0.374091 -0.407932
1.09882 -0.0148916 -0.322222
-1.45988 0.197509 -0.218262
-1.59518 0.138108 -0.213342
2.62562 -0.819291 0.401387
1.15402 0.0307084 0.356387
0.31392 -0.0688915 0.612937
0.95012 -0.0840911 0.671131
1.58732 -0.229292 0.865424
1.69992 -0.0780916 1.30068
0.948319 -0.0928916 1.62472
1.22202 0.0105086 -0.576253
0.99342 0.0766087 -0.352863
1.68422 -0.0894918 1.29921
1.86942 -0.247891 1.40277
1.26392 -0.0869913 1.48833
1.86482 -0.351591 1.5434
1.18112 -0.126592 1.5398
-2.31088 0.461008 1.63184
0.605519 0.187808 1.9041
2.03722 -0.109792 2.00569
1.62012 -0.044691 1.42677
-1.75448 0.234109 1.77596
0.669021 0.0347081 0.364367
2.26022 -0.221991 1.9927
1.20402 0.101608 -0.629483
1.12432 -0.0749912 0.742306
1.84492 -0.405992 0.926329
-0.0505799 -0.0156917 1.23245
1.81092 -0.317092 -0.00370242
2.21982 -0.565692 0.389637
1.74682 -0.317391 0.95049
1.89962 -0.347491 1.47712
1.61722 -0.0295915 -1.50381
1.59592 -0.253391 0.0690676
0.852019 0.179109 -1.10417
-1.76998 0.245408 -2.74769
-0.53748 -0.157791 -2.54862
1.44722 -0.547691 -2.37766
-1.03338 0.0105086 -2.37099
3.44502 -1.40039 -1.82532
3.60712 -1.40869 -1.8144
-2.03078 0.336509 -1.55363
2.23142 -0.0770911 -1.27422
2.54602 -1.07649 -1.52796
3.33762 -1.33609 -1.54529
-1.68098 0.238309 -0.892253
3.14242 -1.25969 -1.24721
3.32682 -1.34539 -1.26016
-1.04928 0.00710877 -0.859333
2.60992 -1.09709 -1.05631
2.23832 -0.231992 -0.577823
2.14632 -0.266691 -0.423572
2.19272 -0.287791 -0.423492
-2.08188 0.354109 -0.195293
1.27612 -0.163292 -0.295822
-1.32158 0.117708 0.0297875
-1.47428 0.161408 0.0579475
0.249219 -0.0854911 0.403178
-2.22878 0.414509 0.682601
1.35772 -0.217992 0.541597
-2.07738 0.366408 1.0042
-1.76568 0.274609 0.999892
2.04362 -0.390692 0.647737
-0.38898 0.348509 1.09239
0.444921 -0.101191 1.12234
2.66132 -0.822392 0.69798
-2.42178 0.490808 1.60732
2.04322 -0.425991 0.913638
1.64422 -0.0421914 1.22695
2.29772 -0.711991 1.019
1.72082 -0.220192 1.33461
2.31372 -0.708192 1.25723
1.89412 -0.310092 1.45505
-0.163979 0.580109 2.02103
2.00242 -0.412992 1.4837
0.0457202 0.517809 2.13625
0.579219 0.341008 2.22374
-3.30758 1.18719 3.25631
2.07632 -0.259292 1.91541
1.20482 0.147409 2.22259
-2.90728 0.989468 3.26026
-2.85468 0.971158 3.28753
2.23132 -0.182892 2.07363
1.82112 -0.0487918 2.22626
1.65562 1.84295 2.7969
-0.62758 -0.0851917 -2.57264
-0.169779 -0.209091 -2.54278
1.22242 -0.585192 -2.40268
-2.31268 0.455909 -2.06424
-1.40858 0.164108 -1.82702
-0.84508 -0.0212917 -1.8365
-0.86568 -0.050991 -1.83283
3.16982 -1.25769 -1.85821
3.09422 -1.27319 -1.8548
1.60002 -0.0388917 -1.33743
-1.73608 0.262709 -1.57322
1.93122 -0.0311918 -1.13289
-1.82198 0.291509 -1.25796
-0.43278 -0.159792 -1.21351
-1.45468 0.176209 -0.955613
2.75052 -1.13079 -1.24741
-0.978381 0.0111085 -0.882923
-1.59718 0.302809 -0.749012
1.21052 0.025509 -0.603383
2.54462 -0.500791 -0.729332
-2.16218 0.427408 -0.180032
1.21892 -0.152391 -0.278022
1.26072 -0.182192 0.101158
-1.12178 0.0608083 0.328107
-0.38248 0.495708 0.838013
-0.435981 0.552109 0.882154
0.27102 -0.0732917 0.835015
2.15992 -0.435092 0.618087
0.904719 -0.084691 1.18195
2.46882 -0.752192 0.851898
-1.77058 0.268208 1.82574
-1.92398 0.352109 1.974
0.32232 -0.405791 -2.38894
-0.14378 -0.295491 -2.37275
1.64222 0.0644084 -1.56932
-1.68258 0.226508 -1.89027
2.57302 -1.12549 -1.88958
3.20512 -1.29729 -1.85913
1.67962 -0.0459918 -1.36134
0.906619 0.319208 -1.25731
3.47092 -1.38059 -1.57745
-2.50078 0.468409 -1.14207
-2.22428 0.418609 -1.04543
-2.07238 0.390509 -1.03398
0.98062 0.0958081 -0.860363
2.78922 -1.16579 -1.24319
-1.81078 0.285508 -0.775343
2.83972 -0.574692 -0.600053
2.00172 -0.219791 -0.440002
2.02912 -0.206991 -0.324832
1.61562 -0.274991 -0.276552
-1.20868 0.120109 0.337647
2.37682 -0.714191 0.196457
-1.97378 0.370209 1.94022
2.24302 1.95187 3.32705
0.60432 -0.484991 -2.41639
1.09902 -0.601591 -2.38032
0.753221 -0.469091 -2.34095
2.59852 -1.11689 -2.09954
2.34072 -1.01499 -1.89924
0.869519 0.172009 -0.780703
2.31142 -0.213592 -0.739433
1.24882 0.0233089 -0.625163
2.25872 -0.458192 -0.739512
2.33292 -0.720491 0.222287
-0.37538 0.212708 1.20348
1.65472 -0.317291 0.87746
-0.31008 0.152609 1.26435
0.81062 0.00220876 1.73533
2.72532 -1.13629 -2.13043
0.996819 0.0988084 -0.343522
-1.53928 0.242108 1.55624
1.90562 -0.282592 1.44046
0.0759193 0.531308 2.1827
0.35102 0.0620089 -0.284322
2.83812 -0.677391 -0.390793
0.75632 -0.113591 0.368137
1.13422 -0.0435914 -0.290382
-1.72048 0.293408 1.66614
1.52662 0.00730904 1.38339
1.60892 -0.464191 1.07054
1.72702 -1.05479 -2.38539
2.18752 -0.135391 -0.868993
0.96242 -0.180792 0.376568
1.27862 -0.112091 0.967757
1.49982 -0.0543918 -0.561833
1.81162 -0.353291 -0.569353
0.962119 0.0946084 -1.30559
0.928319 -0.128092 1.47246
-2.01658 0.326609 -2.32152
-0.628079 -0.0989913 -2.57543
-0.81918 -0.0531911 -2.35878
-1.10968 0.0565082 -2.10978
-0.0544804 -0.248591 -2.32977
-2.51188 0.515908 -1.55017
-0.340279 -0.196591 -2.14752
-2.14598 0.393808 -1.52549
1.44912 -0.715792 -2.44834
-1.16608 0.0722085 -1.52645
1.38952 0.0408088 -1.38152
-2.20198 0.381308 -0.759663
-1.46398 0.176108 -0.953623
1.23952 0.00150876 -0.910693
1.46532 -0.0669917 -0.914323
2.75382 -1.15659 -1.87148
2.83542 -1.17529 -1.88387
2.77222 -1.15539 -1.85578
2.83012 -1.17999 -1.86577
2.79232 -1.15229 -1.83468
0.988521 0.090809 -0.456512
3.25262 -1.30199 -1.86048
3.19882 -1.29949 -1.83219
-0.55808 -0.104491 -0.170122
3.76642 -1.46689 -1.89119
1.14882 -0.00369162 -0.237343
3.08302 -1.25019 -1.24712
2.71682 -1.12539 -1.05264
3.30652 -1.32909 -0.902252
-1.94578 0.347508 1.83264
1.04612 -0.122592 0.951966
2.04502 -0.396292 0.654315
-0.18978 0.582909 2.02688
1.63192 -0.0301914 1.23012
1.05042 -0.125992 1.4795
1.95172 -0.388891 1.45719
2.32432 -0.707691 1.52499
1.79932 -0.0320911 2.17501
-2.25498 0.420109 -2.7152
-2.15768 0.407608 -2.70102
-1.96008 0.293109 -2.59807
-1.89848 0.329308 -2.38953
-0.598781 -0.104391 -2.54415
-0.271979 -0.206291 -2.55771
-0.230481 -0.214592 -2.512
0.0289203 -0.291092 -2.37514
0.45132 -0.476591 -2.41378
-0.84388 -0.0437917 -1.85132
-0.513579 -0.121192 -1.86905
-1.45018 0.161609 -0.796413
2.83402 -1.18819 -2.14969
3.11702 -1.27339 -1.90065
-2.40808 0.494308 0.356247
2.22932 -0.298692 -0.448612
2.95222 -1.21659 -1.23795
1.00822 -0.115292 0.779799
-0.0998809 0.0491086 1.23707
0.441819 -0.106992 1.11782
-0.580979 0.687308 1.97907
0.944419 -0.076291 1.09066
0.97642 -0.0939912 1.09234
1.64752 -0.241391 0.897067
0.94332 -0.0778913 1.61893
2.06252 -0.422491 1.09356
1.99552 -0.399092 1.20564
2.62372 -0.797292 0.823845
1.98132 -0.410691 1.45413
1.22152 0.143708 2.16485
2.29462 -0.195592 2.02613
-2.60628 0.522609 -2.07155
-0.553281 -0.138891 -2.52835
-0.40438 -0.173191 -2.32769
0.246921 -0.362692 -2.37013
0.33672 -0.397792 -2.38427
1.97622 -0.923792 -2.15433
2.19802 -0.238892 -0.493962
-1.91578 0.338808 1.96086
-1.94578 0.346808 2.01383
-0.473981 0.639508 1.9517
2.05562 -0.440592 1.14118
2.48872 -0.763091 0.867978
2.03542 -0.408792 1.46217
2.08472 -0.425192 1.46388
0.835519 0.361408 -1.24047
0.945319 0.264608 -1.277
1.80262 -0.299791 -1.8157
1.01952 0.0957089 -0.870573
-1.60648 0.242309 -0.228412
0.83892 0.118408 -0.450623
2.92522 -1.19669 -1.71629
0.24402 0.442008 2.02779
1.59762 -0.359391 1.17978
1.66372 0.0062085 2.03644
2.03812 -0.108691 2.01946
2.33882 -0.724491 1.52451
