-0.772589 -0.142642 -1.84771
0.0491115 -0.1868 -1.96058
0.03861 -0.203494 -1.96843
-2.12813 -0.110578 -1.82144
-2.40225 -0.192476 -2.12074
-1.66288 -0.325818 -2.53911
-2.24947 -0.349114 -2.66396
1.49969 0.00322482 2.08991
0.778379 0.40078 1.95154
0.629096 0.377765 1.84884
0.280954 0.380996 1.83482
0.711036 0.129602 1.55539
1.37211 -0.0753932 1.3677
-1.06216 0.317271 1.57756
-0.0422436 0.273786 1.3027
0.034079 0.222291 1.23545
-0.171772 0.111023 0.95406
0.661552 0.0841093 0.814607
-0.200264 0.0940221 0.942779
2.03407 -1.92813 1.26515
0.356489 0.0597755 0.70821
-1.04342 -0.112317 0.89209
0.824178 0.179303 0.44619
-1.26074 -0.0728515 0.840164
0.475548 0.148947 0.343197
1.378 -0.418506 0.155735
0.183121 0.0607129 -0.0110371
-1.86738 0.267228 -0.433955
1.41726 -0.594214 -0.47911
1.42701 -0.610342 -0.49089
-0.473537 0.0889577 -0.989347
0.676128 -0.0129939 -1.28276
0.872123 -0.059909 -1.40497
0.656663 -0.0731511 -1.45775
2.56177 -0.34682 -1.76964
2.32802 -0.205822 -1.93048
1.67637 -0.232436 -1.90865
1.80797 -0.228069 -1.98741
1.75311 -0.247934 -2.03133
0.766 -0.202835 -1.90553
1.8304 -0.274745 -2.09459
-1.20856 -0.177384 -1.91293
1.48789 -0.314179 -2.27255
1.92559 -0.363989 -2.43202
0.418388 -0.310229 -2.28936
-0.815106 -0.342995 -2.50678
-0.867417 -0.341441 -2.50952
0.122035 0.447636 2.03516
0.253253 0.42454 2.01499
0.109383 0.425928 2.00884
0.12268 0.379016 1.8351
1.16073 -0.0115474 1.61282
0.184385 0.105251 0.883353
0.199054 0.0579229 0.708483
-0.164083 0.0713193 -0.0380053
-0.993879 0.107188 -0.969602
0.962612 -0.134738 -1.68644
1.56924 -0.189746 -1.86715
-2.17465 0.00350943 -1.43893
-0.0173004 -0.222391 -1.99482
-1.49378 -0.136915 -1.86982
2.63897 -0.646659 -2.7405
0.0988906 0.399217 1.95159
0.597184 0.386219 1.85778
0.132062 0.396464 1.87229
0.714847 0.116276 0.948404
0.192659 0.117538 0.919649
0.122808 0.106836 0.884537
-0.137819 0.100917 0.913854
0.141848 0.0588251 0.704681
1.47043 -0.325347 0.518481
-0.178965 0.149821 0.309665
0.858092 0.0360666 -0.0573241
0.799144 -0.283965 -0.619969
0.70048 -0.0746979 -1.49277
0.970947 -0.12745 -1.65017
-1.17143 -0.175606 -1.92177
0.746102 -0.310811 -2.34716
0.840635 -0.33177 -2.3825
-1.41118 0.540129 2.50622
-0.403561 0.407839 2.07597
-0.156753 0.405942 1.9512
-0.716889 0.317065 1.66453
-1.05026 0.263681 1.40542
-1.10054 0.236294 1.39409
0.137209 -0.049699 -1.46334
1.70142 -0.192868 -1.86747
-0.428516 -0.0895228 -1.63252
1.69691 -0.218613 -1.89089
1.73523 -0.224753 -1.94011
1.61646 -0.236832 -1.93182
-0.852282 -0.230934 -2.21473
-0.0310533 0.408347 1.95916
0.776421 0.356548 1.84483
-1.35278 -0.0997487 0.926537
0.56905 -0.186029 -1.94932
2.5196 -0.568382 -2.69684
-0.423904 0.118022 0.98105
-1.43345 -0.0591919 0.971822
-1.25211 -0.120739 0.760598
-0.680273 -0.122758 0.0392397
0.191869 -0.0807951 -1.5684
-0.835259 -0.0963712 0.885818
-1.05325 0.0251577 0.160272
1.09244 -0.302721 -0.486966
0.297136 -0.390945 -0.61955
-0.382484 0.167398 1.15722
1.99752 -1.71365 2.03955
0.331009 0.667014 2.55339
1.23454 0.0910263 1.97925
1.36199 0.0393789 1.80241
-0.0686494 0.767108 2.45899
-0.54898 0.77481 2.64861
0.631314 0.21734 1.71421
0.552404 0.0585362 1.6098
-0.902337 0.712288 2.39106
-1.96704 1.2256 2.94609
-1.84618 1.0688 2.39698
-2.03265 1.072 2.40515
-0.42189 0.257476 1.43101
-0.418754 0.250265 1.41638
-0.416555 0.236626 1.39288
0.139421 0.129355 0.973125
-0.9971 0.320161 1.62119
-0.0706326 0.0506411 0.687527
1.08043 -0.315952 -0.360646
0.887055 -0.275651 -0.486788
-1.33442 -0.0801558 0.947252
-0.70766 0.0892542 0.208881
-0.981341 0.242364 -0.452919
0.360988 -0.0407246 -1.44652
0.373097 -0.0656573 -1.48695
1.80312 -0.370174 -2.44123
0.228314 -0.0692838 -1.48829
1.21911 -0.260474 -2.15557
-1.97149 0.257676 -0.488717
0.388867 -0.32539 -2.40376
-1.40446 0.0265597 -1.28601
-2.17893 0.145608 -0.903348
-2.45285 0.0892664 -1.13584
-0.0377481 0.82656 2.6883
0.819986 0.395549 1.92825
-1.62739 1.32579 3.2923
1.9498 -1.8973 1.37424
2.03785 -1.92982 1.26775
1.38503 -0.143136 1.17493
-0.557752 0.706211 2.27356
-1.78343 1.23883 2.9727
-0.480557 0.308895 2.17113
-0.51122 0.304229 2.18446
-0.277755 0.330667 1.50726
0.311641 0.0739794 0.788266
-1.74636 0.279247 1.9698
-0.404133 0.000478654 1.06474
-0.813607 0.215491 1.21295
-0.16943 0.0541972 0.790177
-1.68425 0.218796 1.74559
-1.72905 0.19995 1.71021
-1.06098 0.198837 1.15196
0.298378 0.100437 0.192034
-1.71894 0.133875 1.47912
0.18888 -0.0207463 -0.160018
-1.38636 -0.0583356 0.98381
-1.64858 0.0467816 1.10145
-1.69036 0.0102681 1.02227
-1.33685 -0.169097 0.617108
1.19634 -0.0367365 -1.42343
0.917464 0.00255284 -1.24798
0.884396 -0.0344842 -1.34046
1.53822 -0.196031 -1.89999
0.52413 -0.0157677 -1.28083
2.27856 -0.455071 -2.63152
-1.89992 -0.329348 0.482067
-0.863815 0.179366 -0.730633
-0.540624 0.105778 -0.970339
-0.241903 0.0367215 -1.22354
0.36175 -0.0960131 -1.5975
0.0506711 -0.152405 -1.81798
0.0630942 -0.174891 -1.8316
-1.88485 0.205657 -0.712446
-0.700437 -0.135481 -1.83161
-1.89604 0.101628 -1.09499
-0.763517 -0.145982 -1.86873
-2.2426 -0.346326 -2.66575
0.593193 0.438783 2.06764
0.614307 0.40058 1.91383
0.637607 0.38281 1.86763
-1.87194 1.33879 3.34465
2.27052 -1.96949 1.17275
0.0664398 0.441269 2.0356
-1.74566 1.23277 2.9801
0.656175 0.117592 1.56191
-0.229032 0.435368 2.07271
-0.206159 0.364319 1.89377
0.490354 0.116717 0.93926
0.1794 0.106446 0.882244
-0.830675 0.271576 1.38985
0.187575 0.0575934 0.713729
-0.410615 -0.0140738 1.04696
-0.59618 0.140407 1.01312
0.890911 0.0197644 -0.100822
-1.05964 0.163223 1.09292
-1.14692 -0.0560687 0.884527
-1.1985 -0.100969 0.856997
2.11575 -0.275649 -2.02535
1.73793 -0.206285 -1.9047
0.115278 -0.477516 -0.546408
2.10214 -0.340367 -2.27418
0.897646 -0.0957932 -1.54661
0.817698 -0.0819369 -1.51035
0.722897 -0.0819256 -1.50699
1.71006 -0.309669 -2.18127
-1.22098 -0.273546 0.0289241
2.59892 -0.62113 -2.71915
2.6471 -0.656046 -2.84199
-0.572203 0.108438 -0.95434
0.446958 -0.18394 -1.93729
-1.77261 0.247898 -0.540812
0.789204 -0.298211 -2.36683
-0.505604 -0.0833566 -1.64355
0.310019 -0.324616 -2.38736
-0.84299 -0.174246 -1.81649
-2.02968 0.0447338 -1.31022
-0.868288 -0.335776 -2.51378
-1.79386 -0.310887 -2.47491
-2.37674 -0.213279 -2.13777
1.84619 -1.80345 1.7231
0.620611 0.420361 1.9711
0.289301 0.459997 2.13814
-0.0210295 0.429517 2.00177
-1.72669 1.21976 2.94766
-1.36838 0.191257 1.82752
0.59352 0.154671 0.430709
0.883444 0.0412472 -0.0559631
0.849224 -0.253164 -0.464368
0.866213 -0.217136 -1.94519
1.27418 -0.300967 -2.24712
0.659622 -0.222781 -1.98307
-1.80805 0.271492 -0.445551
-0.00840867 -0.205718 -1.96684
-1.89191 0.0297245 -1.33934
-1.77955 -0.315966 -2.53142
0.545523 0.428132 2.02547
2.0338 -1.90275 1.36723
1.30417 -0.0599559 1.40955
0.215337 0.423737 1.9935
-1.15104 0.608805 2.55813
1.34091 -0.236725 0.780961
0.34385 0.0942325 0.830352
0.289508 0.100745 0.866443
0.818385 0.160951 0.430782
1.38262 -0.412316 0.160903
0.64525 0.173607 0.393315
1.20607 -0.308579 -0.272256
0.730347 0.00713498 -0.0921814
-1.69167 0.139526 1.49496
1.34923 -0.620045 -0.525288
-1.38018 -0.120107 0.746491
2.11505 -0.272467 -2.09559
1.50832 -0.200349 -1.8794
2.69918 -0.653124 -2.71132
0.703162 -0.194833 -1.89773
0.650932 -0.194636 -1.91636
-2.15119 0.00930001 -1.41907
0.0314479 0.426097 1.97312
1.41735 -0.141992 1.11516
1.47056 -0.440867 0.0807339
0.4573 0.00592183 -0.141974
-1.70325 0.086369 1.29034
0.103356 -0.294061 -2.29371
-0.318436 0.247158 1.26797
-1.15865 0.302047 1.47077
-0.897146 0.226368 1.27842
0.0194579 0.0829323 0.184877
-0.245276 0.0883724 -0.0651984
0.791887 -0.156833 -1.80298
-1.00046 -0.250545 -2.2149
-1.03772 0.190547 1.23987
0.247563 -0.230542 -0.344595
0.271731 -0.377372 -0.522808
1.0312 -0.115306 -1.57157
-0.626129 -0.282805 -2.29049
-0.336822 -0.221062 -0.22324
0.456238 0.26689 1.49489
-0.0296953 0.194286 1.40633
0.121602 0.202898 1.15555
-1.26424 -0.0664658 0.874549
0.197958 -0.306349 -0.636024
2.14328 -1.84223 1.58722
2.03336 -1.94411 1.2195
1.38124 -0.0761622 1.35985
0.621302 0.404281 1.94317
0.334446 0.452398 2.109
0.190121 0.691864 2.20907
0.152628 0.70045 2.24414
0.0206067 0.739981 2.37825
-0.070775 0.767137 2.48839
0.345994 0.384021 1.86228
1.45216 -0.516518 -0.15686
0.704524 0.0881201 0.806512
0.420147 0.0615841 0.740124
-1.12717 1.23071 3.01877
-0.799868 0.723002 2.3931
-0.155429 0.0998453 0.91649
-2.06751 1.07109 2.39985
0.992546 -0.453211 -2.77624
-1.09693 -0.0721907 0.919262
-1.85665 0.0582759 -1.17123
-2.40962 -0.176819 -2.08982
1.95802 -1.69714 2.08721
2.11978 -1.84024 1.6049
1.22787 0.0821735 1.96106
1.35373 -0.120772 1.22866
0.674092 0.266322 1.70977
0.600435 -0.0187786 1.55897
-0.208854 0.787403 2.59135
1.5289 -0.480037 -0.0918856
0.0545705 0.424201 1.98372
0.728047 0.0785328 0.77302
2.3951 -0.37835 -2.40153
0.742462 0.110919 0.262932
0.14701 0.109303 0.912818
0.927424 -0.287116 -0.458188
-1.59539 1.29706 3.21146
0.783275 -0.170288 -0.57392
-0.171229 0.085732 0.932257
-1.79881 1.24872 3.00227
0.149534 0.0612655 0.0305793
-0.751621 0.321653 1.58261
-0.819617 0.294754 1.48684
1.25426 -0.327418 -2.31516
-2.10032 1.08528 2.42934
-0.70656 0.0878246 0.206088
-1.30729 -0.11674 0.810613
-0.977752 -0.311519 -2.48163
1.48696 -0.296663 0.547666
1.42376 -0.287292 0.630367
0.683004 0.234262 1.67711
1.27858 -0.253738 0.742378
-0.187665 0.798697 2.57492
0.0912303 0.462314 2.12405
2.42101 -0.291539 -2.0442
1.3629 -0.527144 -0.263468
0.233543 0.279272 1.38183
-0.243032 0.406023 2.05852
-0.578908 0.7079 2.30065
-0.476819 0.296466 2.16151
-1.13366 1.18904 2.89352
1.50594 -0.186494 -1.8908
-0.42203 0.249412 1.39556
-0.18856 0.102797 0.959854
0.980464 -0.000160885 -1.20439
-0.136168 0.0483919 0.759924
0.0801176 0.135535 0.239672
1.47189 -0.305668 -2.26389
0.811028 -0.0648734 -1.45526
0.670571 -0.0627057 -1.43515
0.775436 -0.190296 -1.87773
0.681478 -0.225435 -1.97708
-1.20344 0.176046 1.27425
-1.68118 0.227568 1.77813
-0.284785 0.0916936 -0.976913
0.0139403 -0.204801 -1.97273
0.242424 -0.332528 -2.38621
-0.242045 -0.154854 -1.83228
-1.62934 -0.0197942 0.871807
-1.14335 -0.0385554 -1.50137
-1.56077 0.14849 -0.893004
-1.43764 -0.142471 -1.88754
-1.10179 -0.312862 -2.46196
-2.16703 -0.0364766 -1.62036
-2.34705 -0.0601506 -1.62353
2.00477 -1.90251 1.38019
1.18296 0.171519 2.23313
0.644033 0.464793 2.09735
0.647778 0.438149 2.05767
0.615972 0.387784 1.84097
0.00556637 0.827766 2.67997
0.620558 0.252407 1.72231
0.107064 0.393358 1.87808
-0.430561 0.740329 2.438
-0.240599 0.367586 1.88672
1.12505 -0.300267 -0.326149
-0.515979 0.651854 2.20112
0.982119 -0.290432 -0.448596
1.75485 -0.252127 -2.01762
0.367675 0.105479 0.330501
1.92504 -0.355503 -2.40216
1.53977 -0.211316 -1.88763
-0.106431 0.0648542 0.788532
0.219466 0.0632044 -0.0349317
-0.410093 0.0141493 1.06162
-1.00069 0.268423 1.41711
-1.3382 0.229808 1.95186
-0.316812 0.117638 -1.00853
-0.312193 -0.0885675 -1.61058
-1.37557 -0.146145 -1.86689
-2.03062 0.0473608 -1.28421
2.06923 -1.9085 1.34462
1.78016 -1.77648 1.78942
0.315118 0.452955 2.1182
-0.0953344 0.439517 2.05822
2.13035 -0.248855 -1.96586
0.389933 0.0982452 0.845282
-0.70458 0.648546 2.59164
-0.0165732 0.113849 0.931728
0.0112374 0.09863 0.8644
-1.45474 0.219608 2.03659
-0.0351099 -0.163278 -1.92512
-1.19211 -0.0251338 -1.46416
-1.71606 -0.0106619 -1.46143
0.705457 0.13323 1.55724
0.0453931 0.226278 1.25723
-0.662575 0.688885 2.22783
-0.0692729 0.106489 0.890983
0.0292511 -0.222445 -0.35333
-0.52316 0.114665 -0.892524
-1.19495 -0.159302 0.0787848
1.32498 -0.361388 0.350542
1.2501 -0.399326 0.150091
1.30281 -0.463783 -0.00351196
0.0443366 0.213047 1.53764
0.800187 -0.263066 -0.574321
1.48288 -0.16035 1.12173
0.232098 0.701195 2.5054
0.0444802 0.098328 0.225579
-1.0971 0.200816 1.24204
-1.39991 0.433553 2.12883
-1.30276 0.143616 2.01862
-1.40323 -0.0511638 0.813865
0.487101 0.293864 1.47156
0.772718 0.260137 1.62532
2.94156 -0.66219 -3.22178
1.95286 -1.8977 1.37481
1.38238 -0.0753961 1.35865
1.20167 0.162778 2.20779
1.24106 -0.015191 1.58489
1.16579 -0.0303939 1.56394
1.17878 -0.214492 -1.87548
0.695122 0.74201 2.40694
0.859237 0.0207329 -0.0995853
0.649708 0.449753 2.06131
0.661889 0.10674 1.51981
0.629035 0.300586 1.73645
0.585988 0.423365 2.01897
0.866368 -0.0700484 -1.51864
0.893403 -0.251883 -1.99303
0.425372 0.162976 1.57066
0.414771 0.0287411 1.52157
0.418986 0.0327509 -0.135005
0.189376 0.693608 2.20924
0.322281 -0.043098 -0.212353
-0.0858422 0.0535555 0.704154
-0.425567 0.294287 1.49143
-0.8257 1.1786 2.87313
-0.853207 1.16604 2.82862
-0.868347 1.16808 2.81771
-1.12613 1.23445 3.01407
-0.843072 0.0317638 -1.22954
-0.939141 0.208313 -0.616348
-1.36712 0.246403 2.01261
-1.44452 0.263541 2.09659
-1.44715 0.243075 2.07815
-1.33976 -0.102718 0.831742
-1.75479 1.2081 2.94527
-1.35103 -0.127449 0.71524
-1.77329 1.2089 2.88546
-1.5711 0.25679 -0.532554
-2.06502 1.06892 2.39861
-1.68745 -0.173026 -2.03883
-2.09964 1.11782 2.52648
-2.08439 1.06708 2.38889
-1.94092 0.26615 -0.495447
-1.98563 0.186059 -0.748546
-2.14786 -0.181734 -2.09079
-2.44423 -0.0720195 -1.67794
2.35038 -0.399854 -2.47274
1.63242 -2.00228 1.11577
1.35493 -0.118443 1.23276
1.21763 0.157669 2.19643
1.17417 0.174962 2.24241
1.10804 0.227122 2.01286
1.27212 -0.48792 -0.0599606
1.28011 -0.319544 -2.28744
0.62916 0.417626 1.99738
0.658057 0.223153 1.69534
0.63624 0.313786 1.75191
0.852689 -0.273478 -0.582988
0.620874 0.365635 1.79151
0.624606 -0.0053994 1.55982
0.682328 0.0558326 0.745751
0.583942 0.114211 0.895739
0.345928 0.673274 2.57874
0.663594 -0.0214376 -1.31396
0.70829 -0.193821 -1.9527
0.421043 0.0688463 1.55311
0.757309 -0.372434 -2.50338
0.296571 0.284881 1.41185
0.153539 0.748128 2.50247
0.0957384 0.464033 2.12624
0.0967111 0.45021 2.09437
0.0892964 0.43633 2.05016
0.260888 -0.0267118 -0.17613
0.17726 0.0918971 0.840257
-0.166203 0.748277 2.40269
-0.0799684 0.0817593 0.783447
-0.267626 0.0579156 0.917701
-0.303141 -0.0535679 -1.55715
-0.816535 1.19065 2.87667
-0.54634 0.0911816 0.209426
-0.76531 0.650836 2.21158
-0.564334 0.156424 -0.810189
-0.799268 0.696909 2.19456
-0.614278 0.171978 -0.724672
-0.754591 0.323115 1.58372
-0.703998 0.0874635 0.203872
-1.07741 1.20203 2.89234
-0.833034 0.280346 1.43709
-1.1526 1.22426 2.98665
-0.937088 0.0987362 -0.983777
-1.15935 0.594731 2.53797
-1.13805 0.290078 1.51232
-1.61708 1.27005 3.09788
-1.32664 0.26193 1.36156
-1.43154 0.198566 1.86011
-1.38667 -0.180951 0.576067
-1.90684 1.13759 2.66484
-1.92954 1.07271 2.36221
-1.71167 0.0916955 -1.04193
-1.72276 -0.0408865 -1.60499
-1.83897 0.0628054 -1.18701
-1.78086 -0.402251 -2.7321
-2.16373 0.00836831 -1.37594
-2.19716 0.0578244 -1.24874
-2.17032 -0.0366993 -1.59498
-2.44195 -0.0575969 -1.63561
-2.40416 -0.23522 -2.23873
2.14564 -1.77526 1.81375
1.779 -1.7785 1.78828
2.29783 -0.221033 -1.82846
1.94459 -0.213176 -1.91067
1.34511 0.0849836 1.95826
1.1727 0.13801 2.12011
1.23132 -0.393214 -0.273271
1.08137 -0.385246 -0.668112
1.07907 -0.1242 -1.60106
0.726234 0.0925131 0.804917
0.687406 0.0385058 1.28397
0.646422 0.139199 1.63747
0.555939 0.049413 1.61
0.425535 0.06986 0.767956
0.337228 0.122245 1.41139
0.167518 0.733215 2.45746
-0.18158 0.802012 2.57312
0.101926 -0.458895 -0.561475
0.0480141 -0.41191 -0.545655
-0.254658 0.0974449 0.200858
-0.403774 0.368893 1.57095
-0.579001 0.721928 2.48983
-0.409486 0.0220679 1.06403
-0.23437 -0.303605 -2.32976
-1.11716 1.24979 3.04542
-1.06089 0.687803 2.40384
-0.900462 0.00798962 -1.25153
-0.847676 -0.384186 -2.65258
-1.10236 0.27572 1.46837
-1.44693 1.27859 3.21141
-1.09345 -0.0333423 0.916341
-1.20163 0.156155 1.33607
-1.34154 0.195676 1.83212
-1.30489 0.142451 -0.859736
-1.6953 1.17003 2.79351
-1.39041 0.162774 -0.816098
-1.42719 0.0273273 -1.24852
-1.47335 0.0914479 -1.02201
-1.50589 -0.177582 -1.90768
-1.70532 0.142021 1.50804
-1.65959 -0.190546 -2.08023
-1.90143 -0.0625714 -1.55405
-1.87787 -0.199185 -2.0764
-2.19399 -0.0462683 -1.61735
-2.29351 0.242485 -0.536164
-2.34075 -0.0665399 -1.62061
-2.42987 -0.197268 -2.15216
1.2271 -0.248198 0.719134
0.884198 0.340044 1.84591
1.08756 -0.351261 -0.3865
0.719379 0.09576 0.867307
-0.12228 0.0903493 0.879424
-0.147421 0.0916221 0.916276
-0.0311336 -0.184 -1.89559
-0.422031 0.776992 2.50239
-0.294752 0.123523 0.19015
-0.412693 0.143181 1.11375
-1.06084 1.17731 2.79987
-0.826776 0.113025 -0.825839
-0.848428 0.0534102 -1.16731
-1.04216 0.162257 1.01666
-0.93551 -0.249157 -2.22596
-1.09746 -0.32503 -2.51452
-1.14085 -0.35459 -2.51344
-1.76583 0.20919 -0.729038
2.16144 -0.273867 -2.02952
1.473 -0.152328 1.13373
1.26291 -0.386741 -2.48634
0.970379 -0.241674 -0.426018
0.653484 0.417906 1.9919
0.677786 0.266554 1.71226
0.726926 -0.252233 -2.08051
0.17658 0.777748 2.57593
-0.437767 -0.0259188 1.01387
-0.954788 -0.0180837 0.944112
-1.14635 -0.185769 0.0418062
-1.11957 -0.31486 -2.26641
-1.31248 -0.103738 0.828091
-1.62229 0.493609 2.27736
1.71873 -0.243147 -2.03054
1.04873 0.313957 2.34103
1.07385 0.16325 1.94428
0.721377 0.0762283 1.22461
0.923957 -0.0355195 -1.36379
0.578548 0.276592 1.68834
0.756452 -0.211521 -1.88821
0.359876 0.4424 2.03739
0.655754 -0.164767 -1.91368
0.228638 -0.369259 -0.497125
0.000961457 -0.241353 -0.62928
0.0236611 -0.172635 -1.88195
-0.574752 0.459655 1.40356
-0.478355 0.0340021 0.120554
-0.585935 0.38331 1.31491
-0.820256 0.194953 1.10545
-0.982085 0.312401 1.51079
-1.12352 0.608205 2.57775
-0.933045 -0.206514 -2.11806
-1.33174 0.557562 2.57141
-1.37596 -0.142112 0.914575
-1.51974 -0.0181087 0.295582
-1.53517 -0.014481 -1.48235
-1.89732 0.119022 -1.03239
1.78738 -0.2104 -1.86174
1.17204 0.0729393 1.84814
1.24193 -0.487286 -0.622516
0.749183 -0.382679 -2.80567
0.256579 0.452663 2.08486
0.127042 0.166058 1.23662
-0.835351 1.20769 2.95891
-1.28281 0.588492 2.69702
-1.45235 0.456484 2.15465
-1.69217 -0.182343 -2.02544
-1.9368 -0.272145 0.623228
2.3254 -1.99932 1.10779
1.09611 0.287497 2.27636
0.422248 0.701585 2.38844
0.420108 -0.260113 -2.2479
-0.593983 0.683975 2.31928
-1.48502 0.346308 2.13809
-1.96508 -0.381899 0.384811
1.2569 -0.387183 -0.145277
0.572522 0.431217 2.03834
0.189152 0.49411 1.88027
-0.440106 0.514228 2.12631
0.801222 0.439122 2.04435
2.14356 -1.9406 1.3215
-0.121723 0.331254 1.42301
-1.34205 0.222361 1.89779
-1.03584 -0.199035 -1.81388
0.741984 0.207788 1.45007
-2.13437 -0.279843 -2.42532
-2.15212 -0.189146 -2.13804
-1.68801 0.0941479 1.33412
-1.78537 1.18412 2.80997
-1.38825 0.202958 1.90318
-1.29002 -0.122849 -1.84319
-0.867835 0.089742 -1.06002
-1.09537 1.20643 2.88557
-0.822216 0.216031 1.23453
-0.807494 0.190675 1.15046
-0.820808 0.264899 1.38686
-0.831005 1.19853 2.96044
-0.408779 0.0569764 1.10326
-0.228517 -0.310645 -2.32217
0.100699 0.382621 1.88054
0.375742 0.390967 1.89105
0.336066 0.666682 2.55076
0.403627 0.689192 2.25498
0.935692 -0.40177 -2.58877
0.966414 -0.414938 -2.60849
0.764667 0.416855 2.00205
1.17747 -0.296364 -2.18684
1.53848 -0.349656 -2.33359
1.37207 -0.15596 1.07898
1.45896 -0.463336 0.0166563
1.34502 0.0837449 1.9547
1.71283 -0.307593 -2.17351
1.45866 -0.146816 1.12356
1.81621 -1.86437 1.47932
1.9617 -1.69658 2.07863
2.107 -1.83502 1.60859
-1.51598 0.0293591 -1.22234
-1.48439 -0.0474696 -1.59472
-1.27882 0.223546 1.86679
-0.851395 -0.286426 -2.33615
-0.839663 0.335069 1.68095
-0.73182 0.320672 1.59378
-0.699556 0.186249 1.08731
-0.707424 0.337668 1.6026
-0.554201 0.114196 -0.852201
-0.406729 0.0210869 1.06221
0.0791308 0.113865 0.218344
0.143635 0.779531 2.51054
0.232161 0.291944 1.36912
0.649251 -0.0368068 -1.3369
0.706683 -0.266391 -2.02656
0.67298 0.347329 1.77257
0.833687 -0.25853 -0.46821
0.669111 0.70654 2.28156
0.943386 -0.176826 -1.82877
0.785235 0.282086 1.73583
1.28035 -0.202408 0.912686
1.38496 -0.0913747 1.32493
1.47111 -0.152023 1.12853
1.97112 -1.72232 2.01189
2.82711 -0.597589 -2.51306
-2.19466 -0.0443556 -1.62217
-1.89678 -0.300092 0.654536
-1.85157 0.0485564 -1.17263
-1.72288 0.262515 1.9851
-1.81708 1.33264 3.32982
-1.78771 1.31681 3.22881
-1.37269 0.223992 1.97736
-1.62621 1.22506 3.03459
-1.12496 0.285206 1.47032
-1.10513 0.28944 1.45735
-1.03673 0.233756 1.32691
-0.849015 -0.135324 -1.78296
-0.261961 0.719972 2.44677
-0.0678307 0.0596897 0.751467
0.691051 0.0361509 1.17071
0.693447 0.251097 1.82523
0.892539 -0.291003 -0.477426
0.935899 -0.285266 -0.503328
1.16952 0.0157465 1.71238
1.22405 -0.0947969 1.26964
1.50815 -0.19378 -1.90508
1.4811 -0.344138 0.46187
2.01521 -1.88782 1.39582
-1.53537 0.503292 2.23149
0.114719 0.0704175 0.0977746
-0.0202293 0.77773 2.55499
0.19769 0.727631 2.51556
1.24528 -0.0971195 1.32549
2.40926 -0.307199 -2.15597
-1.8814 0.041027 -1.28435
-1.66001 -0.157004 -1.97178
-1.12563 0.602966 2.57674
-0.614914 0.682516 2.53881
-1.7281 -0.165679 -1.88947
-1.14101 -0.0630203 0.77989
0.667584 -0.221612 -1.99321
1.17105 0.060689 1.8447
2.25502 -1.99135 1.24585
-1.19792 0.0366984 -1.13191
0.372959 -0.272459 -2.2371
0.434475 0.764812 2.54159
1.15762 -0.16022 0.506805
0.615476 0.0220682 -0.135005
1.19733 -0.211215 0.879997
-2.01696 1.1223 2.61248
-1.72449 -0.0169072 -1.43898
-0.565463 0.722853 2.42261
-0.837244 0.323252 1.34697
-0.848935 0.23615 1.29283
-0.69745 0.181786 1.09499
-0.412972 0.0630599 1.10344
0.00235635 0.830038 2.68165
0.279561 0.66134 2.54609
0.276218 0.269428 1.39058
0.476349 0.408499 1.92523
0.694495 0.747802 2.40563
0.583302 0.0898579 1.65797
0.550892 -0.0272277 1.46401
0.638413 -0.000225892 -0.108879
1.99923 -1.74776 1.92979
-1.40793 1.22312 3.03048
-1.34385 0.19828 1.8351
-1.93812 0.281332 -0.442996
-1.24802 0.240612 1.33992
-0.930396 0.70883 2.22477
-1.03594 0.138661 1.04181
-0.87457 0.257003 1.3885
-2.06525 -0.436005 -2.98132
-0.134949 0.38304 1.85767
-0.237754 0.0862348 0.223953
-0.238551 0.02351 -1.2326
0.691617 0.165457 1.61572
0.933188 0.452554 2.27637
1.49632 0.00241709 2.09874
1.25142 -0.221802 0.849757
1.2996 -0.194721 0.951466
1.13476 -0.341573 -0.313467
1.31311 -0.653116 -0.66283
1.76453 -1.77135 1.79781
2.01371 -1.89806 1.39137
2.34321 -0.37957 -2.43453
2.43147 -0.363427 -2.27116
-1.52594 0.297724 1.99084
-1.39579 1.20948 2.95315
-2.28293 -0.192701 -2.07042
-1.21989 0.245625 1.37946
-1.35074 -0.144616 0.63074
-0.487015 0.0898469 1.04761
0.687918 0.159417 1.54359
0.931241 0.38006 2.22817
0.754143 -0.203407 -1.93924
-1.83078 1.2569 3.06783
-1.80776 1.26215 3.05708
-1.65199 1.26926 3.12321
-1.17486 -0.0723636 0.795851
-1.13873 -0.0555613 0.864972
-0.85738 0.249647 1.29027
0.00725634 0.767442 2.47673
0.151378 0.77404 2.54452
0.859441 0.446582 2.16089
0.932138 0.423151 2.21768
1.25563 -0.145029 1.12152
1.10069 -0.272896 -0.360505
0.737529 -0.312179 -2.25631
1.21271 -0.397636 -0.280129
2.81579 -0.572889 -2.35704
-0.888335 0.0810095 -1.09473
0.621578 0.101861 1.59321
0.313925 0.128642 0.248574
1.16014 -0.439672 -0.304128
-0.550638 0.74771 2.46376
-0.166411 0.413388 1.94473
0.988113 0.478797 2.34924
0.424177 -0.276404 -2.24628
1.15114 -0.279667 -0.291541
-0.228145 0.396129 1.78478
-1.19424 -0.137291 -0.00074797
0.79794 0.443859 2.02698
-0.582485 0.69219 2.67758
0.309623 0.179158 1.03378
0.680783 0.163932 0.851197
2.43304 -1.95459 1.76571
-0.800253 0.307739 1.55945
-0.850703 0.272885 1.40741
-2.0416 0.262268 -0.496401
-0.202079 0.360242 1.90059
-0.112885 0.0600867 0.804941
-0.131604 0.0434202 0.77726
0.120843 -0.453575 -0.558419
-1.27018 0.219714 1.83735
-0.818834 0.291657 1.49491
-0.741724 0.335295 1.59206
-1.03512 0.14368 1.04829
0.00215142 0.754288 2.43562
-1.86778 0.284651 -0.419094
-0.127027 0.388019 1.8543
0.11072 0.460875 2.12593
-0.206394 0.311423 1.57086
-0.407164 0.00725857 1.08043
0.777838 0.443991 2.08715
0.652739 0.172548 1.64226
0.330354 0.119991 0.93496
-0.596297 0.170919 -0.729053
0.618963 0.0727363 1.06168
0.681092 0.063766 0.776676
0.64598 0.0058665 -0.0970103
1.3086 -0.398028 0.228383
-1.41572 0.149932 1.7751
-0.409075 0.760481 2.55336
-0.859406 0.299273 1.50524
-0.424625 0.35302 1.51997
-2.15678 0.00809491 -1.41493
0.122105 0.414729 1.95728
0.586535 0.445254 2.07344
0.77864 0.297128 1.79261
0.142331 0.0645893 0.752083
0.384687 -0.298083 -2.33181
0.374207 -0.340154 -2.38593
-1.65134 1.31119 3.27301
0.663392 0.335306 1.78807
0.0109129 0.0811774 0.78694
0.14049 0.129713 0.974191
0.120517 0.138019 0.202183
-1.25447 0.56361 2.30345
-0.407906 0.562582 2.11504
-0.874306 0.283888 1.42448
-0.843166 0.296947 1.4968
-0.607222 0.16588 1.04826
0.079921 0.190306 1.25349
0.305027 0.103423 0.218357
-0.828974 0.138967 -0.814752
-2.41739 -0.205006 -2.14533
0.00424328 0.753334 2.44301
-1.35099 -0.126047 0.758666
-0.223782 0.306906 1.5513
0.604259 0.408306 1.94148
0.63149 0.401321 1.95134
0.533032 0.0539469 1.62672
0.171498 0.102418 0.896933
0.563193 0.0830788 0.822219
0.446658 0.056494 0.725134
-0.61617 0.162486 -0.775666
1.44729 -0.471442 0.00248708
2.16727 -1.93084 1.26244
-0.464116 0.239153 1.37977
-0.150719 0.303695 1.60843
0.605452 0.441098 2.06602
1.22336 -0.143072 1.143
-0.197363 0.308269 1.58424
0.0705166 -0.455252 -0.526462
-0.303653 -0.0763911 -1.60275
0.710586 0.0846672 0.927059
2.77977 -0.572801 -2.50034
-0.78393 0.609674 2.62557
0.537301 0.411055 1.71204
0.324622 0.409182 1.57626
-1.78751 1.24085 2.97713
0.00440072 0.430447 1.98488
-1.04328 0.315146 1.57229
-0.768206 0.32076 1.60457
0.14005 0.0783281 0.785598
2.13104 -1.80926 1.71172
-0.899225 0.228816 -0.58733
-2.10119 -0.19894 -2.10524
0.640842 0.00365975 -1.25642
0.718031 -0.0814556 -1.52722
-1.98074 1.07186 2.4009
0.0526798 0.429946 2.00303
0.649302 0.448277 2.07283
0.522089 0.4322 2.01484
0.588526 0.405583 1.93618
-0.435086 0.226526 1.28906
0.868384 0.123054 1.12976
0.715623 0.115937 0.949996
0.655964 0.0841935 0.814415
-0.266768 0.0339624 -1.23656
0.0735021 -0.0550864 -1.46652
-1.62212 1.3008 3.24029
0.124353 0.434275 1.99246
0.108152 0.395565 1.9214
0.601774 0.440363 2.06388
0.332578 0.378471 1.84214
0.588557 0.383428 1.86489
1.15254 -0.012904 1.60698
-0.0038365 0.0765474 0.78057
-0.616036 0.158104 -0.777572
-1.7386 -0.221671 -2.11923
0.793605 -0.0626108 -1.49489
1.5669 -0.195951 -1.86808
1.56414 -0.237627 -1.9145
0.767176 -0.323228 -2.37502
0.765135 -0.335352 -2.395
0.744851 -0.356838 -2.42251
-0.67247 0.349428 1.68835
0.686215 0.416911 2.00976
0.74196 0.412785 1.98032
-0.0824265 0.0753481 0.818276
0.752094 0.0935315 0.886048
0.807629 0.0905696 0.857735
0.852935 0.139144 0.286405
-2.0856 -0.135239 -1.84239
0.817288 -0.358571 -2.41907
0.753074 -0.0335962 -0.131032
0.677892 -0.217348 -1.97146
-1.47813 0.150562 1.70406
-0.283893 0.135599 0.282102
0.581812 -0.19959 -1.9425
-1.05869 0.624121 2.58167
1.2972 -0.444722 -0.216119
-0.920796 -0.20625 -0.179235
0.519943 -0.234593 -0.538273
-1.52216 1.30213 3.24232
0.664156 0.120957 1.56969
1.88649 -1.69557 2.10086
-0.0807776 0.12858 0.964473
0.174336 0.0969682 0.860586
0.695671 0.103558 0.886821
1.15183 -0.142314 0.62026
-1.30741 -0.0295718 0.35156
0.693478 0.132027 0.283818
1.99123 -1.94642 1.21107
-0.947211 0.222292 -0.58548
-2.24658 0.217278 -0.697954
-0.602429 0.174801 -0.767462
-1.8508 -0.113069 -1.79291
1.13244 -0.163613 -1.69567
-1.74538 -0.219088 -2.11696
1.67781 -0.214143 -1.89078
-1.5464 1.32484 3.27138
-0.0980794 0.782903 2.53262
0.634409 0.385701 1.87917
0.328957 0.378706 1.83821
0.842358 0.134268 0.277033
0.755417 0.132713 0.274448
1.94452 -1.94675 1.20937
1.38752 -0.421402 0.117143
-1.00136 0.214226 -0.585783
-1.85199 0.193604 -0.7076
-0.467068 0.083982 -0.979898
-1.89905 0.0181744 -1.3587
-0.656387 -0.00513929 -1.34639
0.0751093 -0.0495709 -1.46528
0.841939 -0.0812681 -1.50594
-1.50739 -0.34379 -2.54337
-1.85007 1.06392 2.39268
0.113938 0.425079 2.01102
0.576161 0.433441 2.03271
-1.42284 0.195416 1.90365
-0.590553 0.394996 1.90217
-1.02575 -0.121843 0.894811
0.574013 0.109959 0.901546
0.190502 0.107124 0.882514
-0.513529 0.0169038 0.747612
0.4209 0.0566416 0.316565
-1.24597 -0.242599 0.0552994
-1.41831 0.170955 -0.805943
-0.683345 0.156664 -0.784115
-1.64862 0.154669 -0.887418
0.124737 -0.452117 -0.554805
-1.94695 0.0222312 -1.34739
-0.608075 0.00583472 -1.32144
-1.49867 -0.0730068 -1.60815
0.856139 -0.0696661 -1.48976
-1.75247 -0.0862562 -1.71563
-0.531075 -0.0849723 -1.64942
-0.53625 -0.165286 -1.86129
0.419282 -0.188126 -1.94208
-1.35644 0.219547 1.96743
-1.37711 0.195086 1.8397
-0.839558 0.342529 1.69725
-0.533793 0.0570496 0.891581
0.269084 0.08046 0.793111
-0.557497 -0.139264 -1.80684
-1.19813 -0.150519 -1.89414
-1.31016 -0.176003 -1.90777
-1.02168 -0.339187 -2.5162
-0.716484 0.353669 1.67755
-0.737821 0.33907 1.64792
1.12747 -0.0572107 -1.42262
-0.88684 -0.24824 -2.23681
-1.38415 0.15864 1.71799
0.789796 0.0626692 0.73868
0.580935 -0.195203 -1.95157
1.74483 -0.216155 -1.94775
1.90656 -0.219763 -1.92137
0.000712863 0.131305 0.996363
-0.385594 0.579514 2.14233
-0.43571 0.380519 1.73965
0.208594 0.113792 1.2516
0.213191 0.397949 1.64978
0.192779 0.219325 1.17743
0.244305 -0.211387 -0.289531
0.32113 0.672174 2.57373
-1.77463 1.23213 2.95788
-1.93853 1.24912 2.98616
-1.9992 1.23966 2.95984
1.95214 -1.69778 2.09317
0.669749 0.126656 1.587
2.13165 -1.80791 1.7091
1.79783 -1.78972 1.76243
0.439292 0.0329866 1.53667
1.82412 -1.81865 1.6557
-0.41989 0.245282 1.376
0.136524 0.125178 0.953477
-1.71728 -0.0156146 0.946685
0.33251 0.108101 0.288237
0.443831 -0.00419211 0.271369
-0.480129 0.0889065 0.214432
-1.35819 -0.0206469 0.353824
-0.47326 0.0889015 -0.991953
-2.24369 0.214122 -0.697026
-1.57743 0.138285 -0.916452
0.848993 -0.102239 -1.51778
0.96454 -0.121321 -1.67188
0.741312 -0.182951 -1.8613
0.0585072 -0.165528 -1.83005
0.0153899 -0.158582 -1.82814
-0.793364 -0.150705 -1.86568
1.07427 0.22047 2.01022
0.731658 0.429437 2.05212
0.56235 0.421211 2.01069
-0.146833 0.451322 2.07797
0.588628 0.366042 1.783
-1.34609 0.220934 1.88701
0.853652 0.124048 1.12918
0.178443 0.125929 0.950937
-0.169433 0.110271 0.951965
1.1516 -0.136287 0.613034
-0.507147 0.0571399 0.892585
-0.898931 0.223476 -0.586176
0.812883 -0.0821084 -1.51374
0.163605 -0.059045 -1.469
1.67139 -0.220767 -1.89494
0.0463708 -0.135867 -1.7986
0.43751 -0.199668 -1.95452
-0.816629 -0.340851 -2.5118
-2.13675 -0.349339 -2.66342
-2.24443 -0.351876 -2.66279
0.697736 0.420004 2.01057
0.256486 0.429666 2.00754
0.329091 0.10516 0.883812
0.185096 0.104978 0.88058
-1.00455 -0.0189558 0.946867
0.189735 0.0621425 -0.0150319
0.398551 0.0326715 -0.123529
0.844972 -0.265089 -0.477973
0.875107 -0.0568228 -1.40838
0.924842 -0.0928516 -1.5154
0.836214 -0.190956 -1.87313
2.34679 -0.358799 -2.33848
-0.632471 -0.157453 -1.84288
2.01137 -0.403789 -2.47212
-2.34577 -0.198248 -2.11895
0.78402 0.108238 0.952755
0.749126 0.0754109 0.782753
0.0113358 0.114648 0.911034
0.436629 0.0721199 0.775975
-0.0898874 0.137452 0.242627
-1.71698 0.147951 -0.904134
1.86193 -0.231862 -1.98125
0.635714 -0.144464 -1.69974
-2.2599 0.091373 -1.14959
-2.1827 0.000887255 -1.42817
-2.19876 -0.0476881 -1.6185
-1.18391 -0.158324 -1.89301
0.378522 -0.308634 -2.31765
-0.0178733 0.412918 1.96349
-1.04793 0.261487 1.40382
-0.0892338 0.154282 0.284486
0.780748 -0.285882 -0.616763
0.126741 -0.427761 -0.526871
1.69684 -0.189321 -1.87696
0.687542 -0.154248 -1.83359
0.70933 -0.204184 -1.96063
2.70738 -0.628959 -2.67999
-1.13347 -0.226559 -2.16674
0.582102 0.370869 1.81473
1.3174 -0.209212 0.911471
0.870919 -0.381333 -2.40677
-0.0766665 0.467442 2.10037
0.260238 -0.359822 -0.500888
-0.11536 0.106785 0.535383
0.0258629 -0.231536 -0.312263
-0.0202599 0.163955 0.379775
-1.17264 0.240625 1.99675
-1.01577 0.147221 1.37757
0.699423 0.0647116 0.0671671
-0.50039 0.306188 1.36708
0.286268 0.660399 2.53102
0.776108 0.388789 1.93839
0.631537 0.101383 1.55928
-1.68118 0.0936932 1.321
-1.72975 -0.00981067 0.948499
1.13756 -0.1681 -1.70149
0.776038 -0.189827 -1.88303
0.705259 0.738065 2.39719
0.173636 0.742326 2.44746
-0.0405022 0.775046 2.51576
0.580015 0.414022 1.9857
0.357156 0.45313 2.10862
-1.86292 1.33326 3.34234
0.883279 0.0653761 0.740298
1.43468 -0.333029 0.479498
0.460429 0.101649 0.919377
0.135846 0.116735 0.914589
0.181646 0.104077 0.881803
-1.08811 0.178629 1.11882
-1.33418 -0.135534 0.718375
0.772384 -0.0542232 -1.48767
0.963351 -0.137717 -1.67732
-0.895549 0.225214 -0.586766
1.96885 -0.382912 -2.4515
-0.265032 0.0400299 -1.22475
-1.67621 0.143559 -0.904802
-1.38519 0.0278596 -1.32456
-1.1149 -0.323196 -2.49634
-2.36324 -0.193976 -2.12212
1.84646 -1.80331 1.7259
1.91474 -1.81259 1.678
0.595075 0.396613 1.96217
0.256127 0.427583 2.0048
1.30383 -0.061558 1.40827
0.0953793 0.421242 1.99155
0.0970916 0.422325 1.93145
2.02064 -1.94169 1.22414
1.23635 -0.189851 0.97546
1.31152 -0.208735 0.915027
-0.112742 0.136413 0.983997
1.38367 -0.410828 0.158519
0.189222 0.05707 0.712984
0.562421 -0.00155184 -0.252163
1.95232 -0.234087 -1.97392
2.84312 -0.564434 -2.45751
1.17036 -0.137515 -1.66433
0.925901 -0.0979085 -1.54873
-0.597879 0.172017 -0.769311
-0.510876 0.0869447 -0.989516
-0.868469 0.166313 -0.79429
-0.561986 0.0980356 -0.987142
-1.82832 0.280468 -0.397795
0.480507 -0.204128 -1.93577
-1.92504 0.157848 -0.877441
-0.469609 -0.319629 -2.41172
-2.1882 -0.0503673 -1.61909
0.725312 0.439315 2.06231
0.319397 0.385007 1.88632
0.542834 -0.0571292 1.48449
0.640524 0.00972278 1.3294
1.28276 -0.188572 0.952845
0.126827 0.134107 0.993253
0.603306 0.144778 0.397793
1.29666 -0.509171 -0.274736
-1.64024 0.0876953 1.29472
1.95283 -1.8256 1.64352
0.824712 0.355116 1.90863
0.0370012 0.422486 1.96594
1.43503 -0.266173 0.699256
1.4406 -0.303243 0.629133
1.37341 -0.298805 0.593889
-1.36089 0.226537 1.92128
0.785164 0.116636 0.248942
-1.1944 -0.203345 0.0576302
-0.210915 0.80982 2.58823
-1.5072 0.525597 2.25591
0.626817 0.101091 0.868137
-0.0808573 0.130648 0.976578
-1.14701 0.282858 1.60728
-0.936754 0.262707 1.39838
1.72007 -0.226169 -1.92091
-0.790926 0.661899 2.5553
0.503871 0.197949 1.60174
0.211196 0.243863 1.52936
-1.47172 -0.000389916 1.02067
-0.361003 -0.156331 -0.15797
0.413213 0.104784 0.940299
-0.459308 0.108921 0.890605
0.219768 0.107644 0.215029
1.90806 -1.72345 1.99536
0.655294 0.116244 1.55762
0.0770569 0.390835 1.86834
-0.170191 0.383048 1.83348
-1.80926 1.35968 3.34038
-1.73946 0.275211 1.96178
-0.496329 0.0880635 0.220341
-1.38528 -0.200737 0.611515
-1.73715 -0.0107191 0.956753
0.0548973 -0.15176 -1.82652
-0.945314 0.141539 -0.842301
-0.524289 -0.0573662 -1.62269
-0.622272 -0.11377 -1.68579
2.12786 -1.93627 1.27219
2.09556 -1.92598 1.30833
0.671146 0.355998 1.85917
0.635916 0.122704 1.62222
-0.227056 0.436878 2.06473
0.459615 0.070541 0.775154
0.137099 0.114495 0.918537
0.165369 0.102805 0.866301
-0.129345 0.0666603 0.851293
-0.0985592 0.0563029 0.714959
0.89878 -0.288564 -0.443709
-0.406863 0.004018 1.06368
0.779183 -0.175045 -0.566365
1.70243 -0.21177 -1.84512
1.54004 -0.206984 -1.89578
1.47482 -0.308388 -2.26292
0.718872 -0.0849218 -1.50963
0.774662 -0.190916 -1.88178
0.40717 -0.165068 -1.89676
-0.242152 0.0324769 -1.2243
0.242098 -0.323497 -2.39844
-0.512263 -0.0783801 -1.65059
-0.450553 -0.247344 -2.25094
-1.72645 0.126222 -0.917817
1.38689 -0.0877389 1.33431
0.797286 0.382621 1.91827
0.682813 0.363753 1.81081
0.101268 0.705902 2.29332
0.686931 0.223451 1.67487
0.271099 0.385647 1.88481
1.43118 -0.584047 -0.469193
2.36011 -0.364992 -2.38057
0.223292 0.0636966 -0.0380786
1.50426 -0.190241 -1.88317
1.97325 -0.379711 -2.45741
-1.2705 -0.0936621 0.853572
0.00650641 -0.167303 -1.94368
1.89031 -1.71895 2.0098
1.78448 -1.77694 1.77888
1.38452 -0.0919642 1.33028
1.22031 -0.0885816 1.36973
0.473635 0.448086 2.04454
0.315916 0.450621 2.11951
0.100818 0.693253 2.29274
0.315654 0.424168 1.96741
0.116136 0.406797 1.86303
0.540626 0.123959 0.924158
-1.65298 1.33481 3.2782
0.754168 0.145241 0.304338
0.185197 0.118613 0.907865
-0.0216326 0.120614 0.930383
0.0141232 0.0838364 0.880628
0.737729 0.00982796 -0.104519
-1.72956 0.511791 2.24562
-0.0644152 0.127931 0.156155
-1.27056 0.00798175 -1.34129
1.83815 -1.79138 1.74478
1.36784 0.0454498 1.80874
1.24163 -0.00977456 1.58689
1.27012 -0.161191 1.01245
1.42781 -0.271973 0.690078
0.0947596 0.103797 0.872131
-0.117537 0.119899 0.966136
0.94808 -0.312307 -0.578353
1.44643 -0.0105293 1.73529
1.52962 -0.349742 0.487535
1.3001 -0.492094 -0.313882
-0.166487 0.0771866 0.85993
0.0383952 0.108955 0.194697
0.797712 -0.289154 -2.31127
-1.83636 0.249228 -0.481864
0.547632 0.108802 0.281348
-0.425155 0.276619 1.34182
0.717475 0.0822713 1.34981
0.487154 -0.185604 -0.374391
0.237868 0.0894505 0.251166
1.99792 -1.71797 2.04096
2.05796 -1.9384 1.25384
1.82981 -1.81514 1.65543
1.78891 -1.8086 1.68401
0.695652 0.744186 2.40158
2.58972 -0.598969 -2.70804
0.334904 0.665199 2.55603
1.30254 -0.399283 0.214672
0.645432 0.29273 1.72648
0.279602 0.663165 2.54009
0.33375 0.466731 2.14273
1.7603 -0.244287 -1.9805
0.0865526 0.420437 1.99371
0.787078 -0.186179 -0.568845
0.416813 0.031255 -0.133757
0.697751 -0.0826975 -1.55886
-0.797711 0.696551 2.17933
0.943668 -0.333912 -2.39726
-1.39783 1.27058 3.14591
-0.728671 0.322637 1.58638
-0.299227 0.0960783 -1.00975
-1.43515 0.235986 1.98931
-1.43666 0.190101 1.89943
-2.08636 1.06587 2.40027
-1.27551 -0.078995 0.929454
-1.26733 -0.125591 0.791896
-1.70343 0.155537 1.54561
-0.82872 -0.0872681 -1.64143
-1.34004 0.177098 -0.805575
-1.86008 0.0699926 -1.17976
-2.38154 -0.337141 -2.61204
2.14073 -1.84142 1.59224
1.90518 -1.72319 2.00031
2.04028 -1.9273 1.26329
1.76376 -1.77898 1.80211
1.0891 0.227842 2.02018
0.62746 0.395365 1.91297
1.96825 -0.350351 -2.39564
0.7219 0.0898896 0.802794
1.7881 -0.305377 -2.17924
-0.18605 0.802655 2.57118
0.100917 0.392533 1.88423
-0.198693 0.382456 1.96527
1.12163 -0.150081 -1.6753
1.33707 -0.346992 -2.34319
0.155164 0.0592604 0.746759
-1.10873 1.23341 3.01616
-0.139487 0.0511394 0.716635
0.167092 -0.472474 -0.569677
0.429173 -0.149955 -1.84963
0.0561079 -0.116337 -1.80431
-1.27519 0.28124 2.02469
-0.28959 0.0615435 -1.09989
0.0621648 -0.230183 -2.09647
0.0681511 -0.249224 -2.14661
-1.04108 0.160573 0.999375
-1.20073 -0.0488241 0.88293
-0.888511 0.210157 -0.634625
-0.168407 -0.377059 -2.56666
-1.69439 0.0669442 1.23389
-1.11948 -0.211774 -2.09645
-1.93677 0.279228 -0.404532
-1.52596 -0.021541 -1.40683
-1.88787 0.19827 -0.733779
-1.54072 -0.061717 -1.60399
-2.12777 0.168093 -0.807528
-2.24296 0.202462 -0.773347
-2.18526 0.0214337 -1.38131
1.17856 0.171247 2.24344
1.47494 -0.155013 1.11578
0.79119 0.421242 1.9809
1.3261 -0.270005 0.639566
0.68771 0.33352 1.81504
0.618266 0.377684 1.84548
1.31642 -0.428959 0.137275
0.668751 0.128014 1.60316
0.16107 0.748165 2.52088
1.35449 -0.604846 -0.49342
0.264371 0.419671 1.95553
0.503569 0.129449 0.947687
-0.136765 0.386395 1.87107
-0.217369 0.424705 2.0347
1.32562 -0.235726 -2.04842
1.03416 -0.112723 -1.60395
0.82246 -0.0528426 -1.41362
0.0810335 0.123135 0.257485
0.199495 0.0371721 -0.0655671
-1.05877 1.16941 2.80791
-1.13252 1.19164 2.88555
-1.38058 1.23136 3.01708
-0.408623 0.0115287 1.06471
0.796516 -0.330154 -2.37478
-1.77208 1.28186 3.15675
0.362035 -0.330477 -2.40285
-0.218069 -0.307114 -2.38929
-0.451923 -0.29491 -2.37064
-1.64438 0.0215574 1.03324
-1.90626 0.229389 -0.66765
-2.00987 0.200924 -0.720482
0.419319 0.721293 2.46404
0.691323 0.193576 1.64583
0.700089 0.139522 1.54752
1.31274 -0.511701 -0.148656
-0.187729 0.450444 2.07613
0.702203 -0.172056 -1.89138
0.0610868 -0.277484 -0.415595
-1.65428 1.3226 3.27841
0.4032 -0.154359 -1.85587
-1.65735 0.0932885 1.29695
1.42035 -0.276726 0.671966
0.621113 0.126016 1.58626
0.204125 0.729328 2.4862
1.33382 -0.636843 -0.607293
-0.0740605 0.106786 0.889656
-1.24384 -0.102648 0.746563
-1.96872 0.094113 1.94378
-1.21627 0.0931893 -0.989741
-2.35855 -0.339578 -2.52988
1.00409 -0.333959 -0.651039
-2.24289 0.0893177 -1.21665
1.38748 -0.427278 0.125564
-0.556693 0.535367 2.18944
-0.993372 0.170123 1.07662
0.107422 -0.315039 -2.34795
-1.81449 -0.00701452 -1.35677
1.44692 -0.0179003 1.71494
0.208714 0.416354 1.88662
-0.611942 0.693663 2.31715
0.0895546 0.102981 0.00827415
0.298923 -0.281929 -0.550291
-1.06089 0.173211 1.17869
2.39628 -2.02396 1.34756
-2.13752 0.00427987 -1.36863
-1.91978 0.18545 -0.843215
-1.49829 -0.0434614 -1.52226
-0.135533 0.0507021 0.747714
0.0512664 -0.177593 -1.87018
0.200633 0.769364 2.61412
0.461501 0.00369141 1.49379
1.02781 -0.06706 -1.40453
1.178 -0.230713 -1.91225
1.29867 -0.268494 0.675649
1.27363 -0.0919373 1.29094
1.31356 -0.269191 0.664533
1.32831 0.0550195 1.86423
1.54878 -0.507983 -0.129855
2.38828 -0.378562 -2.31667
1.97201 -1.72143 2.0094
-1.82542 1.23704 3.0641
-1.8103 1.32061 3.33191
-1.38616 -0.132862 0.521432
-1.04204 0.146982 -0.793435
-0.565362 0.733381 2.44346
0.0858885 0.135362 0.263151
0.343633 0.112318 0.294979
0.364242 0.102701 0.324556
1.06413 -0.327843 -0.647573
1.1059 0.219759 2.0227
1.49269 -0.255648 -2.0576
1.18884 0.15084 2.16507
1.55699 -0.413274 -2.61252
1.41593 0.0266997 1.77189
1.98764 -0.262469 -2.13677
2.02539 -1.89783 1.38131
-1.9105 -0.235938 0.840946
-1.13461 0.59191 2.58307
-1.12772 1.21711 2.94839
-0.204295 -0.213067 -1.92802
1.11097 -0.373685 -0.390047
2.57683 -0.358091 -1.82969
2.67128 -0.559917 -2.44722
-0.786415 0.185893 1.10717
-0.529196 0.699146 2.35775
0.101614 -0.319983 -2.37772
0.651613 -0.139947 -1.71816
0.953087 -0.389418 -2.52168
1.0148 -0.285777 -0.513919
1.1288 -0.270548 -0.332388
1.18026 -0.0373104 1.53239
1.5908 -0.432759 0.52627
-0.45499 0.109591 1.10923
1.26397 -0.262411 0.722887
2.49427 -0.445831 -2.52296
-1.53645 -0.0826807 0.387942
-1.10997 -0.0519291 0.754094
-0.446948 0.0139308 0.883163
-0.159127 0.325042 1.64884
0.383084 -0.27351 -2.23638
0.424696 -0.324173 -2.4205
0.751648 -0.212933 -1.92323
0.584279 0.439668 2.01262
1.08767 -0.412235 -0.412806
-0.547026 0.488561 1.84525
-0.352627 0.257175 1.37336
0.230587 0.222407 1.2192
0.427526 0.408589 1.97993
1.14498 0.0405133 1.72372
-1.4406 0.306995 1.82668
-0.40235 0.0910481 1.19972
0.611149 0.0119465 -0.146113
1.25364 -0.420439 -0.124505
2.35851 -2.01149 1.27526
-0.193504 0.129305 1.09211
-0.379651 -0.17008 -1.97689
-0.387818 0.0583724 0.452915
-1.14757 0.606113 2.51665
-0.837684 0.221347 1.263
-1.17604 0.0461927 -1.24093
-0.428567 0.276669 1.41664
-0.184989 0.41244 1.9896
-0.24883 0.316083 1.51642
0.667014 0.708086 2.28551
0.345021 0.120124 0.2942
0.785991 0.282176 1.74142
0.435387 -0.22355 -2.11855
1.09385 0.232821 2.01377
1.2349 0.159994 2.16799
0.913652 -0.279827 -0.450353
1.26421 -0.225218 0.828592
1.24002 -0.27897 0.680149
0.952341 -0.317384 -2.38766
1.52675 -0.227756 -1.97366
-0.450381 0.784991 2.52751
-0.837451 -0.230704 -2.16405
0.0638174 0.190199 1.34604
0.365789 0.103725 0.324484
1.72228 -0.235664 -1.90673
-1.10211 1.19231 2.84457
-0.199714 -0.180185 -1.9073
0.102254 -0.444145 -0.538829
0.0979399 -0.369717 -2.49574
0.860949 0.441536 2.15161
0.781393 -0.374143 -2.50354
1.99925 -1.83026 1.62926
-0.434529 0.330165 1.52216
-0.504433 0.1312 0.351841
1.48182 -0.260053 -2.18372
2.76015 -0.536329 -2.35326
-0.753425 0.626236 2.64268
2.59535 -0.545545 -2.38488
-0.685335 0.707163 2.41911
0.426001 0.710446 2.36809
0.584822 0.465421 2.02142
0.633167 0.155299 0.274508
1.15768 -0.144252 0.547726
-0.882823 0.180121 1.22423
1.23367 -0.0705386 1.39491
1.60228 -0.482321 0.84189
-0.770837 0.355727 1.6608
-1.00041 0.331496 2.2196
0.0032161 -0.149846 -0.0517219
2.26138 -1.85304 1.41509
-1.83623 -0.1406 -1.88071
-1.39245 1.21621 2.96174
-0.931518 0.724167 2.21743
-0.207997 0.394187 1.8546
-1.47519 -0.413993 -2.79301
1.0488 0.336348 2.33736
0.107119 -0.438679 -0.543295
-0.429149 0.333828 1.5188
-0.465654 0.221101 1.3388
-0.264017 0.0386042 0.212286
0.597966 0.157943 1.67973
0.577058 0.0589213 1.61763
0.0578714 -0.162436 -1.90695
-1.65678 1.31263 3.25775
-1.92799 0.306462 -0.400897
-0.523238 0.522736 2.21649
0.352062 0.467543 1.52358
-0.576961 0.532726 2.20994
1.07119 -0.26038 -0.333662
0.326757 0.375819 1.58022
-0.896261 0.210483 1.49344
1.34754 0.0964636 1.98582
0.657893 0.0730642 0.775863
0.407317 0.69142 2.27027
0.383924 0.390088 1.88549
0.569571 0.0853964 0.851701
-0.874521 -0.0365677 -1.47546
0.84856 0.122126 0.963929
-0.0130012 -0.384156 -0.534891
-1.91737 0.282964 -0.413265
1.1764 -0.277978 -0.27112
-1.26789 0.568497 2.2961
-1.115 0.571942 2.51978
-0.355019 0.248433 1.4112
2.3726 -2.06039 1.91068
-0.830761 0.343162 1.67154
-0.139499 0.373638 1.81956
0.239025 0.430886 2.02365
0.279898 0.313727 1.43404
0.485376 0.253799 1.61416
0.540249 0.0450665 1.61202
0.166696 0.11935 0.967798
-0.0658332 0.0489143 0.697152
-1.80075 -0.209578 -2.12681
0.723593 0.094318 0.147378
0.888248 0.0390068 -0.0704271
-0.247675 0.0789089 0.225501
1.03003 -0.314566 -0.427947
0.0149688 0.837721 2.69551
0.242623 0.258918 1.37275
-0.891282 0.26205 1.43399
-0.906343 0.265603 1.3694
1.11811 -0.353587 -0.3811
0.346103 0.415843 1.56148
0.38922 0.401861 1.92125
0.123036 0.101764 0.882015
0.0895097 0.180267 0.415818
-1.74982 -0.193706 -2.08908
-1.35663 -0.152294 -1.89123
0.714149 -0.0831685 -1.52837
0.578226 0.430941 2.03407
0.652803 0.4307 2.02373
0.637702 0.10503 0.909622
2.78692 -0.592988 -2.53188
-0.40812 0.243782 1.41299
0.191287 0.10065 0.866598
0.264034 0.105005 0.884803
1.1997 -0.263553 -0.297024
0.0629198 0.0940281 0.826779
1.03419 0.372477 2.3371
-0.509677 0.185022 1.25206
-1.34439 0.545159 2.31283
-1.58121 0.257417 2.13697
-1.8087 1.23973 2.97629
-0.808929 0.295685 1.48533
0.642721 0.11006 0.910949
0.205108 0.0591741 0.697463
-1.67128 -0.333026 -2.53515
-1.74739 1.2442 2.99109
-1.97481 1.07358 2.40291
0.187223 0.433165 2.00839
0.851838 -0.0690716 -1.48333
-1.73872 -0.332461 -2.54722
0.817891 0.118491 0.954777
0.828968 0.176178 0.449643
-0.930677 -0.0353967 -1.48975
0.822388 -0.358666 -2.406
-0.886694 1.15188 2.81552
-1.34652 0.21635 1.92079
0.0493028 0.0894641 0.826499
0.858898 0.0830426 0.832731
-0.912475 -0.146008 0.0668638
0.687891 -0.00666945 -1.24328
0.0786398 0.156991 0.384234
0.574626 -0.348844 -0.665733
-0.834773 0.300892 1.71473
0.516225 0.431619 2.01354
-0.0741696 0.124156 0.968011
2.14299 -1.8458 1.58432
-0.784431 0.161125 0.305943
0.740155 0.139684 0.287592
0.819258 -0.316342 -0.622943
-1.79046 -0.208292 -2.10677
0.324852 0.379973 1.83644
-0.396783 0.24899 1.38503
0.401383 0.0593066 0.711404
-0.946927 -0.0748761 0.0938241
-0.795609 0.146397 -0.811152
-1.70103 0.140706 -0.911961
0.832431 -0.0810243 -1.50837
-0.528998 -0.0820959 -1.65278
0.0366747 -0.132861 -1.79685
1.17722 -0.16383 -1.68733
1.58027 -0.191842 -1.87677
-1.08413 0.207043 2.02636
-0.528193 0.0110323 0.726873
0.142159 0.173953 0.419626
0.790235 0.133675 0.275999
-0.0765797 0.0564133 -0.0383167
-1.95186 0.0221814 -1.34624
0.777818 -0.0667029 -1.49184
-1.17563 -0.171184 -1.90409
1.60401 -0.240825 -1.90512
2.60044 -0.554895 -2.44066
-0.726361 0.354659 1.67423
-0.926691 0.225182 -0.589161
-1.32529 -0.175359 -1.9082
0.583556 -0.194899 -1.96263
0.257316 -0.329174 -2.37089
0.369603 0.11603 0.937394
1.05992 -0.122135 -1.65269
-1.56355 -0.190913 -2.08116
1.93016 -0.381563 -2.44275
-0.394216 0.355667 2.0892
-0.307425 0.099478 0.948936
-0.908492 0.60543 2.60154
0.431771 0.379207 1.7968
-0.0612882 0.269924 1.60747
-0.0064773 0.133204 0.997169
-0.424891 0.377071 1.74021
0.630869 0.184176 0.371492
0.198405 0.38771 1.66541
0.632986 0.453498 2.10348
-0.78669 0.203912 1.18379
-1.37011 -0.074202 0.972483
-1.00197 0.212004 -0.586746
-1.88891 0.194356 -0.735683
-1.9586 0.163137 -0.857142
0.643582 0.405312 1.93419
-0.114662 0.124856 0.948812
0.404877 0.0610845 0.713628
0.484385 0.146055 0.343863
0.600123 -0.0125557 -0.265513
-0.8004 0.138636 -0.805621
1.95903 -0.26973 -2.07945
0.777563 -0.328798 -2.38368
0.315173 0.451752 2.10555
-0.0478009 0.121877 0.950545
-1.28246 -0.0793662 0.844382
0.755114 0.0594809 -0.018804
1.53595 -0.202881 -1.87524
0.0296763 -0.151204 -1.81095
1.86807 -0.357468 -2.42842
2.06031 -0.400595 -2.45911
-0.458515 -0.27103 -2.27466
-0.451989 -0.325686 -2.40323
-1.4686 -0.333048 -2.53071
-1.48006 0.260173 2.04576
-1.34871 -0.0954444 0.928387
-1.28926 -0.0890825 0.821207
-0.208514 0.148048 0.31017
-0.166193 0.114647 0.259234
-0.546535 0.0945115 -0.991139
0.703783 -0.0192596 -1.28178
0.70483 -0.203025 -1.96367
-0.0957873 0.146172 0.290512
-2.28794 0.0747558 -1.16676
1.0472 -0.1254 -1.64583
0.690786 -0.15781 -1.85565
-0.118434 0.467888 2.10949
0.0163372 0.237827 1.2652
-1.2663 -0.0160322 0.951382
0.10302 -0.197807 -0.307885
0.284163 0.159122 0.367698
-1.83191 1.35455 3.3637
0.707308 0.734712 2.39392
-1.79856 1.24998 2.98955
-1.9649 1.24323 2.95877
0.579456 0.413255 1.9838
-1.40019 0.164534 1.7287
0.625463 0.0993992 0.883815
0.327699 0.106862 0.880753
