-0.524198 0.331991 1.57272
-0.402099 0.29439 1.55342
-0.367299 0.28029 1.75886
-0.056899 0.0320911 0.866335
-0.365899 0.276491 2.11466
-0.0685987 0.169491 1.19126
-0.351699 0.419291 2.46839
-0.157597 0.33799 2.09083
0.538001 0.235691 0.0702551
0.184901 2.24029 3.23904
0.0779009 2.27849 3.59791
-0.0202989 0.386291 1.94695
0.0575019 0.128691 1.71901
0.629102 0.167491 0.140185
0.273402 2.22344 3.44193
0.0760012 0.456791 2.60175
0.215901 2.32604 3.93249
1.0203 -0.132709 0.00483519
0.507201 0.0133914 1.83587
0.765601 -0.0612088 1.57888
0.751601 -0.0726091 2.00323
-3.5945 0.807591 0.828835
-3.5919 0.802691 0.874305
-3.3873 0.753091 2.66363
-3.0391 0.623191 2.35542
-2.7422 0.535491 1.47241
-2.5437 0.468591 1.44011
-2.6862 0.516991 2.32182
-2.5908 0.48189 2.19998
-2.5981 0.482891 2.35429
-2.6004 0.476391 2.46894
-2.7345 0.543791 3.1827
-1.7187 0.205891 -0.133465
-1.9722 0.783591 2.25776
-2.0892 1.17066 3.68429
-0.939498 0.510491 -0.122205
-1.0936 0.37859 0.449235
-0.587798 0.576491 -0.152425
-1.2946 0.888091 2.68936
-0.433999 0.529291 0.116315
-1.2198 0.343391 2.09704
-0.678298 0.540091 1.01175
-0.360999 0.483091 0.0946452
-0.469798 0.35199 1.26894
-0.461299 0.31399 1.43933
-0.100898 0.217891 0.329285
-0.00999925 0.184591 0.456995
-0.0348978 0.0331907 0.857295
0.222001 2.23569 3.22219
0.402402 0.0542907 0.621275
0.578903 0.174791 0.270395
0.608503 0.186691 0.200625
0.745402 0.134591 0.138905
0.506202 0.0550908 1.20303
0.486802 0.0305909 1.29842
1.4202 -0.104109 0.139625
1.1506 -0.340209 1.14366
1.9078 -0.927309 -0.435855
-3.8411 0.898091 3.20516
-2.7528 0.513591 1.25626
-2.8506 0.552791 1.68024
-2.1212 0.328291 -0.0474549
-2.7574 0.545291 3.14743
-2.4345 0.442191 2.15393
-2.0192 0.802791 2.33569
-1.8726 1.06989 2.74244
-1.7762 1.06389 3.18459
-1.8736 1.09129 3.55246
-0.438999 0.508991 0.137125
-0.627198 0.365391 1.57973
-0.376298 0.444891 2.49723
-0.393098 0.472891 2.54691
-0.362598 0.485291 2.54625
-0.265199 0.27549 2.11042
0.429101 0.0549907 0.270735
0.654702 0.185191 0.144245
0.490302 0.0527906 1.19673
1.0993 -0.337409 1.68481
-3.95 0.901991 0.669105
-3.7122 0.837391 0.151875
-3.5033 0.756191 1.41216
-3.4288 0.748891 1.34799
-3.305 0.706791 0.997495
-3.7094 0.830591 3.25212
-3.4122 0.762691 2.58273
-2.8111 0.550891 1.67463
-1.9533 0.280891 0.954475
-2.0399 1.12179 2.85372
-1.8739 1.07039 2.67481
-0.591699 0.357191 1.32217
-0.548099 0.334691 1.52366
-0.377999 0.282191 2.06597
0.0475016 0.145791 1.67037
0.527803 0.0167913 1.32382
0.539802 0.0070905 1.55219
0.732302 -0.0483095 1.31087
1.3803 -0.115409 0.0984453
1.1035 -0.367709 1.39831
-2.678 0.498991 2.60782
-1.3525 0.0835914 -0.344375
-1.1679 0.274891 1.23411
-1.2432 0.37939 1.91443
-0.284999 0.476091 0.0924952
-0.229398 0.460291 0.0578352
-0.659398 0.373491 1.60488
-0.495599 0.337591 1.31006
-0.285798 0.270091 0.796335
-0.576598 0.354191 1.80969
-0.490398 0.326191 1.68408
-0.0432978 0.178691 0.630085
-0.316098 0.310291 2.20995
0.200002 2.23663 3.40577
0.625202 -0.00850876 1.31705
0.703702 -0.0689088 2.18622
-1.2226 0.555691 0.355295
-0.436898 0.521591 0.116225
0.108901 0.123191 1.02216
2.2193 -1.01951 -1.13126
-3.7194 0.783191 0.0965852
-0.120999 0.221491 0.595225
-0.191199 0.239691 2.01797
0.463802 0.0293912 1.51043
-1.9941 1.15069 2.92641
-2.0063 0.766991 2.27704
-2.0543 1.16742 3.5781
-0.309699 0.522591 0.154055
-0.310298 2.35814 3.53422
0.854101 2.33865 3.92479
-1.8589 0.605591 1.86783
-0.318999 2.45328 3.87029
-2.5021 0.516791 1.6929
-0.463199 0.520291 0.359045
-0.321298 0.440591 0.394405
-3.8099 0.885091 3.20547
-3.6309 0.816591 2.28775
-3.365 0.745191 2.50838
-2.7596 0.543191 3.0612
-3.4216 0.748791 0.478865
-2.6512 0.502791 2.35077
-1.999 1.11039 2.79033
-2.0307 1.12029 2.63716
-1.9082 1.07789 2.81165
-2.5334 0.460891 1.99105
-1.5241 0.96289 2.71034
-2.7766 0.516091 -0.238265
-2.5722 0.454791 0.0920251
-1.1547 0.839491 2.83967
-2.3027 0.381691 0.408205
-1.1387 0.833091 2.68168
-2.2811 0.37229 0.192155
-2.2987 0.369191 -0.288735
-2.2862 0.365091 -0.261465
-2.2748 0.358491 -0.238725
-2.0673 0.308891 -0.140515
-1.1301 0.427591 1.82296
-1.8188 0.225391 -0.265735
-1.8052 0.222791 -0.269845
-1.1346 0.364391 0.921805
-1.1372 0.41869 0.841775
-1.1156 0.357891 0.920575
-1.1921 0.720591 0.119125
-1.085 0.352991 0.664445
0.615701 2.1118 3.47757
0.623102 2.1101 3.46196
-0.480199 0.311791 2.25421
-0.468698 0.306891 2.24881
-0.570098 0.343091 1.84533
-0.0463991 0.488591 2.81478
-0.138299 0.345091 2.09407
-0.125098 0.231991 1.45375
0.105102 0.0929908 1.36527
0.386802 0.194991 2.06952
1.106 -0.33201 0.681895
1.7398 -0.871909 -0.695545
-3.8844 0.883191 1.22583
-3.3288 0.708491 2.57358
-3.2931 0.687091 1.28585
-2.773 0.529791 1.5263
-2.6313 0.496691 1.92872
-2.5027 0.468891 1.9597
-1.7265 1.02689 2.69965
-0.255498 2.47039 3.964
-2.8688 0.569891 -0.217405
-2.6168 0.482791 -0.108135
-0.142999 2.34994 3.5713
-2.5762 0.462991 -0.113515
-2.2951 0.37369 0.312885
-1.4578 0.412791 2.21621
-2.083 0.315991 0.462165
-2.1994 0.340891 0.0119551
-2.1819 0.333191 0.0250853
-2.1426 0.33159 0.118325
-2.0653 0.303691 -0.103845
-1.4691 0.459691 1.31593
-1.2182 0.34139 2.09424
0.220801 2.23938 3.4576
0.269502 2.21694 3.5443
-1.9008 0.248491 -0.246225
-1.8805 0.246291 -0.235615
-1.9031 0.239791 -0.395405
-1.8799 0.244991 -0.431385
0.306602 2.20805 3.23585
-0.708098 0.472291 2.41631
-1.0354 0.285591 1.486
0.501601 2.14578 3.37764
-1.0769 0.344791 0.881685
0.638902 2.11193 3.56749
-1.0738 0.343991 0.639555
0.624101 2.10913 3.26242
-0.571698 0.347991 1.55253
-1.3175 0.0744914 -0.554715
-0.368699 0.282891 1.8327
0.925801 2.01898 3.22067
1.0593 1.97305 3.27509
-0.437598 0.545991 0.0548151
0.223401 0.32109 2.08955
0.798701 0.225591 2.67072
0.534103 0.237391 0.0466252
1.1013 -0.330209 0.660655
1.1041 -0.33411 0.596495
1.751 -0.887709 -0.595995
1.906 -0.932509 -0.848825
2.0042 -0.957309 -0.982875
-3.6906 0.838291 3.22883
-3.7011 0.846391 3.06388
-3.5513 0.763291 1.56653
-2.9391 0.596591 2.18997
-2.9519 0.597891 1.88458
-3.0619 0.625391 1.32616
-3.3029 0.707891 0.235125
-3.3087 0.716491 0.162525
-2.8575 0.551391 0.616845
-2.8408 0.547291 0.599105
-2.4169 0.421091 0.720925
-2.4555 0.432991 0.389085
-1.1544 0.836391 2.66907
-2.2902 0.37859 0.262695
-2.0231 0.293191 -0.225755
0.289002 2.21574 3.56064
0.222802 2.23533 3.22262
-1.1892 0.336091 1.54262
0.497201 2.15201 3.44959
0.628103 2.10794 3.43956
0.631603 2.10719 3.40301
-0.637899 0.372691 1.32612
-0.0428991 0.358391 2.10248
0.0224009 0.32179 2.1492
-0.541799 0.542091 0.133285
-0.540898 0.543191 0.0653551
0.0755015 0.39979 1.88086
-0.438899 0.542791 0.117985
-0.0347986 0.0353908 0.862965
-0.120398 0.223891 0.308635
-0.0169992 0.182191 0.451795
0.217301 0.101691 0.642545
0.748402 -0.0740091 2.14544
0.177802 0.287891 -0.279495
1.0158 -0.345209 1.84699
1.1294 -0.362009 1.6702
1.1081 -0.372209 1.53822
1.3144 -0.233009 0.752005
-2.7641 0.630191 3.77277
-3.4981 0.755191 1.34845
-3.5871 0.793591 0.981715
-3.4333 0.748291 1.29156
-3.5973 0.809191 0.720565
-3.7025 0.826591 -0.0427649
-3.2414 0.685491 1.27363
-2.0868 1.15032 2.92043
-3.043 0.613691 1.33456
-1.9621 1.10349 2.8245
-3.1697 0.661191 0.478085
-1.9312 1.08999 2.82683
-1.7746 1.06679 3.1841
-2.4309 0.442391 2.14928
-2.8356 0.534391 0.655995
-1.5726 0.970991 2.74387
-2.4827 0.43409 0.399965
-1.9774 0.284291 0.915485
-1.9436 0.275291 0.961615
-1.952 0.273791 0.914685
-1.9187 0.270791 0.940355
-1.0426 0.315891 1.90801
-0.678199 0.413591 2.37672
-1.1932 0.614291 0.143925
-0.391198 0.471191 2.54806
-0.612899 0.36109 1.83547
-0.431998 0.298291 2.29173
-0.422399 0.29719 2.09336
-0.636598 0.366891 1.32706
-0.381099 0.28519 2.10633
-0.354398 0.278091 2.15042
-0.454898 0.310691 1.72821
-0.431598 0.30349 1.76488
-0.623298 0.436491 0.152305
-0.353799 0.499691 0.0622652
0.499801 0.0161914 1.58577
0.740401 -0.0621091 2.10779
0.340701 0.0719909 0.761255
0.503802 0.0535907 1.14323
0.741801 -0.059209 1.58896
0.629001 0.169091 0.143995
-3.6638 0.838891 3.0243
-3.0361 0.631791 2.30513
-3.4466 0.756491 0.699265
-2.9267 0.585391 2.17041
-1.9375 1.11639 3.53175
-1.8735 1.09169 3.55878
-1.8457 1.08819 3.41885
-2.596 0.490491 2.55589
-2.6115 0.496591 1.84153
-1.6901 1.00979 2.72146
-1.827 0.733591 2.24657
-1.5954 0.454791 2.21001
-1.5371 0.499791 2.02921
-2.3992 0.378091 -0.184245
0.194303 2.24198 3.36097
-0.544099 0.333191 2.25599
-0.581298 0.33859 2.12767
-1.1362 0.625991 0.126095
-0.543998 0.33019 1.97797
-0.545198 0.339891 1.73081
-0.321998 0.304491 2.20059
-0.377999 0.273691 2.06932
-0.175399 0.239491 0.363745
0.034402 0.178991 1.03123
0.114102 0.0906906 1.32966
0.623203 -0.022009 2.04018
0.488301 0.0262908 1.30273
0.529903 0.0120906 1.37574
0.725002 -0.0446092 1.30355
-3.058 0.623191 2.00291
-3.2251 0.686791 1.18723
-1.9563 0.737391 1.79373
-0.592198 0.356491 1.92197
-0.587598 0.371391 1.27116
-0.238799 0.43829 0.0482452
0.454202 0.0289907 1.83573
0.424201 0.0588912 0.624385
1.0753 -0.34961 1.22259
1.2947 -0.176709 0.152365
1.9051 -0.952309 -0.637985
-3.258 0.713891 3.03848
-2.9504 0.596191 1.78424
-2.0738 1.14049 2.81823
-2.4904 0.445591 0.181565
0.0517016 0.165291 0.494135
0.626401 0.200991 0.0258852
0.702302 0.191991 0.0448552
2.1353 -1.01831 -0.975585
-0.413499 0.506891 0.121555
-0.0774984 0.206191 0.293245
1.3276 -0.156309 0.217625
-1.1869 0.853391 2.70149
-1.2302 0.376791 1.90044
-0.339399 0.29509 2.22691
-0.333198 0.259591 1.24765
0.0967017 0.141191 1.03361
-1.9574 0.711591 2.04686
-1.8859 0.718691 2.27026
0.644002 0.152591 -0.107005
-3.9797 0.92919 3.14833
-3.9668 0.932491 2.76858
-3.7407 0.845791 2.79047
-2.9793 0.595391 3.19889
-3.3163 0.723791 2.71575
-1.7621 1.05809 3.43818
-3.3257 0.709191 2.57419
-1.6416 1.02239 3.37754
-3.5071 0.779191 2.31123
-2.859 0.577691 2.75194
-3.0691 0.621791 2.42472
-3.179 0.676991 2.3094
-3.0942 0.647591 2.28915
-3.041 0.620591 2.25646
-3.6169 0.798291 1.65962
-2.8959 0.563291 2.20412
-1.7479 1.03339 2.68688
0.196601 2.24488 3.35784
-1.5279 0.954791 2.81475
-3.8868 0.880991 1.23009
-3.2144 0.680591 1.72603
-3.5721 0.787191 1.4086
-3.2056 0.666291 1.66305
0.609502 2.11565 3.46106
0.593602 2.11957 3.44263
-3.4981 0.757891 1.32307
-2.6077 0.497391 1.96572
-3.3816 0.735691 1.31302
-3.3974 0.732091 1.29528
-1.1434 0.834191 2.67666
-1.1176 0.829191 2.68228
-3.6613 0.829991 0.964355
-3.2155 0.677791 1.25473
-3.8999 0.89549 0.722985
-2.8043 0.535691 1.45482
-3.2643 0.689591 1.04182
-3.2981 0.693391 1.00875
-1.5883 0.457891 2.20142
-1.6007 0.466791 2.18498
-1.8666 0.595491 1.90093
-3.6059 0.805191 0.598415
-3.4122 0.750391 0.688035
-1.6842 0.526391 1.82472
-2.9043 0.567691 0.974455
-3.4212 0.750991 0.476155
-3.8845 0.889691 0.0937652
-3.4355 0.758491 0.424725
-2.8955 0.572691 0.685095
-3.1453 0.643691 0.455145
-3.5674 0.786791 0.111725
-3.3435 0.724791 0.251045
-3.7042 0.830091 -0.0253849
-1.1348 0.422691 1.83124
-2.8114 0.543091 0.627635
-1.1022 0.423291 1.81586
-3.4894 0.779791 0.0520852
-3.7011 0.824491 -0.118515
-2.902 0.560291 0.455535
-2.1568 0.336691 1.02062
-2.8524 0.552991 0.465775
-2.1371 0.338291 1.00852
0.500501 0.322991 2.80681
0.502801 0.323591 2.79666
-0.425599 0.29649 2.11327
-3.0509 0.622791 0.133405
-0.136798 0.346891 2.09527
-3.1941 0.654791 -0.248805
-2.3005 0.38219 0.410345
-2.4481 0.418391 0.271365
-0.622699 0.362191 1.56594
-2.1064 0.307891 0.525195
-0.613298 0.361491 1.55657
-2.3052 0.380391 0.322805
-2.28 0.372591 0.305805
-2.4759 0.428191 0.129445
-1.2833 0.408491 0.975825
-2.8899 0.562091 -0.197545
-2.9257 0.554691 -0.231615
-1.6879 0.197391 0.670655
-2.2738 0.37169 0.180595
0.388902 0.193691 2.07346
-2.7594 0.508391 -0.241945
-1.1487 0.372191 0.921485
-1.1154 0.357491 0.919745
-1.0989 0.351391 0.919435
-2.1501 0.32459 0.142555
-2.1607 0.331691 0.0947954
-2.0399 0.300191 0.149375
-2.0218 0.295691 0.148695
-2.2689 0.365391 -0.260755
-1.8759 0.243991 -0.250335
-0.0841989 0.188891 1.02725
-0.042098 0.177991 1.05004
-1.7875 0.215291 -0.247945
-1.8062 0.220391 -0.271415
-0.0108976 0.198391 1.00338
-1.7115 0.201691 -0.367765
-1.7562 0.214391 -0.478905
-0.512998 0.519391 0.111595
-1.3411 0.072091 -0.545785
1.1117 -0.338809 0.907065
1.1671 -0.357809 0.934825
1.1064 -0.331709 0.681725
1.097 -0.339409 0.625735
0.695702 0.191991 0.0403052
0.683002 0.134391 -0.292635
1.4132 -0.778609 -0.254575
-3.8842 0.922791 3.20237
-3.6772 0.830291 3.25627
-2.7196 0.634591 3.7954
-3.4074 0.756191 3.32247
-3.4031 0.770791 3.21771
-3.4289 0.769791 3.20215
-3.1787 0.681091 2.95592
-2.9761 0.596891 2.94823
-2.7586 0.545991 3.06234
-0.837499 2.08577 3.36278
-3.3333 0.723991 2.52201
-3.0991 0.635991 2.44431
-0.146199 2.3519 3.33863
0.289502 2.21579 3.5579
0.269601 2.21825 3.54366
-3.2243 0.681091 2.04083
-2.7376 0.538291 2.39422
0.214501 2.23686 3.43553
-2.6878 0.522991 2.33192
-2.6006 0.489191 2.35695
0.0852023 2.27671 3.23476
-3.5393 0.775391 1.54094
0.220203 2.2367 3.27307
-1.512 0.939591 2.6326
0.627702 2.11128 3.47902
0.622701 2.11239 3.4639
-3.4731 0.750191 1.33361
0.639402 2.10345 3.43252
-2.5543 0.465991 1.9902
0.621402 2.11011 3.35728
-1.8205 0.736491 2.24534
0.728202 2.07758 3.37521
-3.9202 0.902691 0.708145
-3.9237 0.88989 0.689155
-3.7047 0.841191 0.830805
-3.3884 0.737191 1.07003
-3.3675 0.732391 1.06873
-3.771 0.85829 0.716385
-0.642799 0.676091 2.78728
-1.8751 0.592891 1.94718
-3.1443 0.649191 0.982095
-2.6981 0.508191 1.24694
-2.9674 0.592391 0.973595
-1.2224 0.341991 2.08949
-1.6157 0.507991 1.75574
-1.3766 0.394191 1.90331
-3.0438 0.617091 0.663165
-3.8259 0.866491 0.00812513
-2.459 0.436691 0.968985
-1.1356 0.438791 1.84382
-1.4962 0.466691 1.55061
-2.7238 0.515491 0.670885
-1.1385 0.429291 1.77293
-2.8771 0.557391 0.463135
-2.0182 0.297791 0.989495
-3.1326 0.636791 0.115765
-1.4637 0.457791 1.2552
-3.016 0.624691 0.129145
-2.618 0.483691 0.414925
-0.854298 0.224691 1.68052
-0.871499 0.229891 1.66204
-0.236398 0.275591 2.08461
-1.1276 0.306491 1.44958
-0.154399 0.329391 2.11246
0.765902 0.240591 2.69716
-1.9876 0.295391 0.728635
-2.452 0.432391 0.348305
-0.476999 0.316291 1.69529
0.0121012 0.419591 2.00283
-0.595699 0.353191 1.58442
-2.4427 0.423191 0.255255
-2.924 0.565591 -0.209855
-0.528098 0.331691 1.52784
-2.8818 0.556191 -0.218245
-2.9482 0.561591 -0.279915
-0.538499 0.328991 1.46907
-2.5741 0.463691 -0.0818849
-2.5928 0.467591 -0.106015
-2.5151 0.454591 -0.109055
-2.6335 0.484091 -0.225365
-2.1367 0.333091 0.122315
0.664102 -0.0376092 2.08942
-1.1231 0.403591 0.685055
-2.1207 0.336391 -0.0605748
-2.0122 0.294091 -0.062655
-2.2975 0.371491 -0.288135
0.129701 0.0828914 1.36566
-0.545999 0.538691 0.0575653
-1.3704 0.0953912 -0.573425
-1.3394 0.0821914 -0.562225
-0.461198 0.539291 0.0869551
-0.391898 0.480391 0.124295
0.589002 0.206191 0.332805
0.609702 0.197991 0.331035
1.1006 -0.332509 0.658485
1.0149 -0.318409 0.448225
1.4199 -0.789309 -0.531445
1.7314 -0.873309 -0.945035
1.9221 -0.931709 -0.877085
-3.6201 0.819491 3.06541
-3.5189 0.794291 2.90806
-2.7715 0.559991 3.36138
-1.7555 1.05119 3.56844
-3.821 0.882491 2.42744
-0.553399 2.21454 3.59154
-3.0138 0.606391 2.95954
-3.4254 0.770791 2.62948
-3.0348 0.643091 2.31032
0.287301 2.21276 3.58796
-2.6789 0.510891 2.35492
0.204002 2.2366 3.37268
-1.3297 0.892391 2.8435
-1.5291 0.95379 2.6359
0.628202 2.10861 3.43969
-3.5064 0.769991 1.27469
-2.8119 0.542891 1.68933
-3.0287 0.602591 1.41148
-2.7088 0.518391 1.56995
-0.327298 0.692491 2.94996
-0.534198 0.654991 2.64832
-0.367698 0.495291 2.58424
-3.3273 0.718391 0.398525
-3.0985 0.640691 0.529815
-3.6296 0.813691 0.0837851
-1.273 0.388191 1.76643
-2.7596 0.521691 0.679305
-3.0476 0.622491 0.449395
-3.3086 0.715591 0.223065
-0.374898 0.280191 2.08395
-3.501 0.741191 -0.244805
-1.9262 0.26629 0.872835
-2.4532 0.431091 0.400465
-1.9573 0.275591 0.732975
-2.5832 0.454891 0.0900052
-2.4512 0.425991 0.124145
0.0654021 0.39829 1.89514
-0.634299 0.36959 1.3288
-0.529098 0.37099 1.28294
-0.953398 0.275791 0.938205
-0.979798 0.27189 0.917305
0.706002 -0.0596095 2.12532
-2.1902 0.34149 -0.0731349
-1.926 0.255191 -0.254955
1.0692 -0.338509 1.70527
0.531802 0.0292911 1.25616
0.522601 0.0515908 1.23719
1.0242 -0.344109 1.51903
0.663101 -0.00390919 1.24012
0.374301 0.196991 0.977795
-0.546998 0.523891 0.267505
0.419101 0.165691 0.974665
-0.121999 0.224591 0.310765
-0.525199 0.507291 -0.260685
1.1063 -0.340309 0.817935
-0.264398 0.42779 -0.260795
0.634002 0.190491 0.207185
0.549001 0.231191 0.140445
0.570302 0.228391 0.125215
0.471101 0.187291 -0.330455
0.953702 -0.115909 -0.287775
-3.5994 0.812491 3.26475
-3.651 0.828991 3.11033
-3.1515 0.667691 2.76165
-3.0887 0.627291 2.56419
-3.1267 0.652491 2.52473
0.0734015 2.27858 3.59662
-1.9444 1.09259 2.84444
0.256402 2.22881 3.58209
-2.8084 0.546291 2.43694
0.272502 2.21924 3.5747
-1.4215 0.946391 2.81165
-1.5467 0.966191 2.67476
-3.8962 0.899891 1.22103
-2.9295 0.598291 1.91755
-2.468 0.452491 1.98325
-3.6082 0.792791 0.997635
-0.918498 0.760491 2.67427
-3.3209 0.707691 1.02268
-3.293 0.696991 1.00154
-1.735 0.506391 1.99868
-3.6929 0.828891 0.456765
-0.365598 0.496791 2.58398
-3.1247 0.641891 0.683785
-2.8222 0.536091 0.696585
0.446002 0.338491 2.89075
-3.3202 0.715291 0.159475
-0.548099 0.338491 2.10808
-0.487298 0.321391 2.08668
-0.280599 0.274891 2.14791
-1.9392 0.27749 0.969635
-1.9859 0.285091 0.916465
-1.8834 0.262491 0.975325
-3.3052 0.693691 -0.142485
-1.0503 0.280891 1.50649
-1.2115 0.335891 1.35423
-2.1263 0.32599 0.708555
-0.548898 0.344391 1.58228
-2.1363 0.341091 0.260585
-1.7208 0.194191 0.471315
-1.8029 0.224291 0.405105
0.572803 -0.00570877 2.10675
-0.642299 0.547691 1.00738
0.588601 -0.00830944 1.52531
0.739601 -0.054309 1.58271
-1.8941 0.245791 -0.438645
0.500302 0.0274905 1.25148
0.566501 0.0325908 1.24663
0.688002 -0.0131093 1.26409
0.383702 0.174091 1.00561
-0.510398 0.521991 0.132945
-0.274999 0.478091 0.0682853
-0.343198 0.435091 -0.222255
-0.307099 0.442591 -0.217295
0.591201 0.164591 0.268155
0.726002 0.170291 0.0362351
0.417503 0.211791 -0.262795
0.658502 0.145691 -0.260625
1.8491 -0.946209 -0.836805
-1.9497 1.12379 3.52249
-2.8322 0.536891 3.19935
-2.8833 0.573791 2.99071
-1.9564 1.12919 3.23341
-1.7797 1.06429 3.18501
-3.1759 0.651591 2.47385
-3.1049 0.658491 2.50327
-3.7937 0.849691 1.29101
-2.5058 0.448591 1.60432
-0.399198 0.472891 2.5545
-3.7146 0.823691 0.136745
-1.2746 0.38639 1.80579
-0.571599 0.335991 2.12357
-3.7493 0.843291 -0.212425
-0.870698 0.243291 1.89931
-1.1253 0.352891 1.69685
-1.0215 0.319291 1.7367
-0.414199 0.28799 2.11611
-0.353698 0.275591 2.08084
-0.571199 0.351791 1.90764
-0.600898 0.35119 1.84393
-0.565999 0.351691 1.78167
-0.583898 0.346791 1.73437
-0.500199 0.31549 1.79107
-0.577899 0.352391 1.38765
-0.426498 0.305391 1.34428
-2.1676 0.347891 0.0325151
-2.2394 0.363291 -0.0650349
-1.9053 0.258791 0.158235
0.622503 -0.0315095 1.79356
-0.850999 0.426291 0.0133253
-0.471999 0.513791 0.136165
0.386703 0.0549907 0.377475
-0.603299 0.713591 -0.493435
-0.737098 2.22288 3.94027
-3.5175 0.797291 2.58358
-1.9372 1.11019 3.2849
-3.4207 0.752691 2.35085
-2.7472 0.537591 2.44535
0.192002 2.24598 3.36018
-3.4676 0.747991 1.35357
-2.4606 0.450491 1.9473
-2.7187 0.528091 1.47399
-0.673698 0.682991 2.65653
-1.9384 0.765491 1.78809
-2.5782 0.473691 1.44087
-1.4321 0.401191 1.88437
-1.8065 0.843591 1.42746
-0.067399 0.34569 2.13855
-1.1128 0.300791 0.953155
-2.2364 0.354591 0.0794552
-2.2571 0.365191 -0.102755
0.584201 -0.00780876 1.51247
0.986801 -0.340809 1.74083
1.0688 -0.357709 1.4591
0.119002 0.148491 0.538355
1.1274 -0.316709 0.443435
0.636802 0.209291 0.0783652
0.683902 0.133291 -0.234165
1.9595 -0.936709 -0.937185
-2.6388 0.49589 2.50568
-2.0053 0.761091 2.23595
-0.743198 0.717691 2.82443
-2.8219 0.554891 1.42425
-2.786 0.534091 1.04143
-0.975697 0.272091 1.58456
-2.4746 0.395591 -0.186725
0.552303 0.00599091 1.34478
-0.210898 0.255091 0.320135
1.378 -0.239809 0.754255
0.678602 2.09487 3.57613
-1.9485 0.779891 1.72056
-0.917598 0.261491 0.824675
-1.1432 0.595591 0.146435
0.969301 -0.292209 1.46702
1.1108 -0.360909 1.40974
-0.6217 0.364291 2.01561
-1.3244 0.536791 0.317055
0.0824023 0.109791 0.900215
-2.9073 0.583591 3.04777
-1.922 0.713091 2.12433
-0.177699 0.0652913 1.71629
-2.8136 0.538291 1.70708
0.707402 0.119691 0.365355
1.4264 -0.351509 0.951515
2.0129 -0.966909 -0.990085
1.3564 -0.768709 -0.609745
-1.3368 0.083991 -0.561325
-0.252898 0.420891 -0.330935
-1.2966 0.0654906 -0.425755
-2.9654 0.581391 -0.256645
-2.3548 0.401191 -0.236385
-2.366 0.385991 -0.232445
-1.5187 0.137191 -0.221735
-2.9259 0.560591 -0.128615
-0.438299 0.532791 0.111945
-3.6348 0.811691 0.0807951
-3.6497 0.793391 0.128475
-1.9229 0.259591 0.184165
-3.3403 0.724191 0.250465
-3.8174 0.876991 0.366125
-2.5547 0.44459 0.408705
-2.4722 0.412391 0.416825
-3.1151 0.636991 0.444405
-3.1401 0.650691 0.455755
-3.6758 0.829991 0.476585
-2.8981 0.574791 0.685995
-2.6817 0.492091 0.683705
-3.7961 0.857791 0.702105
-1.7333 0.205091 0.704315
-3.6313 0.813391 0.784805
-1.9331 0.269691 0.967765
-1.992 0.28799 0.995805
-2.2457 0.36389 1.0049
-3.7488 0.837891 1.0272
-3.469 0.744791 1.35446
-1.4789 0.442091 1.44992
0.747502 -0.0583087 1.55821
-0.455699 0.310791 1.56391
0.699002 -0.0472089 1.58853
-0.00819871 0.153291 1.66245
0.0203009 0.132791 1.72327
-3.3365 0.721791 1.7204
-1.9601 0.781891 1.76438
-3.0489 0.632191 1.7429
-1.1397 0.433091 1.8328
-1.0967 0.419491 1.83528
-1.1213 0.42779 1.84526
0.135701 0.395791 1.88981
-3.196 0.663191 1.98691
-3.7451 0.847391 1.99875
-2.8373 0.565291 2.02136
-2.8326 0.564191 2.0352
-0.555198 0.33659 2.09213
-0.293098 0.268591 2.10055
-0.587798 0.34909 2.11485
0.0522013 0.317891 2.12504
-0.575099 0.332891 2.12711
-1.8412 0.737191 2.18305
-2.887 0.560491 2.20584
-1.9342 0.766791 2.24796
-3.1883 0.680791 2.30669
-2.6367 0.500291 2.35497
-2.7371 0.537591 2.39079
-2.8361 0.543991 2.43639
-0.358699 0.482091 2.56953
-3.5952 0.813891 2.62806
-1.9257 1.08369 2.62987
-2.0516 1.13079 2.65144
-1.4485 0.926991 2.70343
-1.5173 0.958891 2.70542
-2.7642 0.529091 2.77146
-1.8786 1.06629 2.78428
-1.3534 0.90389 2.80029
0.337302 0.366991 2.81491
-3.6408 0.829491 2.85388
-2.9315 0.602491 2.92339
-2.943 0.587391 2.9475
-3.0101 0.607691 2.9644
-3.7339 0.838591 2.97098
-2.6993 0.512391 2.97672
-3.7241 0.857491 3.13841
-3.0105 0.604391 3.20543
-3.0394 0.614791 3.20918
-2.9683 0.600191 3.21366
-3.075 0.632491 3.22134
-3.4066 0.751291 3.32243
-3.2967 0.718691 3.37736
-3.1647 0.663891 3.48444
-3.4177 0.742291 3.49106
-2.9585 0.600491 3.52151
-2.8192 0.553791 3.54769
0.212901 2.2341 3.23598
-0.843299 2.07876 3.36047
-2.16 0.322591 -0.0518849
-1.9286 0.273691 0.138945
-0.121198 0.227391 0.309125
-2.2935 0.375491 0.188595
-1.2244 0.552391 0.366345
0.0333014 0.176391 0.448375
-0.0106992 0.183191 0.465255
-3.3418 0.728791 0.403985
-0.236999 0.247791 0.614585
-0.179398 0.226091 0.695065
-0.210498 0.238991 0.728795
-1.6877 0.191991 0.674935
-3.7364 0.846791 0.820125
-3.7421 0.851591 0.840855
0.384301 0.169991 1.00828
-2.088 0.312291 0.984245
-1.9624 0.27259 0.989735
-0.586598 0.354591 1.56713
-0.664998 0.375391 1.5797
0.745301 -0.0594093 1.58621
-2.5744 0.467291 1.62964
-1.1308 0.335991 1.65967
-1.1451 0.434691 1.85639
0.0178023 0.430191 2.00138
-3.1541 0.654091 1.98512
-3.3108 0.692591 2.00349
-2.8 0.558691 2.02118
0.578903 -0.0184088 2.11692
-0.605598 0.328591 2.13291
-1.952 0.760891 2.17823
-3.1141 0.624991 2.23493
-0.490899 0.305491 2.26792
0.593702 -0.0371095 2.27088
-1.9619 0.776691 2.29513
-3.326 0.719591 2.34086
-2.9914 0.602191 2.46585
-0.395198 0.475291 2.56697
-3.6165 0.820191 2.61648
-0.531198 0.637991 2.67499
0.119901 0.439391 2.70266
0.799002 0.215091 2.70686
-1.0728 0.810291 2.7148
-1.7425 1.01989 2.70721
-2.724 0.494791 2.75322
-2.8404 0.562891 2.75685
-2.9063 0.587691 2.75841
-3.3668 0.731191 2.76424
0.466502 0.33229 2.7928
-0.161399 0.534291 2.79182
-0.072299 0.496291 2.81573
-1.9163 1.07839 2.87476
-3.1702 0.670091 2.99208
-3.5293 0.800091 3.20612
-3.5543 0.798791 3.23768
-3.338 0.733691 3.38708
-3.4487 0.754391 3.49659
-2.8481 0.562091 3.51345
-3.2684 0.697091 3.53215
-3.0091 0.615891 3.53063
-0.140899 2.35187 3.3396
0.603603 2.11636 3.44537
-2.9473 0.579791 -0.209495
-3.7211 0.832891 -0.067555
0.622102 0.158691 0.224195
-1.9328 0.248991 0.422925
-1.8996 0.25929 0.731035
0.666302 0.00019066 1.2478
-3.5624 0.786091 1.20132
-3.3247 0.705091 1.27414
-3.5967 0.789191 1.43368
-2.7043 0.526591 1.45967
-2.5292 0.433691 1.78755
0.703602 -0.0450087 1.82482
-2.6452 0.503891 1.9363
-2.4153 0.434491 1.95713
0.620002 -0.0260087 2.12219
-3.1647 0.669791 2.26551
-1.7999 0.715891 2.28305
-2.6769 0.491391 2.47747
-3.0777 0.635391 2.56839
-3.2111 0.684891 2.59679
-1.1004 0.823691 2.68491
-3.0901 0.626291 2.76338
-3.5759 0.811291 2.77393
-1.3065 0.889291 2.8173
0.573602 0.298791 2.89008
-3.0362 0.628191 2.99007
-2.8812 0.578691 3.19166
-3.3364 0.739691 3.19912
-2.8905 0.559391 3.2216
-1.7452 1.04999 3.59624
-3.1291 0.815691 3.95469
0.633502 0.199591 0.145545
0.715902 0.159891 0.148225
-0.469098 0.492791 0.215415
0.670302 0.144091 0.224525
-2.103 0.32389 0.102475
-2.5181 0.440291 0.681795
-1.1811 0.334291 1.08518
0.707802 -0.0297089 1.30799
-1.066 0.297391 1.5037
0.208201 0.127691 1.54414
1.0487 -0.322509 1.73601
-3.2205 0.682191 1.77188
-2.4775 0.445791 1.98751
-2.5544 0.467591 2.01941
-1.9245 0.757191 2.24455
-2.7628 0.541791 2.40296
-2.8392 0.547391 2.46689
-1.4715 0.936391 2.63726
0.573102 0.296091 2.89297
-2.8718 0.582391 2.97712
-3.5299 0.806991 3.2202
-3.1939 0.669491 3.46058
-1.7004 1.03789 3.59909
-1.7523 1.07149 3.69081
-0.182799 2.36805 3.45138
-0.548598 2.21306 3.5934
0.959702 0.200591 -0.509625
-2.7081 0.521991 1.23079
-2.5768 0.488091 1.92041
-1.9573 0.774891 2.19693
-2.7881 0.555791 2.35995
-2.7541 0.548891 2.59414
-1.9713 1.09909 2.63247
-2.744 0.508691 2.75073
-1.9539 1.10319 2.84161
-1.2484 0.877591 2.85088
0.0192023 0.471791 2.85752
-3.5642 0.794391 2.97683
-0.214599 2.4106 3.69462
-2.6018 0.464191 -0.196605
-0.212598 0.474391 0.00903517
-0.709399 0.529591 0.0169652
-1.1078 0.481691 0.377495
0.347102 0.0606908 0.438985
-2.9548 0.605491 0.420135
-1.5901 0.181291 0.422305
-3.3537 0.727391 0.946995
-2.6692 0.469991 1.64827
0.332501 0.18829 2.14572
-0.515098 0.30909 2.27053
-2.0663 1.16083 2.74733
-1.7152 1.05229 3.18861
0.176301 0.147791 0.354255
-1.8174 0.235191 0.701205
0.504502 0.0119914 1.73933
-2.8928 0.590191 1.92757
-2.8369 0.563991 1.97779
-0.299699 0.268491 2.05013
-3.6702 0.812791 2.4647
-0.826598 0.46079 2.49667
-0.658899 0.611191 2.58367
0.264503 2.2396 3.56862
-3.2683 0.670191 0.622485
-1.0256 0.29999 0.838495
-0.502999 0.378491 1.04647
-0.458898 0.212391 1.50419
-0.548598 0.329591 2.0494
-0.531898 0.30839 2.19613
-2.8463 0.573791 2.28083
-2.8584 0.592491 2.38411
-1.0956 0.777891 2.60848
-0.427198 2.27797 3.55547
-0.421498 2.35696 3.68546
-0.054099 0.40809 0.568245
-2.3365 0.37239 -0.232515
-2.588 0.464691 0.0739351
-1.3352 0.083291 -0.560075
-2.0763 0.31329 -0.0969648
-2.4397 0.409991 0.145265
-3.8946 0.890391 1.26823
-3.3795 0.738991 1.11961
0.897101 0.114091 -0.459335
-2.7186 0.522691 1.20875
-2.0714 0.307991 1.00305
-2.03 0.291991 0.995415
-1.2106 0.531891 0.788875
-1.077 0.339791 0.664555
-1.932 0.269391 0.971105
-1.1793 0.521391 0.789805
-3.2278 0.666991 1.66165
-3.1797 0.664291 1.65797
-2.8287 0.555891 1.48774
1.554 -0.813809 -0.735985
0.784902 0.136891 0.0642751
0.874202 0.120291 0.0286952
-3.8969 0.894391 2.24976
-3.7335 0.835791 2.24109
-3.5162 0.780091 2.2862
-2.8391 0.568591 2.04772
-2.623 0.497991 1.97796
-1.0462 0.294591 1.31097
-2.5691 0.475691 1.98692
-3.1626 0.670391 2.29379
-3.1177 0.655191 2.29128
-3.5781 0.817391 2.54381
-3.5453 0.804391 2.52935
-3.0692 0.615291 2.42486
-3.0947 0.629091 2.45957
-3.3399 0.741391 2.71193
-2.6989 0.528591 2.39489
-3.3549 0.714591 2.77158
-0.604999 0.357491 1.55126
-1.8368 0.734791 2.18285
-0.435899 0.307891 1.54959
-1.1167 0.425791 1.86526
0.540801 0.0623912 1.14101
-3.8457 0.898191 3.1994
-3.1396 0.662791 2.96763
-3.0587 0.643691 2.94366
-2.0362 1.11979 2.65983
-3.0042 0.606491 2.96236
-2.8323 0.562391 3.03795
-2.829 0.576991 3.05495
0.0622016 0.113791 1.72317
-1.6895 1.00819 2.68538
-3.3352 0.737991 3.35679
-0.554898 0.33799 2.09313
-2.9749 0.596191 3.19859
0.0300017 0.388791 1.89934
-0.369098 0.277991 2.07602
-1.5007 0.95309 2.80717
-1.0867 0.816291 2.70175
0.665201 -0.0375091 2.0891
0.709802 -0.0563089 2.0893
-2.7077 0.637691 3.80032
-1.6385 1.01709 3.43788
0.148002 0.425991 2.79492
-0.846898 2.0669 3.51911
0.406701 0.34769 2.81746
-0.534698 2.23193 3.43275
0.274501 2.22207 3.21561
-0.216899 2.46706 3.76258
-0.236299 2.47552 3.77788
1.057 1.97537 3.27205
-0.206599 2.4678 3.96371
-2.9554 0.562991 -0.315995
-3.3187 0.717991 0.411595
-2.1173 0.317391 -0.070705
-3.5747 0.815691 0.740555
-3.2992 0.703791 0.603555
-2.9081 0.574191 0.435945
-1.3581 0.0831909 -0.274105
-3.8028 0.855791 1.29358
-1.9062 0.25779 0.403575
-2.1731 0.335891 0.702285
-2.4053 0.415991 0.922495
-1.6908 0.184791 0.661425
0.0147009 0.181591 0.113475
1.0664 -0.140609 -0.100705
-2.6195 0.493491 1.61427
0.421901 0.054491 0.272945
-2.4869 0.438491 1.62674
-0.0549974 0.188591 0.589315
-3.1817 0.679291 2.29068
-2.6685 0.519591 2.15093
-3.3936 0.763391 2.60477
-2.6284 0.490491 2.48602
-3.838 0.883791 3.10618
-2.6814 0.520091 2.56303
-2.9837 0.610091 2.86592
-3.1757 0.679191 2.97121
-2.6662 0.512091 2.7201
-2.6984 0.510191 2.745
-3.1532 0.672091 2.98959
-3.2504 0.708791 3.0595
0.222201 0.153991 1.52556
-0.375199 0.285491 1.81573
0.746802 -0.0527088 1.32703
0.0213023 0.129391 1.70907
-3.0836 0.626191 3.24628
-2.8852 0.557191 3.21793
-2.7305 0.550091 3.19072
0.591802 -0.00740917 1.69548
-0.0315981 0.390191 2.0548
-0.497998 0.319491 2.24682
-3.0078 0.610591 3.50415
-2.979 0.606991 3.51407
1.0643 -0.344509 1.70956
-0.346399 0.517391 2.55808
-0.535398 0.635891 2.67699
-1.729 1.04599 3.35028
-1.7477 1.06189 3.37381
-1.9131 1.09879 3.50657
-1.7424 1.04649 3.59606
0.075202 2.27681 3.21845
-2.4427 0.435391 0.409055
-0.526099 0.544891 0.111045
-0.366199 0.457691 0.196665
-0.939198 0.257691 0.562155
1.3779 -0.764009 -0.584295
1.7859 -0.896409 -0.598445
0.595601 0.166591 0.303115
-0.641099 0.541091 1.00543
0.157601 0.130191 0.575645
-0.430499 0.344491 1.26584
0.381002 0.169691 1.00452
-1.2729 0.382391 1.77036
-2.7036 0.518891 2.49776
-4.023 0.956991 3.16913
-3.906 0.896691 3.13503
-3.7051 0.856291 3.062
-3.6454 0.830591 3.04172
-3.1405 0.667391 2.79015
-3.9882 0.92989 3.22903
0.102202 0.0761909 1.6942
-0.487498 0.320191 2.06008
-2.9549 0.576791 3.239
-0.583598 0.349591 2.24854
-1.4784 0.943391 2.8461
-2.7606 0.530691 3.5003
0.451602 0.152191 2.0849
-1.6411 1.01679 3.56751
-3.7027 0.786491 -0.0787649
-0.522399 0.547491 0.0511852
-0.497699 0.528291 0.0709053
-0.422599 0.523491 0.0670253
-0.548898 0.511991 0.228025
-2.8028 0.543091 1.26749
-1.678 0.183191 0.698665
-3.2221 0.679091 1.76761
0.674002 0.128791 0.223205
-3.5709 0.796491 2.32254
-2.4725 0.459691 1.95486
0.483201 0.183391 1.00334
-2.8032 0.558391 2.84956
-2.8737 0.573791 2.98442
0.597202 -0.0158091 1.39045
1.1359 -0.345109 1.09348
-1.134 0.833491 2.64628
-0.693299 0.456291 2.41796
-3.2413 0.670591 1.41818
1.0725 -0.142209 -0.143225
1.0538 -0.117109 0.0109251
0.0999022 0.129091 0.626105
-3.111 0.632791 2.248
0.0262023 0.176191 0.973655
0.0776015 0.173591 0.979645
-0.00499818 0.173691 1.01529
-1.2484 0.360691 1.7286
-3.8446 0.882991 3.15049
-1.7143 1.00979 2.73048
0.285102 0.265991 2.12742
-1.7119 1.04569 3.32196
-2.9483 0.750491 3.85724
-2.0285 0.311791 -0.102715
1.2907 0.0134906 -0.576255
0.965901 -0.32221 1.87742
-0.877799 0.243991 0.829095
-2.035 1.11139 2.60171
-1.1247 0.306191 1.94017
-2.0684 1.21157 3.71537
-0.169599 2.36941 3.19858
0.263803 0.0871906 1.62631
-1.9605 0.84769 2.43405
-1.7633 0.589491 1.77985
-1.6795 0.591891 1.16884
-2.4552 0.743791 2.57665
-3.4258 0.752291 0.438535
-3.4471 0.752091 0.462535
-3.1399 0.641691 0.462225
-3.3489 0.706091 2.02692
-3.5559 0.806291 2.65023
-3.7295 0.849191 3.13952
-2.4842 0.459691 1.95603
-3.3363 0.733791 3.35646
-0.124898 0.380991 -0.253655
-2.7183 0.540591 2.74473
-2.9797 0.609591 3.41606
-1.3727 0.388791 1.53824
-1.5317 0.96229 2.80713
-0.441299 0.34489 1.26388
-0.556899 0.34079 1.56885
0.707102 0.178091 0.135345
-1.7172 1.04119 3.39228
1.0571 -0.154609 -0.0489948
-0.721198 0.493891 2.4407
-0.815198 0.736791 2.80409
1.8365 -0.915409 -0.904715
0.0326014 0.141291 1.69062
0.0205012 0.379491 1.87812
-0.146499 2.35497 3.46981
0.730601 -0.052909 1.57067
1.089 -0.372709 1.50328
0.308902 2.20773 3.23163
0.272302 2.21554 3.37268
0.276002 2.2227 3.44107
0.216302 2.23748 3.53984
0.402902 0.34979 2.81887
0.595203 2.11972 3.38669
-3.6821 0.842891 0.396565
-3.9015 0.91029 2.72617
-2.747 0.520691 1.22754
-2.0738 0.30909 0.465645
-3.0248 0.619991 2.23495
-2.4871 0.430291 1.60439
-2.596 0.482991 1.99611
-2.5481 0.470091 1.98844
-3.129 0.667591 2.96094
-2.6243 0.486391 2.48403
-0.358098 0.485491 0.0936653
-1.2008 0.335891 1.35162
-2.7374 0.545891 3.18715
-2.8205 0.551091 3.54327
-0.0566988 0.180791 0.614435
0.0126009 0.172591 0.564225
-0.0726976 0.163491 1.17043
-1.736 1.04829 3.59475
-0.448398 0.301691 1.85429
-0.555099 0.335391 2.09717
-0.780099 0.559491 2.56232
0.469602 0.204391 1.00682
-0.334699 0.267791 2.14269
1.1084 -0.338109 0.653595
-1.8767 0.244191 -0.240465
-3.2049 0.668491 1.75707
-2.7783 0.534991 1.56632
-2.5192 0.46429 1.45018
-2.7676 0.545691 2.05184
-2.605 0.488491 1.95224
-2.7967 0.546991 3.50856
0.339301 0.0918913 0.385465
0.388803 0.0598907 0.784125
-0.3731 0.292691 1.81141
1.7619 -0.892209 -0.609335
-0.0116987 0.417591 2.02729
-0.324899 0.347291 2.38273
2.1639 -1.01781 -1.03164
0.573902 -0.0103093 2.06414
0.205503 2.25231 3.44675
-1.6868 0.210391 0.698065
-2.7131 0.525991 2.421
-2.624 0.494391 2.61871
-2.0444 0.819091 2.3343
-0.160397 0.225591 0.426925
-1.7405 1.05819 3.36317
-0.661298 0.372591 2.12778
-0.270799 0.308291 2.24259
0.571102 -0.0112086 1.37916
0.601602 -0.0139094 1.38341
0.719202 -0.0398093 1.33549
-3.7013 0.805791 -0.0458648
-2.7814 0.561891 1.61007
-2.1504 0.35969 1.06873
-1.9991 0.913791 1.39236
-1.9675 0.289691 0.970065
-2.0204 1.12729 2.65117
-2.8577 0.553391 3.20521
-0.889598 0.255091 1.38577
-0.480598 0.319991 1.68675
-0.521199 0.326491 2.17063
-0.630298 0.679891 2.67009
-1.238 0.869591 2.67317
-1.9941 1.11559 2.66767
0.0111017 0.178291 0.543545
-0.0153989 0.146191 1.1958
0.324802 0.0560912 0.826535
-0.884398 0.427491 0.0303753
-0.966199 0.470991 0.198435
-0.920298 0.415691 0.204215
-1.07 0.31829 1.92489
0.122602 0.0822906 0.518155
0.371602 0.0884914 0.572775
-2.5316 0.487391 1.90153
-0.135499 0.173691 0.716555
-3.727 0.832691 0.0476652
-3.5984 0.805591 0.0708452
-3.4001 0.742791 0.473305
-3.16 0.654491 0.0602253
-3.5549 0.806091 2.65277
-2.948 0.559391 -0.284435
-3.3765 0.751891 2.5526
-3.1675 0.656891 1.93581
-1.6958 1.01549 2.92656
-1.3479 0.0820913 -0.489445
-1.7311 1.04979 3.59423
-1.6662 1.03239 3.59574
-1.5768 1.09569 3.86796
-1.1442 0.836091 2.64167
-1.0982 0.422691 1.80754
-0.642499 0.369391 1.31934
-0.143098 2.35175 3.57077
-0.0407991 2.32051 3.46268
0.0467025 0.188591 1.01529
0.210801 2.2378 3.44418
0.272101 2.22251 3.37169
0.308702 2.20782 3.23289
0.477101 0.0275907 1.32485
0.595903 -0.00950916 1.57585
0.597402 -0.0158091 2.10078
1.418 -0.0807086 0.113235
1.058 1.97415 3.27113
-3.6885 0.84839 0.393825
-3.424 0.750891 0.662595
-3.3058 0.704191 0.197255
-3.3069 0.697091 1.02716
-2.5457 0.46849 1.43838
-2.282 0.371991 0.300675
-2.681 0.518191 2.3617
-2.5986 0.484491 1.99249
-2.1818 0.329991 0.0126053
-2.1446 0.330691 0.0302752
-2.1435 0.337691 0.0869752
-2.4998 0.474391 1.98668
-2.597 0.493591 2.54632
-1.9224 0.249891 -0.353185
-2.714 0.524891 3.60185
-1.9188 0.265091 0.943235
-1.7569 1.05879 3.37747
-1.1673 0.348191 1.66618
-1.1287 0.433191 1.79303
-0.835898 0.232591 0.463925
-1.0051 0.269291 2.21343
-0.107499 2.3405 3.43471
-0.366998 0.27959 1.75045
0.272601 0.0893907 0.331785
0.462701 0.205691 1.00648
0.583001 -0.0162087 1.48232
0.507802 0.010991 1.82825
0.688202 -0.042409 1.82768
0.753602 -0.0657092 1.75732
0.849002 2.40151 3.98736
1.4954 -0.803109 -0.674005
-3.7122 0.843591 0.148505
-3.7374 0.846191 0.416315
-3.5827 0.801391 2.32708
-3.5378 0.803691 2.55804
-2.8391 0.542491 0.653055
-2.7444 0.520491 1.20265
-2.4427 0.427191 0.264205
-2.6269 0.497891 1.97029
-2.6 0.475891 2.47131
-2.4339 0.442891 2.1507
-1.6979 1.01769 2.71107
-1.2848 0.378091 1.75808
-1.2643 0.869791 2.79631
-0.233098 0.234391 0.786305
-0.367698 0.480191 2.54563
-0.286698 0.30699 2.20244
0.499702 0.0143909 1.53969
1.0943 -0.370509 1.35841
1.1063 -0.367709 1.32075
-3.5945 0.796691 0.986245
-3.3009 0.705191 0.997305
-3.579 0.816891 2.5883
-2.9954 0.601691 0.729485
-2.7635 0.543291 1.48374
-2.0647 0.30849 0.487065
-0.478799 0.535791 0.125785
-0.548799 0.33659 1.52597
-0.624198 0.363691 2.1082
-0.451999 0.308791 1.6741
-0.373899 0.283291 1.84523
0.808902 0.100591 -0.359155
0.528402 0.011691 1.33114
0.570703 -0.00570877 1.52939
0.686402 -0.00090893 1.22642
0.663202 -0.0350095 1.58662
0.666202 -0.0399095 1.90291
1.0999 -0.329709 1.68603
-2.8284 0.541791 -0.318655
-1.349 0.0871906 -0.352015
-0.582299 0.350891 1.82022
-0.279698 0.268091 0.783975
-0.548698 0.333191 2.19563
0.132402 0.166991 0.318765
0.109401 0.144991 1.18907
0.576803 -0.013609 1.59616
0.664302 -0.0307093 1.39045
-4.0396 0.951791 2.42672
-3.1335 0.653691 0.452285
-1.9241 0.758891 2.24422
-1.0625 0.338291 1.20139
-0.665698 0.373291 1.89496
-2.0546 0.909891 1.37858
1.0319 -0.32291 1.80367
-2.0312 1.11809 2.92377
-2.5499 0.476791 1.91242
-1.2285 0.46639 0.862665
-0.193999 2.38298 3.30668
1.5901 -0.20991 0.0235651
-0.351899 2.36078 3.22141
-3.8832 0.884091 1.22196
-3.5738 0.814191 2.53191
-3.3952 0.750691 2.40776
-3.6013 0.805891 0.0720952
-2.6007 0.48469 1.98781
-2.8414 0.547691 0.562175
-1.7295 1.04839 3.59538
-2.5507 0.467591 1.43926
-2.2984 0.37029 -0.292195
-2.1329 0.320891 0.492845
-2.1995 0.341991 0.00729519
-1.9704 0.279391 0.868165
-1.152 0.837691 2.64144
-1.9227 0.248591 -0.346985
-1.2174 0.340991 2.0956
-1.146 0.435191 1.82978
-1.1328 0.434391 1.81691
0.208102 2.24009 3.44514
0.212001 2.23718 3.37461
0.219503 2.23499 3.27099
-0.846497 0.22759 1.91877
-1.318 0.0770911 -0.551805
-0.571698 0.341891 2.07667
-0.672198 0.542691 1.01167
-0.403798 0.291191 2.0755
0.592202 2.11967 3.44185
0.626802 2.11156 3.47592
-0.354699 0.280491 1.83102
-0.610599 0.581391 0.0432852
-0.580199 0.528291 -0.0418849
0.727902 2.07868 3.37321
0.087802 0.454791 2.59526
-0.006299 0.400191 1.99276
0.018201 0.185491 1.02431
1.0235 1.98196 3.23782
0.711802 0.250291 2.63955
0.504602 0.0108909 1.83997
0.537801 0.235091 0.0731452
0.899502 -0.308509 1.8758
0.990202 -0.143309 0.0135053
1.2972 -0.233809 0.377215
1.508 -0.803409 -0.683155
1.9221 -0.931009 -0.875895
-3.5535 0.806091 2.65038
-3.6698 0.822391 2.10726
-3.7339 0.841291 0.416815
-3.7158 0.839791 0.415465
-3.697 0.835191 0.428295
-3.7266 0.837491 -0.210455
-3.1695 0.660191 1.93062
-3.3084 0.711091 0.157205
-3.1182 0.644291 0.472845
-2.9903 0.606191 0.969895
-3.1557 0.649191 0.0111852
-2.7443 0.536491 1.47514
-2.9186 0.571591 -0.204825
-2.4022 0.413191 0.720685
-2.4514 0.430891 0.344755
-2.2924 0.374691 0.258285
-2.281 0.37019 0.305415
-2.1443 0.328991 0.0846153
-1.9184 0.26559 0.973425
-1.3858 0.392991 1.91387
-1.924 0.25779 -0.306265
-1.0073 0.270391 2.20771
-1.1086 0.308191 1.47419
0.182002 2.24178 3.23541
0.303901 2.21384 3.57217
-0.615998 0.358591 1.83317
0.628702 2.10998 3.44055
-0.368999 0.281391 1.8358
-0.520598 0.549291 0.312935
-0.502898 0.553491 0.314825
-0.421899 0.529191 0.0949353
0.0370017 0.327591 2.10826
-0.353099 0.492991 0.0609351
0.0746012 0.399591 1.88188
0.941102 2.00857 3.24718
0.453702 0.334791 2.88595
-0.105298 0.218391 0.328145
-0.0147981 0.181691 0.453405
0.328403 0.0738906 0.716445
0.384603 0.057291 0.756065
0.256202 0.263991 -0.305955
0.608602 0.200091 0.315085
0.765402 -0.059209 1.3177
0.486102 0.193391 -0.302435
0.916601 -0.310509 1.89249
1.0825 -0.28431 1.83702
0.969401 -0.335909 0.567225
1.1054 -0.33481 0.881895
1.0108 -0.135409 0.0634852
1.75 -0.888009 -0.599475
1.9089 -0.936509 -0.437215
-3.5425 0.793591 2.36876
-3.398 0.745391 2.30477
-3.3507 0.728992 2.31751
-3.738 0.851291 0.368685
-3.0351 0.611391 1.39645
-2.6893 0.521791 1.20721
-2.5025 0.469091 1.93625
-2.0198 0.798291 2.32865
-2.0564 0.30279 0.977995
-1.9685 0.29019 0.911755
-1.9221 0.271291 0.934445
0.0937014 2.27539 3.24542
-0.313598 0.693491 2.97702
-0.4524 0.308791 2.24886
-0.361699 0.277091 2.0935
-0.369998 0.27819 1.74514
0.0234023 0.322591 2.15694
0.326701 0.37029 2.80497
-0.190198 0.235891 0.388655
0.116702 0.0889911 1.38958
0.205102 0.093091 1.46158
0.490401 0.0398912 1.23864
0.665302 -0.041009 2.06173
0.507602 0.048891 1.20949
0.751601 -0.0685092 1.75065
0.618501 0.222091 0.364635
0.629102 0.167991 0.144565
1.0145 -0.345909 1.84698
1.4777 -0.790709 -0.539395
-3.3662 0.728391 2.27012
-3.681 0.829391 0.374225
-3.3094 0.711591 0.998265
-1.9349 1.11439 3.53493
-0.582198 0.336691 1.59898
-0.545898 0.34069 1.72867
-0.548999 0.340991 1.58471
-0.377399 0.285291 1.58719
0.0758009 0.45729 2.6092
0.571302 -0.00550945 1.58973
0.744202 -0.0616094 1.59354
1.3423 -0.467309 1.18496
-3.2678 0.685591 1.32282
-1.7506 1.04989 3.58423
-2.5428 0.463691 1.50759
-1.825 0.888891 1.42243
-0.487098 0.332591 1.57067
-0.375499 0.275891 2.0622
-0.417499 0.290591 1.59888
0.538602 0.00309078 2.12322
0.534702 0.00369064 1.60026
0.566202 -0.00420864 1.52834
0.531303 0.0252914 1.27003
0.743901 -0.0625087 1.53621
1.0079 -0.34331 1.19166
-1.9134 1.11239 3.23681
-2.5137 0.467991 1.88022
-1.1068 0.566291 0.0978853
-0.622098 0.409591 1.07688
-0.503799 0.33509 1.3155
-0.244798 0.272091 0.738635
-0.0162992 0.186691 0.389865
0.00550176 0.205191 0.338955
-1.2682 0.355691 1.87748
-0.505199 0.333291 1.44145
-0.339099 0.287791 2.24028
0.566701 0.240591 0.0580152
-1.9923 1.14809 2.91198
-1.6628 0.483391 1.99927
0.450801 0.0570907 0.988645
0.502502 0.233891 -0.0196647
0.722202 0.164491 0.148215
1.3566 -0.245509 0.674375
-2.0674 1.12979 2.88594
-2.0149 1.09719 2.75252
0.625902 0.198491 0.572015
-1.9687 0.755991 2.01545
1.1552 -0.291209 0.309715
-2.0218 1.15828 3.56104
0.278701 0.110191 1.04094
-3.6143 0.810591 2.31747
-3.8866 0.885091 1.22537
-3.5422 0.779291 1.53577
-3.4799 0.746391 1.33051
-3.7137 0.839491 0.842005
-2.6008 0.488191 1.98451
-0.149098 2.34958 3.33795
-3.9322 0.911091 -0.0826449
0.180402 2.24641 3.57267
-1.8294 0.746091 2.22976
0.267303 2.21653 3.54302
-1.8896 0.601091 2.06742
-2.7486 0.522391 1.01119
0.220903 2.23614 3.27291
-2.8393 0.547191 0.625355
-1.8962 0.950891 1.47134
0.512801 2.14885 3.46192
-2.9929 0.622091 0.200055
0.591703 2.12292 3.43987
0.691102 2.08849 3.46941
-1.4098 0.394291 1.89534
-2.9181 0.569791 -0.207865
-1.4978 0.467691 1.54892
-2.5694 0.459891 0.0933854
-2.442 0.426591 0.255305
-1.1244 0.428091 1.83978
-2.3023 0.384491 0.406615
-2.7687 0.503091 -0.250365
-2.464 0.423091 0.145925
-2.5534 0.458991 0.0202652
-0.282798 0.568391 2.70561
-1.4699 0.460391 1.31353
-1.9968 0.28879 0.704275
-2.3042 0.381591 0.275005
-0.0999975 0.511191 2.82185
-2.1049 0.31819 0.454625
-1.121 0.305991 1.4351
-2.1618 0.332391 0.122165
-2.2003 0.341191 0.0131951
-1.3089 0.41869 0.967425
-0.161498 0.338091 2.08726
0.00830175 0.416991 2.0019
-1.0778 0.342491 0.598775
-1.8777 0.249691 -0.429165
-1.3265 0.0781907 -0.342595
-1.3449 0.086091 -0.528235
-0.0014982 0.185091 1.01861
0.014802 0.183091 1.02081
0.0420008 0.181591 1.02154
0.480703 0.0245914 1.55042
-0.224898 0.255091 0.456275
0.751601 -0.0580093 1.32307
0.539602 0.234791 0.0776251
1.0976 -0.32991 0.657685
1.5534 -0.809509 0.343755
1.5232 -0.809109 -0.646725
1.9204 -0.934109 -0.879465
2.1313 -1.00441 -1.16726
-3.6817 0.832491 3.27187
-3.2319 0.682091 3.23998
-3.2376 0.685091 3.20664
-2.7665 0.543891 3.14611
-3.8628 0.883791 1.20756
-3.913 0.901491 1.01036
-3.1633 0.658191 1.96181
-3.5023 0.761992 1.30694
-3.7075 0.844691 0.424495
0.239001 2.22666 3.58032
-3.1507 0.649391 0.689445
0.223201 2.23816 3.46114
-3.1152 0.640291 0.470045
0.223702 2.23367 3.22384
-1.9074 0.951491 1.48623
0.533202 2.14639 3.46342
-0.743299 0.711591 2.8122
-2.3948 0.41379 0.722665
-2.4546 0.432491 0.392755
-2.456 0.424491 0.121715
-1.3436 0.37999 1.48018
-0.427898 0.299091 2.28894
-2.2042 0.342991 -0.0686848
0.525602 0.32169 2.8059
-0.958197 0.272291 0.935425
-1.8976 0.246991 -0.244255
-0.651698 0.546891 1.00585
-0.661899 0.559091 0.976065
-0.0976991 0.160491 1.16723
0.674502 -0.0353089 1.71083
-0.533298 0.503991 -0.270025
0.446002 0.200491 1.01348
0.183301 0.114491 0.614105
0.658601 -0.0018092 1.2308
-0.309499 0.430491 -0.221925
-0.271998 0.42849 -0.268855
0.230502 0.103391 0.363425
-0.042098 0.357791 -0.273095
0.494401 0.23819 0.0280552
0.325002 0.222791 -0.226295
0.409001 0.211691 -0.272905
0.864202 0.129691 0.0547352
1.0351 0.209091 -0.515755
1.7433 -0.890209 -0.574105
-3.1835 0.684491 3.41064
-2.7015 0.652391 3.81666
-3.2929 0.717791 3.06385
-3.6001 0.807991 2.36748
-3.6397 0.81049 2.10981
-3.4111 0.762591 2.37762
-1.7399 1.05029 3.59202
-3.9788 0.921891 1.16994
-3.529 0.767491 1.60642
-3.9146 0.899091 1.03545
-3.5654 0.783391 1.45665
-3.1934 0.669791 1.74403
-3.2749 0.696191 1.22041
-3.1309 0.657391 0.681685
-3.1076 0.648591 0.650125
-2.6742 0.519491 1.22536
-2.773 0.520791 0.981695
-2.8647 0.551991 0.608655
-1.6464 0.630391 1.65134
-0.758998 0.572491 2.58931
-2.4814 0.432991 0.400525
-1.9859 0.285991 0.917265
-1.9373 0.277191 0.964125
-1.9167 0.270891 0.939165
-1.3703 0.386991 1.53524
-2.544 0.459091 -0.111845
-2.0597 0.316391 0.476745
-2.4025 0.40739 -0.114055
-0.579898 0.346191 2.07124
-0.429298 0.293791 2.08278
-0.379798 0.282791 2.10314
-2.2679 0.368691 -0.309525
-0.581998 0.344091 1.54351
-1.8985 0.254891 -0.206105
0.0216018 0.33799 2.10257
-0.625299 0.378991 1.25089
-0.4356 0.340391 1.26262
0.534301 0.00519078 1.8986
0.571302 -0.00700863 1.58468
0.00390149 0.164391 0.608065
0.739402 -0.0581094 1.58241
0.468402 0.203191 1.00588
0.402803 0.0614909 0.818715
0.299401 0.101091 0.361095
0.588802 0.174291 0.260935
0.633601 0.198691 0.207695
1.4192 -0.106909 0.133925
1.5825 -0.835909 -0.451445
-3.0885 0.621191 3.25232
-3.3657 0.732191 2.68197
-3.4183 0.772591 2.30222
-3.1594 0.668191 2.48415
-3.4813 0.745691 1.41029
-3.747 0.854191 0.792135
-3.5798 0.793691 0.987075
-2.7713 0.538991 1.46981
0.647702 2.10333 3.58342
-1.3762 0.374591 1.95514
-2.4994 0.438591 0.103935
0.996801 1.99652 3.29871
-2.3844 0.393191 -0.178385
-2.3693 0.404691 -0.226915
-0.487699 0.308191 2.09261
-0.666299 0.376891 1.77231
-0.551898 0.338391 1.4541
-1.8633 0.247491 -0.189195
-0.346498 0.487791 0.0983852
0.944302 -0.306909 1.97013
1.4881 -0.802609 -0.480915
-3.8715 0.892191 1.27997
-3.9384 0.901391 0.682355
-3.402 0.746091 0.695925
0.0874014 2.27543 3.24023
-2.8256 0.537691 -0.306295
-0.541299 0.333791 2.02105
0.279801 0.382391 2.73978
-0.529399 0.330991 1.68951
-1.1741 0.528491 0.360785
0.630002 -0.0304089 1.74561
0.593402 -0.0144091 1.6936
0.968001 -0.344909 2.01948
-0.0569982 0.360691 -0.244895
0.727001 0.160491 0.0195351
-3.2689 0.708891 3.03626
-2.0047 1.11899 2.80082
-2.7023 0.518791 1.51079
-1.2971 0.87649 2.83688
-0.523299 0.323991 1.50471
0.576702 0.287191 2.83447
0.142501 0.294291 -0.269155
-1.9221 1.09209 2.6671
-1.5766 0.45729 2.14898
0.145902 0.101591 1.11177
-0.0975981 0.193691 0.285735
0.118302 0.143791 0.534805
1.1591 -0.361709 1.38192
1.3515 -0.493709 1.10225
-1.5927 0.983191 2.73166
0.162702 0.157491 0.392075
-0.331498 2.35091 3.54613
-0.0141992 0.182991 1.899
0.0741015 0.211691 1.40846
0.287101 0.0628909 1.54399
0.596603 0.181491 0.143175
-3.4299 0.770791 3.20292
-3.1646 0.682691 2.97036
-3.4499 0.765291 2.78195
-3.3249 0.709891 2.57326
-3.176 0.674891 2.5979
-2.0049 1.11499 2.76774
-1.9071 1.07549 2.81225
0.506002 2.15343 3.45572
-3.6626 0.823791 2.02836
-3.36 0.719291 2.05404
-2.8951 0.562291 2.20389
-1.0545 0.804491 2.68556
-3.2172 0.683191 1.72487
-3.5928 0.796091 1.4103
-1.8387 0.736691 2.1826
-3.7697 0.85969 1.17651
-3.7523 0.854491 1.14484
-3.9136 0.900291 1.02305
-3.8909 0.890291 1.02977
-3.3592 0.732991 1.31241
-1.592 0.462291 2.19874
-3.8736 0.883091 1.01152
-3.2465 0.685291 1.2549
-3.7101 0.842191 0.843495
-1.2267 0.343691 2.0869
-2.54 0.467191 1.43326
0.334201 0.366391 2.81361
-2.7203 0.517491 1.23915
-1.165 0.430891 1.86828
-0.455499 0.306491 2.09157
-0.635499 0.365891 1.81554
