0.389236 0.0079304 0.259493
0.726276 -0.123253 0.635028
2.53374 -0.285942 1.23066
2.63479 -0.417944 0.889654
0.503954 -0.461344 -2.15961
1.28342 -0.752364 -1.30155
2.37053 -1.12678 -0.277892
3.05154 -1.36388 0.17161
1.69214 -0.859657 -1.53216
0.827134 -0.537243 -2.69874
3.16524 -1.3716 -0.156448
-0.482092 0.253149 1.24939
-0.259558 0.179138 1.34868
2.52811 1.2697 1.49479
0.30155 0.284105 0.960282
0.781779 -0.141551 0.79074
1.99011 -0.213386 0.376777
1.85344 -0.321229 0.185301
-2.86693 0.556611 0.538199
1.19285 -0.704327 -1.37783
1.66194 -0.864493 -1.086
2.76431 -1.26435 -0.162122
2.38624 -1.09638 -0.911103
0.705797 -0.486515 -3.11386
3.24471 -1.40488 -0.090742
2.67654 -1.16737 -1.66211
-1.15436 0.519465 0.696103
-0.425076 0.294841 -0.101374
1.87168 -0.182587 0.464264
-0.520831 -0.117224 -1.92005
2.05629 -1.00483 -0.938756
3.16255 -1.37041 -0.123515
4.21118 -1.54173 -0.437574
4.23525 -1.54078 -0.639457
-0.533825 0.570499 -0.698024
0.0484286 0.101068 1.45874
2.45861 -1.14684 -0.495918
0.682619 -0.284602 0.200495
-0.0103441 0.309856 0.815977
4.16078 -1.52676 -0.399212
-0.0774373 0.114389 1.43958
-0.37359 0.224786 1.21968
0.286666 0.300765 0.966498
0.260119 0.246421 0.895195
1.04308 0.0578597 1.22938
-0.835048 0.398897 0.39237
-0.981756 0.464282 0.302585
0.436179 -0.0323328 0.585786
0.690036 -0.106396 0.653867
0.367898 0.00763408 0.477443
-0.456368 0.296932 -0.0735864
2.7644 -0.454848 0.695656
0.839229 -0.304943 -0.068929
1.39611 -0.526264 0.0564519
2.66792 -0.413677 0.390706
0.556752 -0.499486 -1.68627
3.62114 -1.51185 -0.552064
0.0029618 -0.241804 -3.23918
-0.0689359 0.105454 1.56746
-2.97391 0.600803 0.352238
-0.260033 0.157356 0.537634
0.604526 -0.0791898 0.798312
0.615988 -0.0735639 0.676258
0.586485 -0.501581 -1.1769
1.6751 -0.896623 -0.613562
2.38826 -1.14101 -0.460879
2.45119 -1.16876 -0.422337
0.970683 -0.555528 -3.45143
1.08524 -0.589008 -3.38927
-0.300287 0.193184 1.26838
-0.411555 0.23328 1.19095
-0.69487 0.344898 0.99447
2.31816 -0.311186 0.870342
1.87737 -0.187393 0.462756
0.588471 -0.248071 -0.121441
0.631088 -0.25394 -0.172995
2.20168 -0.274015 -0.0566187
1.76671 -0.438555 -0.275904
2.6961 -1.25091 0.157471
3.01462 -1.35491 0.241961
-0.700772 -0.0568871 -2.19615
3.57914 -1.37497 0.0504988
3.56665 -1.36783 0.0222775
2.42808 -1.09249 -1.88861
2.59136 0.970463 1.23433
-1.11824 0.672587 0.228576
0.303155 -0.423425 -1.06417
1.22564 -0.713602 -1.37308
3.19547 -1.38212 -0.526526
-0.277261 -0.178133 -2.76719
2.76644 -1.1928 -1.57558
-0.277837 0.27652 0.748704
1.3038 -0.743556 -1.25033
1.62199 -0.853954 -1.24887
0.90164 -0.557966 -2.64521
2.18692 -1.00881 -2.04208
0.894174 -0.367352 0.279429
2.30677 -1.07134 -1.2
0.616155 -0.4805 -2.61985
4.16299 -1.51965 -0.401024
-0.275467 0.24794 0.571542
2.60446 -1.19698 0.267149
2.60807 1.10093 1.42432
-0.192304 0.14393 1.54558
-0.0727879 0.116105 1.43672
-0.379429 0.205754 1.39089
-3.51603 0.779003 0.156843
2.00815 -0.229051 0.470072
-1.04608 0.511097 0.067494
-0.69164 0.370282 0.00146437
-3.20904 0.697023 -0.194602
-0.629931 0.356614 -0.0410856
-0.527339 0.323499 -0.0636449
0.863957 -0.204974 0.108496
2.99983 -1.35469 0.26668
2.84078 -1.29605 -0.122373
2.78484 -1.24999 -0.257023
3.23431 -1.38586 -0.360666
3.2181 -1.37754 -0.394493
1.49156 -0.820311 -0.923921
2.92546 -1.29269 -0.642873
3.55634 -1.47522 -0.682021
2.84554 -1.24376 -1.0069
1.58334 -0.815048 -1.8429
1.6315 -0.828406 -1.8354
0.90595 0.0889668 1.50729
2.54875 -0.333502 1.19356
-3.30031 0.698532 0.795931
0.565417 -0.0627995 0.749109
1.70831 -0.136643 0.728765
0.643146 -0.0859501 0.667008
-2.97486 0.601051 0.356094
2.55801 -0.38568 0.667744
2.84171 -0.476273 0.595801
1.96622 -0.21013 0.467436
0.345888 0.025544 0.252799
2.26239 -0.30784 0.156902
0.585997 -0.248128 -0.0982515
-0.581313 0.597201 -0.730208
2.81648 -1.29081 -0.114355
3.23248 -1.39676 -0.0746336
2.39756 -1.12465 -0.41104
2.95207 -1.30019 -0.319732
3.34441 -1.4224 -0.435896
0.717941 -0.562479 -1.05857
0.734098 -0.569709 -1.07475
1.4514 -0.799159 -0.964061
3.61782 -1.51 -0.556349
2.10403 -1.0147 -0.933488
3.54691 -1.47616 -0.670837
1.71868 -0.882337 -1.18116
0.560127 -0.497653 -1.6902
0.980375 -0.621683 -1.80208
0.839008 -0.541231 -2.69904
1.26211 -0.683664 -2.75292
2.51687 1.28281 1.48682
2.49961 1.2214 1.37879
1.28644 -0.00606425 0.91403
1.54494 -0.0875577 0.939412
1.31548 -0.0244215 0.90034
-3.10892 0.62821 0.571315
-0.170681 0.275288 0.65865
2.43284 -0.356084 0.857853
-2.87877 0.557156 0.488882
0.682183 -0.107957 0.649694
0.679107 -0.100442 0.627259
0.508908 -0.0370376 0.430381
-1.34528 0.79967 0.063276
2.00053 -0.219934 0.484936
2.04521 -0.239413 0.476303
2.21512 -0.278016 0.0061068
2.90278 -1.30193 0.131561
3.56838 -1.36889 0.0218483
1.68199 -0.868094 -1.26154
2.41606 -1.10391 -1.15654
0.552181 -0.484803 -1.71158
2.88197 -1.2318 -1.30474
1.09524 0.0396788 1.3824
2.6128 -0.412943 0.890713
1.25766 -0.499148 0.139826
-0.591323 0.607679 -0.767492
0.458108 -0.175957 -0.480739
3.20137 -1.37944 -0.521154
1.448 -0.80267 -0.919539
1.16076 -0.697552 -1.38897
1.63431 -0.848811 -1.31771
1.68896 -0.839566 -1.90614
0.125972 -0.389152 -2.64109
0.088201 -0.292491 -3.05079
-0.466782 0.31645 0.304383
-0.233382 0.224094 0.00136097
2.2554 -0.296012 0.122821
1.80947 -0.451178 -0.223238
4.17788 -1.54053 -0.308615
2.72109 -1.17937 -1.5712
-0.723398 0.386931 -0.0657057
2.46985 -1.13859 -0.236592
1.65908 -0.863043 -1.02296
1.41414 -0.801385 -1.25027
1.35492 -0.751666 -1.3343
0.579357 -0.0516971 0.873659
2.4654 1.26194 1.39237
0.852708 0.110865 1.37127
2.42957 -0.348867 0.981739
2.57148 -0.395612 0.878606
2.67791 -0.436675 0.837121
1.24744 -0.0072436 1.17449
1.16252 0.0264223 1.11082
-0.0763839 0.11061 1.43771
2.83438 -0.473223 0.595287
2.84052 -0.480545 0.58191
0.517877 0.0513909 0.889024
1.74151 -0.132286 0.520537
2.02547 -0.232114 0.415189
0.617347 -0.0845738 0.751585
0.62228 -0.0793128 0.680415
0.736134 -0.121445 0.626808
2.90534 -1.31433 0.272084
3.0111 -1.3518 0.163882
0.503178 -0.0488712 0.4971
0.967608 -0.404739 0.442208
2.20449 -0.275949 0.0538776
0.277658 0.0436831 0.377054
1.30099 -0.505133 0.145214
3.43775 -1.48427 -0.234071
2.78821 -1.2508 -0.256207
2.33788 -1.10856 -0.186181
3.48348 -1.46521 -0.363305
3.004 -1.30846 -0.383592
2.30963 -1.09822 -0.289615
2.3313 -1.09673 -0.307121
-0.632111 0.359215 -0.0396474
-0.465463 0.296473 -0.0710679
-0.498588 0.316029 -0.0802255
0.585566 -0.237865 -0.205366
2.44467 -1.16367 -0.448292
2.23145 -1.07689 -0.433225
3.16973 -1.37247 -0.720992
-0.935332 0.491115 -0.288353
2.1845 -1.04061 -0.671113
1.65888 -0.896255 -0.629736
2.16584 -1.02469 -0.773528
-1.18617 0.724405 -0.572057
2.82902 -1.22306 -1.21748
1.64 -0.860103 -1.26353
2.30177 -1.0726 -1.32719
0.0959807 -0.348856 -1.26265
3.07351 -1.2944 -1.6115
-1.29266 0.693461 -1.48794
2.89133 -1.23742 -1.76005
1.60217 -0.830622 -1.87239
2.04456 -0.937119 -2.1574
0.765631 -0.518317 -2.75229
2.58176 1.1396 1.39128
2.54541 1.17715 1.38737
2.38203 1.30658 1.32305
2.65136 0.839522 1.19973
0.203821 0.307561 2.03948
2.72961 -0.371422 1.25337
0.390261 0.248064 1.80434
0.906187 0.0930444 1.50771
2.43136 -0.346443 0.999505
-0.714765 0.143342 1.66903
1.35503 -0.0391375 1.05552
0.00879707 0.0898079 1.37583
2.74588 -0.46988 0.651097
-0.403305 0.222625 1.41331
-1.08968 0.232495 1.57144
-0.969134 0.193754 1.44945
2.6458 -0.401201 0.388569
0.426583 0.0884217 0.859443
-0.724923 0.37388 0.941331
0.544667 -0.0645327 0.631992
2.97093 -1.35159 0.283917
-0.0267387 0.216741 0.704153
2.95357 -1.34489 0.259747
2.73773 -1.26161 0.295805
2.26103 -0.303896 0.156678
2.99548 -1.33351 0.1131
2.19395 -0.265748 0.0682978
2.23585 -0.285338 0.0591078
3.59112 -1.50027 -0.263776
2.70737 -1.23121 -0.158151
2.59768 -1.19754 -0.212908
3.11078 -1.34835 -0.322647
0.73912 -0.284651 -0.0331547
2.85451 -1.27519 -0.330427
3.3443 -1.42839 -0.435694
-0.893198 0.448711 -0.0121631
3.43164 -1.44462 -0.576351
3.58948 -1.48733 -0.610743
3.55447 -1.47687 -0.615849
-2.31445 0.836277 0.0834871
3.20949 -1.38389 -0.624806
3.32816 -1.40045 -0.93208
2.26879 -1.06013 -0.860816
-0.144171 0.0135262 -0.689058
-0.604183 0.592377 -0.680942
1.8191 -0.924032 -0.876243
-0.652613 0.585436 -0.704648
-0.711702 0.613899 -0.700135
2.10811 -1.01875 -0.932183
1.77571 -0.905798 -0.940204
3.39399 -1.40564 -1.20219
2.8857 -1.23618 -1.28321
2.29224 -1.0772 -1.26428
0.933153 -0.625743 -1.27369
0.0848821 -0.332165 -1.24878
0.614048 -0.530062 -1.32181
2.50783 -1.10102 -1.9339
2.24009 -1.02616 -2.03979
2.10706 -0.953373 -2.12845
1.95744 -0.910802 -2.15754
0.540584 -0.459631 -2.20667
2.4009 1.34598 1.38071
2.3009 -0.300744 0.87608
1.1278 0.046918 1.13644
-0.320014 0.197575 1.43482
3.03293 -1.35277 0.213584
2.74384 -1.26867 0.239795
2.20394 -0.274938 0.00715804
0.304666 0.0399082 0.357357
3.44809 -1.47953 -0.249071
2.86975 -1.27486 -0.349302
-2.8825 0.560127 0.465691
0.346906 -0.162011 -0.0467513
2.72191 -1.22991 -0.40159
-1.45489 0.839832 0.0586702
3.52233 -1.47244 -0.649945
2.06555 -1.00876 -0.508166
3.00064 -1.3004 -0.868143
2.2725 -1.05959 -0.884046
1.98277 -0.96812 -1.0083
1.6282 -0.861338 -0.983593
2.36381 -1.08519 -1.37429
0.632863 -0.528983 -1.34379
0.992481 -0.643512 -1.72988
2.44675 -0.361804 0.886712
1.52104 -0.082664 0.946736
2.95644 -1.32429 0.349966
2.9946 -1.34317 0.198893
3.04552 -1.38473 0.153279
0.361305 0.00365902 0.310985
2.20543 -0.281478 -0.0478781
4.11127 -1.53279 -0.282566
2.74033 -1.2198 -0.0333258
3.24548 -1.39012 -0.164006
3.37677 -1.45959 -0.186462
0.888805 -0.318315 -0.0556157
2.00687 -0.994682 -0.40387
3.38651 -1.42987 -0.669079
3.45192 -1.46209 -0.737616
0.433835 -0.165909 -0.487219
1.63294 -0.85108 -1.02165
0.99084 -0.560086 -3.45517
0.672639 0.163391 1.58949
1.07869 0.0560902 1.38828
1.09817 0.0353797 1.35263
1.33453 -0.027294 0.888819
1.93993 -0.201973 0.531874
2.03217 -0.226683 0.23864
2.92255 -1.31029 0.129835
-0.0160731 0.150277 0.187957
4.23312 -1.5445 -0.467888
4.18161 -1.53535 -0.561437
0.464214 -0.192064 -0.0575346
2.42067 -1.12086 -0.497147
2.10988 -1.02836 -0.837575
0.0934781 -0.334832 -1.32479
-1.28296 0.680085 -1.52391
2.46098 -1.08666 -1.91509
0.566563 -0.450921 -2.56355
1.84283 -0.170215 0.516845
1.98949 -0.220282 0.462099
2.881 -1.30797 0.327481
-0.188887 0.12336 0.520936
-0.498405 0.260062 0.355515
-1.10288 0.619436 0.212175
-0.923657 0.461649 -0.0629962
0.460993 -0.184251 -0.576917
2.21532 -1.02408 -1.99192
2.91802 -1.33514 0.260834
1.42321 -0.798661 -1.26435
0.131747 -0.30007 -2.86108
0.379886 -0.17098 -0.113071
0.185072 0.0333878 0.714196
0.0169579 0.000985798 0.637226
-0.107321 0.224026 -0.0776003
0.396337 0.159928 1.09543
0.250084 0.0781053 0.890708
2.10196 1.52507 1.95213
1.78052 1.63143 1.82397
2.49981 1.14193 1.30777
2.74396 -0.458849 0.653232
0.731175 0.138 1.57939
0.956523 0.0847443 1.23485
2.90827 -1.29858 0.0791143
1.61087 -0.0899616 0.685387
2.59984 -1.20637 0.137569
2.65143 -1.23382 0.0515727
3.3709 -1.43969 -0.381088
2.14399 -0.279389 0.277509
2.85844 -1.30312 -0.120952
3.91154 -1.59227 -0.694031
3.74646 -1.5497 -0.693844
2.10243 -0.249801 0.172873
2.96541 -1.30222 -0.324468
2.96944 -1.30279 -0.361099
2.99871 -1.3108 -0.400242
2.96312 -1.29607 -0.382159
-1.18049 0.2487 1.6892
0.189864 0.300877 0.988626
0.694467 -0.111002 0.656738
0.883076 -0.370345 0.492173
2.44723 -1.16805 -0.420072
2.64631 -1.21078 -0.580925
2.32462 -1.10764 -0.462114
2.20134 -1.0672 -0.414718
3.4639 -1.44413 -1.04637
3.26429 -1.37607 -0.94467
-0.704242 0.369994 0.941186
3.53029 -1.45094 -1.16625
1.73386 -0.912172 -0.442123
1.92016 -0.97875 -0.629682
2.51239 -1.13729 -0.990047
2.31519 -1.07636 -0.911616
0.110261 0.137603 0.137259
1.62528 -0.876617 -0.626182
0.591245 -0.237331 -0.202424
0.561647 -0.240964 -0.301269
1.92074 -0.957205 -0.946778
-0.972177 0.462512 0.29377
2.19242 -1.03596 -1.19731
2.4011 -1.08348 -1.2907
1.50461 -0.812409 -0.972078
-0.7006 0.380511 -0.00906274
-0.618062 0.346439 -0.0623505
2.91995 -1.246 -1.67923
-0.890605 0.441845 -0.0190168
1.62342 -0.84023 -1.23866
-1.52344 0.870679 0.152387
-1.3773 0.816468 -0.000259884
-3.05563 0.590161 0.546342
0.474095 -0.469154 -1.48248
0.254942 -0.391998 -1.45482
2.04429 -0.940183 -2.16025
1.12258 -0.682381 -1.84207
1.71044 -0.852409 -2.35251
1.01874 -0.623901 -2.12244
-0.163385 -0.250657 -1.7416
0.558518 -0.452514 -2.54094
0.892874 -0.577401 -2.92413
2.41821 -0.34175 1.00335
0.640029 0.174157 1.80532
2.69042 -0.418944 0.502973
2.63703 -0.395952 0.39201
0.804679 0.132962 1.38343
2.9556 -1.31295 -0.126181
3.38102 -1.4299 -0.404935
0.0274311 0.174209 1.39628
3.60791 -1.50419 -0.637376
3.52897 -1.4771 -0.65152
0.573378 -0.0563635 0.907897
2.84796 -1.2699 -0.329666
2.6004 -1.18559 -0.2166
0.492337 0.0948572 0.898768
3.34644 -1.42945 -0.624751
3.08095 -1.35075 -0.617977
2.39891 -1.1307 -0.287013
3.17343 -1.36695 -0.724198
2.40182 -1.13539 -0.345632
3.20421 -1.37385 -0.756703
2.42797 -1.13754 -0.374041
3.16887 -1.36132 -0.759868
0.413595 -0.0120047 0.600952
3.60854 -1.48323 -1.03474
2.45021 -1.15371 -0.458689
2.98615 -1.28988 -0.749104
2.68278 -1.22335 -0.628467
3.40465 -1.44194 -1.00099
2.00044 -0.992698 -0.40688
-0.650764 0.34833 0.870871
3.35581 -1.4 -1.15489
3.37741 -1.40911 -1.17975
2.65381 -1.187 -0.89397
1.66601 -0.889809 -0.634587
2.14244 -1.04456 -0.88027
0.16298 0.116341 0.0641773
2.18552 -1.04271 -0.922827
1.77693 -0.911987 -0.940064
1.57125 -0.837251 -0.993709
1.57068 -0.830093 -1.21765
-0.668173 0.396561 -0.211662
-0.922227 0.479606 -0.283303
-0.142766 0.00737422 -0.691192
-0.598427 0.593526 -0.677131
-0.693322 0.635815 -0.663399
-0.791105 0.662051 -0.636909
0.606171 -0.541156 -1.31942
0.682868 -0.537076 -1.3714
1.59663 -0.830336 -1.87301
-0.417676 0.354043 -1.12778
0.206391 -0.37647 -1.54091
1.26399 -0.727198 -1.94076
0.302747 -0.381958 -1.75706
-0.554626 -0.113439 -1.9296
1.39041 -0.71671 -2.92326
1.55511 -0.745271 -3.18636
2.60207 1.09861 1.40192
3.00458 -0.475354 0.999755
2.97691 -1.32688 0.347093
1.14443 0.0249433 1.34144
1.03564 0.064796 1.39569
2.88645 -1.31693 0.317666
3.23182 -1.39458 0.0940496
3.03488 -1.35771 0.206445
1.541 -0.0913946 0.942634
3.28551 -1.43371 -0.0524796
1.0098 0.0814852 1.20802
1.28766 -0.0183843 0.931253
3.72299 -1.55377 -0.521843
3.56156 -1.48855 -0.434632
2.78383 -1.27187 -0.130751
3.40445 -1.4386 -0.489859
3.08923 -1.34862 -0.354758
3.35264 -1.42074 -0.599536
2.54872 -1.18679 -0.205139
0.308956 0.178932 0.937557
2.28108 -1.09001 -0.144849
2.45097 -1.13975 -0.24909
2.25895 -1.07876 -0.273664
2.4606 -1.14053 -0.404315
2.24239 -1.07007 -0.412117
2.22133 -1.07425 -0.485877
2.25742 -1.07094 -0.547319
-1.36214 0.378402 1.21752
2.27498 -1.10336 -0.636272
2.22686 -1.05541 -0.671318
2.61281 -1.17671 -0.905035
3.24366 -1.35588 -1.33883
0.443013 -0.155627 -0.4387
3.10443 -1.30244 -1.65855
2.10417 -0.992003 -1.48507
1.64234 -0.857443 -1.3379
2.69922 -1.16414 -1.77681
0.328523 0.0716799 -0.783261
1.49294 -0.820863 -1.40379
-0.475012 0.424579 -0.799574
4.16512 -1.53883 -0.299749
0.463456 0.0659908 0.997544
2.72433 -1.23237 -0.404924
2.31013 -1.0878 -0.324985
1.98413 -0.988007 -0.653486
2.92129 -1.25572 -1.26102
0.136487 0.137353 -0.272078
2.61472 -1.16078 -1.57143
2.5659 -1.11984 -1.59884
0.179244 -0.376795 -1.746
0.812713 -0.526389 -2.71575
-0.0106665 -0.275879 -2.49054
3.00009 -1.34565 0.266837
0.752949 0.130488 1.38407
3.59113 -1.50672 -0.266905
2.99165 -1.31723 -0.578385
3.10708 -1.35221 -0.641797
1.93143 -0.954808 -0.659737
2.84091 -1.20711 -1.58619
2.89797 -1.26548 0.0632319
0.37753 -0.188267 -0.567104
-1.29612 0.676833 0.0250549
-0.0847245 0.269904 -1.04589
1.72609 -0.846522 -2.0962
-0.799787 0.498924 -1.14246
-1.25548 0.687345 -1.5288
3.22574 -1.46799 -0.0606719
1.75875 -0.135052 0.490596
-1.28311 0.38985 1.02434
2.78872 -1.20032 -1.51578
1.29689 -0.716424 -2.01658
3.00309 -0.564087 0.698542
0.0785458 0.00557851 0.704226
2.28761 -1.10041 -0.676449
2.60467 -1.18164 -0.832744
-0.0368325 0.0263046 0.432489
1.12621 0.0556384 1.43251
3.5371 -1.45849 -0.445372
-0.291269 0.158792 0.554298
2.49712 -0.359512 0.959022
-0.54231 0.48658 -0.660792
0.824749 -0.534115 -2.71057
0.786161 -0.548986 -2.65729
0.201283 -0.354427 -2.22961
-0.690282 0.629287 -0.662038
-2.79702 0.519875 1.02094
-1.09464 0.507636 0.0799793
2.18546 -0.992249 -2.06796
-0.503161 0.345888 0.358994
1.37238 -0.780454 -1.26926
2.14178 -0.998655 -1.63183
1.90124 -0.932073 -1.19018
0.21523 0.290379 0.944411
2.75514 -1.19723 -1.52142
2.04328 -1.01321 -0.739415
0.888997 -0.369113 0.480682
-0.0116158 0.105982 1.42408
2.96425 -1.26272 -1.34651
2.77838 -1.24823 -1.11266
2.27181 -1.09122 -0.2408
1.16161 0.0271922 1.08601
1.60618 -0.103042 0.645133
2.07331 -0.234548 0.201282
1.61777 -0.105993 0.652874
3.22201 -1.36246 -1.15432
1.18436 0.00759214 1.12418
1.5222 -0.087671 0.901308
1.44954 -0.0624155 1.07843
2.04235 -0.224637 0.492556
2.61518 -1.19325 -0.22888
2.44022 -1.15493 -0.0337696
2.67228 -1.22116 -0.192002
2.78217 -1.26194 -0.250267
3.13684 -1.36374 -0.408155
3.25608 -1.38831 -0.377518
2.98232 -1.33879 0.211917
3.08231 -1.37032 0.0961179
3.27785 -1.43945 -0.0931785
2.81519 -0.471578 0.605609
3.17539 -1.37229 0.124952
-0.637292 -0.063552 -2.25524
-0.527727 -0.119838 -1.90309
-0.967456 0.885449 -1.10499
0.585281 -0.458246 -2.14577
0.10385 0.141768 0.119805
0.141693 0.0936975 0.154628
1.85892 -0.919614 -1.31301
1.8331 -0.924833 -1.24957
0.812844 -0.309386 -0.0702216
0.284266 0.223594 0.906678
2.83305 -1.21463 -1.59286
1.01409 -0.406886 0.284739
2.01606 -1.00519 -0.729309
1.74031 -0.423927 -0.267905
0.570104 -0.0166423 0.890161
1.70498 -0.413854 -0.185577
0.596154 -0.0730162 0.865211
1.77062 -0.4361 -0.237502
0.153556 0.0776152 1.41462
2.5981 -1.1488 -0.952278
2.13446 -0.249419 0.109286
2.19641 -1.07644 -0.178669
2.38369 -1.13246 -0.3127
2.90845 -1.32539 -0.842979
0.913041 0.086583 1.58642
1.37112 -0.0368145 1.12845
2.7554 -1.24486 -0.368762
3.28314 -1.42531 -0.560468
2.62815 -0.419574 0.534098
2.05773 1.5448 1.54922
2.38591 1.28695 1.31895
3.39846 -1.46059 -0.162075
3.12626 -1.34679 0.233862
3.75521 -1.54797 -0.464522
2.56954 -0.298118 1.21316
4.3027 -1.56081 -0.697405
2.66514 1.43285 1.7507
1.3838 -0.74693 -2.09087
-0.458126 0.319805 0.294506
0.368538 -0.163725 -0.46356
-0.679962 0.319434 0.965013
0.416777 -0.00660307 0.452642
-0.400284 0.219891 1.27051
2.28583 -1.07952 -1.30326
2.63921 -1.16024 -1.54939
0.76571 -0.304337 0.277774
0.312453 0.281477 1.01492
2.92547 -1.25935 -1.23286
2.37995 -1.09104 -0.681497
2.26165 -0.32484 -0.0752446
2.37649 -1.12202 -0.336418
2.44236 -1.14192 -0.383869
2.81814 -1.26898 -0.697918
3.18479 -1.38873 -0.459213
3.01306 -1.31721 0.133683
3.63952 -1.51167 -0.515478
3.41149 -1.45769 -0.252399
1.84922 1.6055 2.0556
3.34812 -1.42715 -0.0624914
2.52935 -0.380862 1.13452
2.66025 -0.400961 1.03628
3.09762 -0.506588 0.724492
4.30334 -1.55901 -0.718946
4.18217 -1.52214 -0.555297
4.39593 -1.60131 -0.559539
1.71688 -0.856214 -1.57114
2.42885 -1.06224 -1.83879
2.35675 -1.05238 -1.3206
1.79855 -0.437278 -0.187346
0.56663 0.215552 1.60154
0.683559 0.176792 1.5012
0.904471 0.0920379 1.28536
2.13472 -0.240651 0.074793
1.90497 -0.184543 0.323013
3.02589 -1.30814 -0.844498
3.04337 -1.35144 0.0642873
4.2717 -1.54656 -0.586201
4.35393 -1.59259 -0.51373
4.55351 -1.58584 -0.588539
-0.346534 0.254607 0.494926
-0.00483876 0.0764318 0.834886
2.56195 -1.17037 -0.899764
1.97017 -0.202967 0.234143
2.90744 -1.27501 -0.837671
2.71998 -1.24822 -0.318823
3.06186 -1.30434 -0.648395
3.49872 -1.43627 -0.122291
2.02336 -0.228771 0.177257
2.89271 -1.28593 -0.520146
1.44522 0.0199014 1.19523
1.51111 -0.0461724 1.19123
2.87999 -1.29317 0.150486
3.34692 -1.43738 -0.234559
3.4513 -1.45153 -0.123989
3.13407 -0.514938 0.632731
2.0061 -0.935556 -1.8539
2.51044 -1.11131 -0.907713
2.87529 -1.305 -0.160543
3.30202 -1.40405 -0.0523604
4.09285 -1.51423 -0.275925
3.03051 -1.38661 0.00884907
-0.145276 -0.0796502 0.812606
0.792116 -0.302407 0.0424097
2.71201 1.23977 1.64542
0.16854 -0.316693 -2.81536
0.76688 -0.481532 -3.37394
-3.24012 0.668573 0.750697
-0.498893 0.583614 -0.855853
0.329288 -0.392456 -2.35227
1.33889 -0.66202 -3.39142
-0.122181 -0.25145 -1.8267
1.40587 -0.724324 -2.58243
-0.663948 0.439285 0.558548
-0.647028 0.341851 0.8603
0.834328 -0.591182 -1.14008
0.141329 0.106084 0.101578
0.988426 -0.669879 -1.32058
1.65152 -0.843941 -1.95933
-0.96892 0.185844 1.64513
1.31639 -0.738964 -1.37464
0.806518 -0.309713 -0.0730542
0.841219 -0.204589 0.0457953
-0.0199384 0.105239 1.42551
1.59305 -0.850105 -1.01105
0.516366 0.0475317 0.913316
0.73254 -0.120903 0.661693
2.12413 -1.00846 -1.19436
1.64592 -0.412078 -0.207587
2.13019 -1.02497 -1.16171
1.7431 -0.437109 -0.28085
1.18749 0.00847324 1.12158
2.92339 -1.24086 -1.67284
1.44432 -0.0678493 1.07954
2.91559 -1.26522 -1.24567
2.35364 -1.11355 -0.298098
2.39423 1.36741 1.38465
2.33806 -0.327624 0.818179
2.62685 0.877978 1.2118
3.07919 -1.37039 0.099959
3.12583 -1.36599 0.212751
3.75377 -1.54429 -0.555971
3.81963 -1.57963 -0.611781
-0.83312 0.880011 -1.40843
-1.03743 0.897901 -1.04143
0.0887695 -0.301493 -2.27607
-2.45416 0.460782 0.478779
-1.53178 0.451265 0.872062
0.356991 -0.455114 -1.06496
0.529514 -0.231419 -0.0906779
0.929764 -0.305326 0.0499318
0.511387 0.0322439 0.857216
-0.053949 0.087378 1.64337
0.741461 0.158571 1.4433
0.879432 0.100942 1.30966
1.87396 -0.961564 -0.583984
2.81485 -1.19964 -1.88189
1.20494 -0.103307 0.870535
1.41622 -0.0508152 1.02769
2.35999 -1.1105 -0.553956
2.34106 1.27373 1.20152
2.86953 -1.27904 -0.76258
2.38551 1.27729 1.31826
2.40459 -0.346049 1.01345
3.39503 -1.45068 -0.969547
3.12975 -1.35764 -0.402924
3.3455 -1.44046 -0.0163633
4.10147 -1.50451 -0.41737
4.20932 -1.54418 -0.502569
-0.575467 -0.0986796 -2.33879
0.266188 -0.334862 -2.97111
0.696246 -0.476084 -3.01727
0.157517 -0.358028 -1.73853
-1.52237 0.587251 1.05288
-1.43851 0.471561 1.10784
0.768933 -0.552022 -1.08637
0.495722 0.216825 1.69559
1.82757 -0.464123 -0.203201
1.54835 -0.0773915 0.719162
2.39401 -1.11736 -0.705038
2.48486 -0.319692 1.21905
3.1994 -1.39708 0.0898529
3.5759 -1.36842 0.00874359
4.35082 -1.59287 -0.484196
0.771112 -0.506375 -3.03772
-0.879088 0.456931 -0.127248
0.815197 -0.576517 -2.3931
1.93802 -0.956962 -0.969506
2.06134 -1.01685 -0.748703
2.27794 -1.0646 -0.84425
2.88006 -1.28032 -0.811306
2.5327 0.886638 1.11395
2.81135 -1.29738 -0.105822
-0.409281 0.257823 0.377221
1.36803 -0.794852 -1.29622
2.3065 -1.0509 -1.68043
1.20392 -0.255375 0.778635
2.51481 0.944198 1.12107
4.49801 -1.7152 -0.579367
-0.753883 0.117674 1.82614
1.47773 -0.326006 -0.643248
1.54127 -0.0538266 0.627766
2.52131 -1.07734 -0.905381
1.45876 -0.795335 -1.79258
1.67136 -0.138117 0.494738
4.24205 -1.553 -0.485797
-1.49721 0.900237 -0.899609
0.585175 -0.469741 -2.57278
0.216716 -0.379486 -1.87579
-0.760545 0.385293 0.979577
-0.982149 0.206946 1.45693
0.964196 -0.609916 -2.0426
1.37651 -0.763494 -1.75263
0.298842 0.277361 1.93837
1.43924 -0.0772621 0.731707
1.49127 -0.0656272 0.726696
2.10321 -0.253567 0.182886
2.35138 -0.325987 0.0525985
2.90705 -1.23466 -1.63142
2.97592 -1.33173 0.152529
-1.93319 1.16353 -0.179934
0.0171812 -0.314196 -1.60567
1.36463 -0.710999 -2.6788
0.731318 -0.129271 0.660114
0.508389 0.213438 1.93457
1.01475 0.0782848 1.28483
4.22329 -1.55172 -0.365557
-3.43005 0.75178 0.112975
-0.892497 0.84218 -1.19015
-0.554305 -0.0977025 -2.34875
0.342265 -0.400719 -2.61415
0.454941 -0.414413 -2.77142
0.761205 -0.506642 -3.21935
2.36205 -1.11796 -0.166717
-0.00568013 0.32495 -1.24333
1.22691 -0.151712 0.849764
2.39315 -1.0972 -1.13636
2.33133 -1.13842 -0.220463
1.84076 -0.919011 -1.3084
1.49498 -0.0623515 0.677163
1.97599 -0.212187 0.280215
4.13483 -1.51598 -0.52661
4.18175 -1.53466 -0.420668
-0.572021 0.614788 -1.74747
-0.536394 0.481731 -0.772151
-0.930285 0.0238968 -2.19928
-0.479056 0.319556 0.256433
-0.968554 0.216685 1.6847
-0.0991481 -0.262079 -1.79644
-0.771802 0.160224 1.6107
0.581785 -0.435631 -3.2306
0.59702 -0.472706 -2.57746
0.619449 -0.250079 -0.18251
1.11518 0.0305709 1.29281
2.00964 -0.224586 0.445194
0.335927 -0.341967 -3.45585
0.234355 -0.382619 -1.82284
0.642633 -0.485075 -2.68806
-0.0677614 0.10507 1.65917
0.592344 -0.060691 0.488235
2.03383 1.54301 1.74211
0.75001 -0.485796 -3.16017
0.571556 -0.0494993 0.555561
1.43038 -0.0611619 0.722863
2.36393 -1.12879 -0.171314
-0.278153 -0.182217 -2.76538
-0.679334 0.330474 0.93234
0.021115 -0.306843 -1.62908
1.04354 -0.413619 0.287094
1.23807 -0.463404 0.024102
1.42065 -0.0571304 1.02803
1.47636 -0.0566492 0.886946
0.000859849 0.158125 -1.0726
1.99643 -0.235477 0.605751
-0.464047 0.50167 -0.727689
-3.20221 0.69494 0.108629
-0.477119 0.258343 1.11944
-0.0481974 0.0898242 1.62505
0.340037 0.0232262 0.311893
0.362053 0.00927538 0.480748
1.02686 0.0601254 1.22
2.46579 -0.367708 1.03035
2.36175 -1.0412 -1.92167
-1.18837 0.329344 1.21674
-1.02583 0.0479404 -2.06952
-0.687776 0.114245 1.73791
-0.455435 0.245127 1.11299
0.410635 -0.00615937 0.466656
0.749143 -0.132983 0.842979
-0.48094 0.266796 0.646012
-0.461037 0.262728 0.636485
0.261785 0.0496692 0.282141
0.729709 0.152222 1.4284
-1.75875 0.668477 0.569358
-0.52743 -0.116625 -1.9374
0.0225258 0.232024 -1.27622
-1.24484 0.301011 1.36618
-0.865634 0.437197 -0.151884
-0.785204 0.397434 -0.0452706
-0.36393 0.261244 0.433635
0.959234 -0.358553 0.100784
4.05649 -1.45155 -0.578171
-0.226654 0.184943 0.679832
-1.31589 0.772906 0.0406699
4.05409 -1.49618 -0.453015
-0.709031 0.339534 0.997377
-0.480835 0.255558 1.12058
-0.133392 0.127834 1.50019
0.219977 0.0573758 0.4376
0.335232 0.0186551 0.314928
0.551699 -0.0734684 0.807361
0.693729 -0.484039 -3.1221
-1.38239 0.360929 1.3696
-0.254603 0.28212 0.643623
0.736427 -0.258362 0.0709432
-0.750287 0.416457 -0.240876
1.64339 -0.848283 -1.31264
-0.330691 0.271525 0.52315
-0.084058 0.0728648 0.580874
-0.860141 0.433144 0.112675
-0.647098 0.64042 -0.514184
-0.717 0.405701 -0.173983
0.0240901 0.159144 0.775564
-0.475924 0.25994 1.11869
-0.0118818 0.361615 -1.26366
0.728593 -0.121309 0.640322
0.80673 -0.526755 -2.77324
2.78828 -1.27587 -0.100172
3.04036 -1.36368 0.131503
-3.2711 0.716078 0.0608228
0.336259 0.0147782 0.440942
2.3902 -1.0712 -1.82558
4.06632 -1.50376 -0.427272
-1.74277 0.703925 0.492547
-0.595304 0.587083 -0.66821
2.68065 -1.18653 -1.56993
4.06615 -1.4929 -0.469614
-0.676138 0.557944 -0.545504
2.44804 -0.362584 1.00649
2.32397 -1.05801 -1.9109
-1.158 0.751509 0.220917
-0.301085 0.25749 0.563389
2.63983 0.926644 1.28625
2.39575 -0.343302 0.955568
0.148513 -0.360757 -1.79861
1.25323 -0.735623 -1.33238
2.38323 -1.06539 -1.89447
1.1933 -0.708103 -1.37785
-0.371304 0.266859 -0.0182006
0.920908 -0.383075 0.51281
1.9325 -0.1959 0.426739
0.0273453 -0.28343 -2.70191
2.75858 -1.26143 -0.17162
2.66879 -1.17732 -1.63674
-0.39958 0.279997 -0.114884
0.273374 -0.412417 -1.08717
2.71795 -1.25829 0.164878
2.31176 -1.03622 -1.97572
4.40486 -1.59598 -0.521556
-0.495955 0.297063 0.865386
0.00503031 0.138264 0.343426
1.56552 -0.827478 -1.41209
-0.415541 0.238776 1.18471
-0.467957 0.254463 1.11685
0.227109 0.275618 0.93267
2.47789 0.89214 0.999125
2.63937 -1.22962 0.120442
1.25335 -0.732461 -1.33523
2.41247 -1.14508 -0.434886
2.82387 -1.2858 -0.131618
2.53084 0.935131 1.13048
-0.291291 0.196144 0.516729
2.43135 -0.357762 0.971679
1.76296 -0.436589 -0.275954
1.76868 -0.914875 -0.541023
3.22476 -1.39154 -0.0757401
2.27771 -0.298913 0.788092
-0.351301 0.283727 -0.984779
0.292438 -0.418118 -1.07238
1.17465 -0.69558 -1.38846
3.22152 -1.38688 -0.0985351
3.55318 -1.48 -0.874233
-0.293778 0.235307 -0.0540391
2.28283 -0.296835 0.814841
-0.344626 0.307866 -1.03327
1.00215 -0.165233 -0.561616
0.975744 -0.579693 -2.58334
4.16974 -1.54104 -0.307176
-0.771417 0.674987 -0.684867
2.45313 -1.14612 -0.24447
1.40612 -0.768726 -1.22056
-0.6021 0.408225 -1.00862
0.750107 -0.104475 -0.726242
4.13078 -1.53045 -0.601444
-0.546985 0.352477 0.386788
0.617251 -0.0916956 0.733299
2.43863 -0.354679 0.97851
0.198398 0.0677837 0.286669
2.43228 -0.36711 0.889454
0.405794 0.000804396 0.258208
-0.340218 0.269222 -0.0552536
0.588395 -0.251204 -0.099121
2.7508 -0.441596 0.483892
3.10192 -1.36781 0.205816
2.47635 -1.16906 -0.134315
0.280578 -0.41906 -1.38899
-0.536167 -0.128486 -2.03107
2.53649 0.9307 1.13536
-2.86325 0.562962 0.528116
-0.334549 0.229906 0.831915
2.70888 -1.2609 0.148825
2.94124 -1.32253 0.17252
0.722117 -0.557425 -1.08
-0.531079 -0.123247 -1.93519
3.00102 -1.3528 0.241252
3.20085 -1.3792 -0.524432
2.86187 -1.26582 -0.688337
0.900073 -0.588001 -2.08183
2.67344 -1.18054 -1.56745
0.859189 -0.551996 -2.63934
-0.412139 0.317926 -1.01434
1.41146 -0.770612 -1.23193
1.55194 -0.821969 -1.34861
4.22224 -1.54052 -0.635065
-0.302945 0.197257 0.380977
-0.60568 0.585876 -0.600864
4.27597 -1.55521 -0.409254
-0.47014 0.253724 0.807989
0.194993 0.0901653 -0.787002
4.08524 -1.50751 -0.503339
2.62404 0.937764 1.27832
2.4906 1.08024 1.21892
-0.0871586 0.106004 1.66142
0.904753 0.0894953 1.50751
0.673991 -0.0969568 0.626414
2.55392 -0.383258 0.668087
2.84157 -0.474978 0.59494
2.74529 -0.435742 0.482984
-3.21459 0.699329 -0.195082
2.26273 -0.30516 0.156845
2.78771 -1.27343 0.185504
3.55508 -1.48392 -0.598473
3.58314 -1.48741 -0.860179
-0.527337 -0.12405 -2.02647
2.3856 1.43848 1.6796
-0.338426 0.198351 1.43773
0.765723 -0.142697 0.832295
0.600765 -0.0922827 0.667192
2.00091 -0.224933 0.484588
-1.34736 0.796324 0.0641745
2.89924 -1.29902 0.131315
3.56687 -1.36891 0.0221596
2.41488 -1.15798 -0.429957
4.16027 -1.54303 -0.289317
3.34224 -1.42293 -0.436227
1.57301 -0.836663 -0.999177
1.9647 -0.97244 -1.00807
3.57839 -1.48542 -0.954375
0.547456 -0.484694 -1.71318
-0.23376 -0.217712 -2.30756
1.73486 -0.856751 -1.88506
2.43037 -0.34998 0.883363
2.37652 -0.339242 0.862874
2.45233 -0.353764 0.853951
2.32383 -0.327724 0.842794
2.6163 -1.20784 0.0308196
1.5232 -0.825954 -0.882981
3.41288 -1.43478 -0.603781
4.21941 -1.54279 -0.627134
4.26672 -1.54934 -0.634921
1.66609 -0.865671 -1.19514
2.77659 -1.21457 -1.22868
0.751311 -0.51548 -2.75803
2.9922 -1.29924 -0.63244
3.7331 -1.5501 -0.506085
2.33599 -1.07581 -1.34571
2.2366 -1.02294 -1.98833
2.56865 1.13865 1.41564
0.829457 -0.338433 0.210831
2.47261 -1.14264 -0.234771
2.31467 -1.11622 -0.588511
2.42345 -1.07312 -1.9245
0.838341 -0.353509 0.346322
2.70226 -1.22439 0.33297
-0.20465 0.187887 0.638317
0.481306 -0.1066 -0.70579
0.103505 0.0552757 -0.790326
-0.14578 0.154074 -0.0512848
2.57667 1.12893 1.41665
2.39886 1.34163 1.38186
0.903473 0.0909242 1.50687
0.836353 0.124822 1.41746
2.62648 -0.412828 0.892585
2.73709 -0.435144 0.482194
2.54833 -0.371236 0.481728
2.92855 -1.34517 0.281018
2.73187 -1.25642 0.296361
2.95182 -1.34728 0.261206
0.279403 0.0462693 0.376877
2.3438 -1.11164 -0.127535
1.1919 -0.457134 -0.189513
-0.640316 0.594547 -0.703065
3.56288 -1.49616 -0.842983
3.55742 -1.48463 -0.872524
2.11499 -1.0335 -0.877511
0.278405 -0.413641 -1.38414
2.64338 -1.18777 -1.58959
-0.523525 -0.123182 -2.02534
2.38062 1.30728 1.32336
0.727574 -0.136031 0.850115
0.696213 -0.115405 0.789564
2.99086 -1.34732 0.236042
3.56958 -1.36698 0.0192506
2.81884 -1.26589 -0.270933
0.424339 -0.199734 -0.2148
2.0069 -0.997118 -0.400438
3.50923 -1.47469 -0.601732
3.08869 -1.3117 -0.742498
-0.542713 0.565991 -0.73784
3.29392 -1.39672 -0.841121
3.19649 -1.35173 -0.864695
2.1501 -1.03204 -0.894697
1.63176 -0.864743 -0.985697
2.80971 -1.20827 -1.57743
1.13612 0.0380602 1.13401
2.00221 -0.225682 0.260197
0.798729 -0.336848 0.338265
3.24381 -1.38732 -0.166519
-1.4597 0.836993 0.0578732
0.457067 -0.189697 -0.0566235
4.36074 -1.58537 -0.472471
2.26491 -1.05398 -1.21476
2.87229 -1.231 -1.51836
0.929526 -0.618999 -2.07899
0.984926 -0.565721 -3.45544
1.0828 0.0496381 1.38566
1.40097 -0.0476754 0.960667
1.59834 -0.0982237 0.690688
1.64728 -0.120326 0.662156
2.78608 -1.27811 0.311747
2.91004 -1.30053 0.127729
2.23793 -0.282879 0.000786524
2.95917 -1.31683 0.0974028
0.833711 -0.273785 -0.0253602
4.12104 -1.54017 -0.323221
4.29119 -1.56377 -0.457371
4.23207 -1.54486 -0.467641
4.17122 -1.52549 -0.478167
4.26668 -1.55105 -0.639515
2.31398 -1.10002 -0.594919
2.45863 -1.08074 -1.91709
2.22268 -1.02127 -1.98818
2.59706 1.09859 1.39574
4.15402 -1.52383 -0.450214
-0.0659367 0.0641537 0.475375
-0.97535 0.456593 0.0307649
3.0344 -1.3289 -0.64138
2.53308 1.1815 1.40837
0.515724 0.125791 0.966769
-0.192497 0.255199 -1.01525
-0.339573 0.407816 0.780783
-0.496189 0.323761 -0.000248042
-0.0919455 0.206565 -0.0925598
2.61686 -0.413311 0.544077
2.64042 -0.399278 0.389336
2.92723 -1.33711 0.288153
0.392911 0.23425 1.01416
4.22818 -1.5585 -0.333224
0.482788 0.0927126 0.901187
3.25774 -1.41271 -0.0198898
0.423924 0.079322 0.861053
2.64875 -1.22811 0.0661816
2.6759 -1.23736 0.0300338
-1.29887 0.333798 1.18206
2.96867 -1.2982 -0.324253
2.62904 -1.19304 -0.243732
3.00314 -1.30656 -0.383878
2.94349 -1.30029 -0.466978
2.83826 -1.26194 -0.460028
3.329 -1.39487 -0.932023
2.52295 -1.11732 -0.780535
1.91268 -0.977247 -0.627092
2.2412 -1.05042 -0.804618
-0.594161 0.349197 -0.0869837
-0.953009 0.492499 -0.283379
-0.146815 0.013538 -0.689511
2.50664 -1.11833 -1.4576
1.63697 -0.857736 -1.26038
-0.638592 0.62193 -0.684447
-0.647532 0.583575 -0.70702
2.68802 -1.1617 -1.76988
0.972819 -0.579938 -3.43673
0.625233 0.180411 1.81291
-0.0842228 0.0938003 1.66261
1.49068 -0.0742589 0.94708
2.88801 -1.26141 0.220053
2.934 -1.31615 0.204481
0.324981 0.235048 1.05923
0.446014 0.172951 0.955498
2.71126 -1.25168 0.00150537
3.74951 -1.55321 -0.428881
2.35114 -1.11434 -0.190878
2.33463 -1.10997 -0.310303
3.39549 -1.43689 -0.674848
3.1484 -1.35689 -0.737254
3.55326 -1.46809 -1.04611
0.427638 -0.196612 -0.214789
-1.49948 0.852962 0.168847
2.23529 -1.05645 -0.911899
2.08144 -1.00097 -1.06839
2.88169 -1.2384 -1.28181
2.02273 -0.988219 -1.0646
1.48529 -0.8091 -0.927421
3.0294 -1.28149 -1.45081
2.24183 -1.05406 -1.27199
-0.431882 0.466091 -0.665458
-0.591796 0.61069 -0.753802
-0.651936 0.542657 -0.987894
3.40793 -1.47142 -0.212412
2.78356 -1.27265 -0.0178577
2.27198 -1.08732 -0.171217
3.27849 -1.41849 -0.569701
3.30276 -1.41457 -0.59265
2.50113 -1.1596 -0.49604
2.00487 -0.989551 -0.733384
2.21307 -1.0365 -0.862728
0.325467 -0.143804 -0.506872
2.32231 -0.317805 0.834165
1.84446 -0.170301 0.523359
3.04986 -1.3697 0.147817
0.433603 0.188732 0.970575
3.36673 -1.45757 -0.182749
4.27554 -1.55432 -0.600908
2.44414 -1.14266 -0.256097
3.4084 -1.42902 -0.619866
2.30049 -1.09694 -0.604118
-0.755788 0.765706 -1.44052
-1.2466 0.712454 -1.5081
-1.23224 0.692523 -1.55139
2.35323 -0.316648 0.865957
2.06582 -0.250026 0.201844
-0.468916 0.346471 0.277096
2.60426 -1.16282 -1.50012
0.49792 0.0147535 0.911292
1.92592 -0.181869 0.336708
4.26385 -1.54076 -0.507745
0.794479 -0.343853 0.260561
2.81443 -1.25634 -0.425343
-0.468467 0.275903 0.39619
-0.130144 0.252439 -1.00394
0.684817 -0.0554124 0.707186
1.30491 -0.485685 -0.257609
-0.439309 0.17647 0.0197297
-0.716283 0.558954 1.05401
2.57565 1.13189 1.42225
2.41254 -0.34281 1.00614
4.32272 -1.56375 -0.394194
3.59452 -1.48846 -0.464153
3.19307 -1.39804 -0.478813
2.60938 -1.19314 -0.244372
2.33041 -1.11882 -0.225995
0.258916 0.298922 0.972131
-0.912111 0.184086 1.60209
3.41055 -1.42496 -0.981256
2.44828 -1.15499 -0.461184
-0.983155 0.206596 1.4563
3.20021 -1.35193 -1.13946
2.64475 -1.18019 -0.887733
1.3771 -0.508496 -0.224371
0.502811 -0.244909 0.193608
0.308644 0.0497361 0.297123
0.859178 -0.313503 -0.0651517
2.22142 -1.05479 -0.909437
2.90689 -1.24375 -1.30382
1.9249 -0.949707 -0.94732
0.561178 -0.24083 -0.30153
1.77772 -0.895596 -1.24936
-2.98908 0.567222 0.967202
0.919072 -0.612995 -1.2447
-0.140792 0.0137311 -0.689843
-0.985288 0.484003 -0.274551
0.598354 -0.489787 -2.47627
4.53709 -1.8354 -0.61619
2.79842 -1.24515 0.292716
2.63468 -0.394997 0.393737
2.79217 -1.27575 0.275986
0.413602 0.246461 1.83929
3.04981 -1.35201 0.0950219
3.01097 -1.34168 0.106655
1.09021 0.0473121 1.15071
2.71723 -1.2569 -0.218963
-0.0289846 0.121409 1.46999
3.39272 -1.44207 -0.673165
2.50733 -1.16856 -0.163889
0.740624 -0.144398 0.851192
3.61514 -1.49041 -1.04067
0.705842 -0.127717 0.685888
2.52446 -1.15829 -0.431954
2.87051 -1.28202 -0.766079
2.24487 -1.07172 -0.415027
2.37045 -1.10832 -0.530309
2.22852 -1.06558 -0.487899
2.25463 -1.06782 -0.546815
2.30882 -1.07939 -0.715897
1.87676 -0.968199 -0.590809
2.80835 -1.23932 -1.18652
1.62289 -0.855285 -1.02839
2.46141 -1.09317 -1.52724
-0.783244 0.38725 0.0488298
0.00940361 -0.0332751 -0.434426
-0.433549 0.316946 -1.16846
1.37054 -0.736948 -2.073
0.208635 -0.377724 -1.7298
-0.637246 -0.0733247 -2.15862
0.139232 -0.332909 -2.65789
4.28129 -1.60296 -0.381335
4.10614 -1.47678 -0.270517
4.10822 -1.52273 -0.490181
3.25505 -1.40555 0.0638316
4.24531 -1.53601 -0.596231
2.88097 -1.30717 0.224218
3.17626 -1.40535 0.00228203
3.16947 -1.39131 -0.0239686
1.21621 0.0113614 1.04074
1.25837 0.0140244 0.988086
1.32074 -0.0186241 0.937697
2.64895 -1.22817 0.0639069
2.26016 -1.08874 -0.130909
2.34223 -1.10993 -0.186314
0.584327 -0.0770135 0.814648
3.4306 -1.43828 -0.998231
2.97416 -1.27258 -0.771317
1.91617 -0.972312 -0.592721
2.27751 -1.07239 -0.859837
2.09125 -1.01324 -0.813673
2.92027 -1.25537 -1.26021
0.601023 -0.250829 -0.126209
1.37852 -0.262056 -0.515598
1.54059 -0.815322 -0.998823
2.73149 -1.17236 -1.72407
2.22873 -1.00604 -1.69632
-1.33596 0.82543 -0.0661028
-0.626104 0.501364 -0.973217
0.686483 -0.53671 -1.82004
0.635092 -0.484199 -2.55319
3.69263 -1.54742 -0.410379
2.8867 -1.28468 0.0703451
3.05072 -1.33293 -0.588703
2.52379 -1.13868 -0.818176
0.0844561 0.0207126 -0.227928
-1.26131 0.653118 0.0505355
1.81041 -0.857344 -2.44253
3.14892 -1.38874 0.0613373
0.829646 0.126817 1.40083
3.50193 -1.47054 -0.778818
2.45257 -1.13039 -0.149988
2.79206 -1.23508 -1.13389
0.704043 -0.268855 -0.216323
0.521751 -0.223445 -0.125055
2.08071 -0.23255 0.179835
2.14003 -0.219259 0.0299544
1.93369 -1.00411 -0.347836
2.44629 -1.09234 -1.35766
2.9556 -1.31131 -0.158967
0.080758 0.0473921 -0.262244
0.201268 0.0439726 -0.731934
3.08855 -1.24079 0.465375
2.37022 1.3306 1.32262
3.16417 -1.39462 0.10488
2.05799 1.5501 1.5496
2.8192 -1.31223 0.320916
2.43647 -1.15874 -0.0315589
3.21888 -1.37209 -0.801363
1.99394 -0.222518 0.454047
1.97824 -0.216759 0.449892
1.18217 0.00907614 1.12646
1.60553 -0.10102 0.645833
2.97286 -1.30881 -0.891255
2.75377 -1.24505 -0.692397
2.19832 -1.06746 -0.179032
1.79449 -0.307259 0.178148
2.86225 -1.2662 -1.17381
-0.00632986 0.116671 1.4271
0.884595 -0.369585 0.485003
0.480672 0.0919609 0.909246
2.00951 -1.00567 -0.700818
2.04032 -1.017 -0.738398
2.1554 -1.05791 -0.875193
2.4655 -1.12326 -1.14577
2.602 -1.14418 -1.31208
0.241281 0.258447 0.900919
2.02767 -0.98999 -1.04348
2.31717 -1.09636 -1.30916
1.69116 -0.876081 -1.11765
1.8808 -0.932162 -1.30214
2.14029 -0.997267 -1.62999
0.0771283 0.13656 0.172189
0.145579 0.105684 0.107663
-1.30356 0.360157 1.19152
0.119912 0.141994 0.13263
1.3724 -0.774595 -1.26701
2.01021 -0.95683 -1.91959
0.246167 -0.110366 -0.504241
0.949199 -0.647079 -1.28063
0.179166 -0.371334 -1.2562
1.57996 -0.824388 -2.27423
-0.951277 0.476986 -0.283509
-1.00117 0.483514 -0.2655
0.382336 -0.428195 -1.62995
1.66283 -0.807366 -2.76375
-0.410928 0.364588 -1.13628
0.0710958 -0.327026 -1.90253
-0.339907 -0.186425 -1.95219
-0.555881 -0.113626 -1.92974
0.763522 -0.504413 -2.7425
0.812973 -0.5175 -2.78109
-0.602641 -0.114406 -2.32894
-1.35162 0.152293 -1.95226
2.65764 1.42665 1.7585
2.68107 1.40902 1.7054
4.35878 -1.59506 -0.499171
4.30155 -1.55705 -0.694784
3.11099 -1.245 0.459186
3.05907 -1.22518 0.516646
2.54234 -0.35979 1.15487
3.39722 -1.44773 -0.059263
3.33817 -1.43766 -0.00320845
3.75802 -1.54643 -0.466132
3.76344 -1.55803 -0.500436
2.42113 -0.349906 0.97693
3.26493 -1.4683 -0.086083
2.89768 -1.311 0.212838
2.30042 -0.309675 0.840659
0.909709 0.0902141 1.59081
2.27751 -1.07803 -0.24241
2.39353 -1.13609 -0.405169
0.748925 -0.147689 0.8464
2.2888 -1.08302 -0.682218
0.57245 -0.0105317 0.89078
2.02261 -1.01042 -0.665563
2.54413 -1.14377 -1.24927
3.05134 -1.28709 -1.74099
0.923277 -0.288759 0.0644102
0.815174 -0.305104 -0.0675537
0.559825 -0.235713 -0.0581256
0.139877 0.0938264 0.155555
2.38125 -1.0622 -1.90834
1.53206 -0.816376 -1.34096
-0.625706 0.352544 -0.235367
0.596039 -0.514844 -1.68781
0.792108 -0.51848 -2.81093
0.639516 -0.437539 -2.75898
-0.641365 -0.0635525 -2.15196
2.50203 -0.348967 0.516649
3.18334 -1.38754 -0.457345
2.35758 -1.11242 -0.177952
3.02165 -1.30607 -0.838739
2.81271 -1.27466 -0.693946
2.54791 -1.18056 -0.458599
2.84224 -1.28078 -0.767922
2.37193 -1.12181 -0.331972
2.94307 -1.29232 -0.894796
2.67499 -1.19238 -0.674328
2.30566 -1.09367 -0.467029
0.558186 -0.0486901 0.924896
2.70939 -1.1863 -1.40915
2.63299 -1.16613 -1.54699
-0.679576 0.320104 0.963639
0.524234 -0.229399 -0.0850178
2.30352 -1.03157 -1.77346
0.368133 -0.164494 -0.463486
2.13141 -0.990206 -2.01798
1.98402 -0.925348 -2.336
-1.83735 1.14282 -0.221624
-1.23472 0.695463 -1.51837
-0.446138 -0.123149 -2.51724
0.0214624 -0.273228 -2.97631
0.490274 -0.399896 -3.48101
-0.172077 -0.196721 -3.14936
4.55327 -1.59649 -0.589186
2.17672 1.5127 1.73933
3.53938 -1.47621 -0.325391
3.16061 -1.33685 -0.0133572
3.41183 -1.43781 -0.332774
1.60336 -0.0914066 0.638865
2.9203 -1.25446 -0.843763
-0.1466 0.23387 1.93501
2.12111 -1.04464 -0.432257
1.85983 -0.474259 -0.231058
0.467949 0.156721 0.953506
-0.0154062 0.182189 0.690216
1.75968 -0.897759 -1.15246
1.70617 -0.873891 -1.5711
0.945024 -0.557624 -1.2261
1.74087 -0.859672 -2.38443
3.29456 -1.36566 0.0337079
3.47092 -1.4811 -0.217694
2.69338 -1.28358 0.00420499
2.78692 -1.25375 -0.326984
2.01372 -0.21803 0.190637
1.9689 -0.986909 -0.688806
2.38527 -1.11697 -1.24353
0.495309 -0.439183 -2.15833
4.1624 -1.50158 -0.439433
3.45241 -1.44702 -0.122704
3.75481 -1.55496 -0.501585
3.43708 -1.43075 -0.241429
1.44074 0.047613 1.20292
0.65769 -0.0934692 0.71507
2.91952 -1.23198 -1.91871
0.037131 0.103294 0.09165
0.273762 -0.115899 -0.465362
-0.500822 -0.0641244 -1.96146
3.53905 -1.43309 -0.740759
2.3799 -0.309829 0.528386
1.81844 -0.139204 0.342075
2.77146 -1.23486 -1.04676
-0.027183 0.0821144 0.36244
2.0027 -0.930526 -1.84772
0.0567166 0.0715118 -0.238247
-1.20105 0.762667 0.273537
2.11563 1.50907 1.44354
1.97483 -0.20684 0.290472
-0.902431 0.260984 -0.011812
-1.25564 0.611062 -1.31588
0.78098 -0.473647 -3.55879
-1.13572 0.082895 -1.99384
-0.541952 -0.10645 -2.43271
0.754311 -0.477228 -3.32554
-1.07311 0.0523231 -1.91944
1.03487 -0.574886 -3.46982
-0.622056 -0.0799862 -2.15003
0.702739 -0.480103 -3.16409
-1.34266 0.866778 -1.04781
-0.414863 -0.141788 -2.26939
-0.389311 -0.152767 -2.28638
-1.35209 0.860738 -1.02656
-0.457815 -0.128797 -2.21644
0.100345 -0.317056 -2.63863
-1.63748 0.939755 -0.747222
0.832587 -0.51413 -3.15335
0.0421465 -0.291646 -2.51695
-0.221226 -0.232193 -2.28834
0.0255632 -0.298013 -2.4788
-3.21186 0.691469 0.084396
-0.186209 -0.218527 -2.29918
-0.538675 -0.123125 -1.92033
-1.84459 1.10845 -0.213098
-0.598691 -0.0973931 -1.74324
0.563411 -0.445868 -2.65783
-0.523245 -0.124725 -1.74844
-0.551085 -0.119073 -1.72358
0.590583 -0.485118 -2.62283
0.793326 -0.517643 -2.74544
0.59652 -0.472733 -2.58961
0.619694 -0.487495 -2.58322
-0.136829 -0.256196 -1.8965
-0.180547 -0.24175 -1.85702
-0.214931 -0.243161 -1.82744
-0.129453 -0.252031 -1.85231
-0.0919699 -0.256116 -1.85775
-3.02019 0.590346 0.508628
0.720804 -0.507135 -2.51408
0.581954 -0.468979 -2.26951
1.45793 -0.736434 -2.97949
0.548146 -0.461942 -2.20591
-2.73805 0.496772 0.700463
-2.71089 0.490377 0.710639
-2.77243 0.509061 0.768959
-2.795 0.517008 0.796444
-1.94593 0.952294 0.632022
0.206344 -0.373449 -1.53951
0.972874 -0.608513 -2.09599
1.21097 -0.681973 -2.29355
0.681657 -0.515902 -1.74016
0.233871 -0.388452 -1.33037
0.190197 -0.389442 -1.27217
-1.63058 0.494022 0.693416
-1.64028 0.492095 0.712492
0.690024 -0.529076 -1.38599
1.85419 -0.875861 -2.31726
-1.52989 0.458721 0.873346
-1.51162 0.451018 0.878099
-1.48673 0.440976 0.90654
0.233287 -0.072777 -0.550574
0.248295 -0.0756481 -0.561711
1.0992 -0.667657 -1.35341
1.39112 -0.754563 -1.61581
-1.37453 0.397046 1.04334
-1.41601 0.40807 1.08663
-1.36793 0.381489 1.03363
-1.38009 0.380997 1.05681
-1.40309 0.405625 1.09357
-1.3912 0.40058 1.07995
-0.533452 0.315852 0.392718
-0.52364 0.310114 0.399029
-1.49855 0.427332 1.25608
1.8407 -0.899217 -1.84889
-0.442504 0.250633 0.585196
-1.21389 0.41801 1.30418
-0.298484 0.281907 0.546426
-0.27025 0.177252 0.541048
-0.778261 0.357871 1.05819
0.00542824 0.249441 0.681361
-0.924616 0.183454 1.44034
-0.0272619 0.240196 0.736834
-0.602273 0.289072 1.2266
1.01129 -0.342577 -0.342063
2.16558 -1.00439 -1.53177
2.21716 -1.01895 -1.54972
0.900083 -0.221826 0.0837707
-0.806559 0.253179 1.72204
-0.447241 0.233899 1.4282
2.66425 -1.15197 -1.69984
2.4265 -1.09143 -1.31411
2.57923 -1.14414 -1.39113
0.721343 -0.120112 0.625897
0.535277 -0.0674588 0.815195
2.73328 -1.18989 -1.51832
2.77146 -1.22471 -1.49646
1.72782 -0.143419 0.465426
2.61604 -1.15432 -0.663355
2.09145 -0.246131 0.159364
1.64483 -0.114685 0.62577
1.88919 -0.184995 0.405143
0.455053 0.230066 1.9535
0.467266 0.223381 1.9577
2.01558 -0.231836 0.431647
2.6935 -1.23755 -0.256426
3.14187 -1.36098 -0.715075
3.59313 -1.48293 -0.874068
2.76474 -1.26513 0.185007
3.36109 -1.42903 -0.378387
2.42936 1.26192 1.33859
0.332094 -0.347316 -3.44945
-1.06646 0.0623243 -2.18087
0.063647 -0.287225 -3.00849
0.0685787 -0.285058 -2.98631
-0.251598 -0.203623 -2.71475
-0.0467197 -0.237517 -2.84534
-1.02117 0.0496475 -2.09491
0.00857038 -0.273216 -2.87711
-1.30003 0.124807 -1.87252
0.87339 -0.517197 -3.52597
-1.02094 0.0476907 -2.07716
0.300871 -0.351852 -3.06748
-0.715005 -0.0655568 -2.17759
-0.48158 -0.116316 -2.30851
0.0109258 -0.281739 -2.7014
-0.39446 -0.15439 -2.37899
-0.565792 -0.0882509 -2.23102
-0.552961 -0.100006 -2.22519
0.251082 -0.335314 -2.83773
-0.79424 -0.0249613 -2.01135
0.685339 -0.470795 -3.15806
-1.33888 0.856005 -1.04377
-0.388952 -0.155511 -2.2691
-0.439604 -0.136536 -2.20447
-0.299124 -0.194422 -2.30592
-1.65848 0.945934 -0.724935
0.0754298 -0.318028 -2.59186
0.73392 -0.491102 -3.06394
-0.2307 -0.226266 -2.30438
-0.550694 -0.110221 -2.03382
0.597762 -0.44762 -2.9146
1.20472 -0.618496 -3.33205
1.19475 -0.62786 -3.30896
0.627461 -0.464495 -2.8165
1.20297 -0.645304 -3.23997
0.369298 -0.414054 -2.56687
0.85541 -0.534428 -2.72593
0.868671 -0.531678 -2.716
-0.125905 -0.260494 -1.87965
-2.90185 0.569759 0.391501
-3.13443 0.636114 0.652598
-3.26958 0.676907 0.803506
0.0778402 -0.328024 -1.85459
-2.61436 0.489541 0.396891
0.911905 -0.597304 -2.50963
-2.85116 0.544982 0.649881
-0.560036 0.589595 -0.765094
-0.571638 0.598667 -0.735762
-2.66743 0.4813 0.632409
-2.67231 0.468546 0.656584
-2.75564 0.500043 0.743527
-3.03321 0.574926 0.982415
-1.38287 0.814613 0.106175
-1.40494 0.808453 0.140599
-1.90104 0.862322 0.636542
0.059846 -0.327088 -1.35791
1.18342 -0.673976 -2.28883
1.03723 -0.628424 -2.12152
0.743082 -0.548541 -1.8549
0.503625 -0.479046 -1.4702
-1.75689 0.674004 0.753824
0.517258 -0.481215 -1.45473
0.944403 -0.612418 -1.79623
-0.470055 0.304772 -0.0931667
0.413261 -0.129282 -0.659513
-0.556807 0.311384 0.410139
-1.35939 0.380281 1.0482
-0.591445 0.265686 0.482203
2.36526 -1.0409 -2.3561
-1.50309 0.407433 1.4142
2.22215 -1.02708 -2.07467
-0.0862518 0.139548 0.587543
0.539877 -0.241057 -0.0224199
-0.0597034 0.257499 0.708819
0.217239 0.0612366 0.405615
0.278834 0.0448629 0.352836
2.0203 -0.972845 -1.49611
-0.530513 0.271129 1.13597
1.90609 -0.94951 -1.35593
1.85086 -0.928833 -1.28076
1.49683 -0.332518 -0.600685
1.02985 -0.406675 -0.203037
0.854322 -0.21993 0.126054
0.183187 0.304602 0.918459
0.680951 -0.290896 0.298652
0.672938 -0.291152 0.316626
0.185667 0.313539 0.977199
0.658786 -0.289227 0.343807
2.13458 -1.01187 -1.1905
2.14099 -1.02179 -1.17375
2.12692 -1.027 -1.15613
2.01453 -0.977755 -1.02874
1.8114 -0.931919 -0.833661
1.71079 -0.895419 -0.721481
0.53349 -0.0566825 0.653765
0.551918 -0.0666938 0.660068
0.442124 0.0972048 0.913695
0.557862 -0.0670654 0.775826
0.474735 0.0944604 0.922439
-0.0914066 0.109141 1.42039
0.982569 -0.39288 0.307912
2.17568 -1.04984 -0.896979
1.90367 -0.97875 -0.613229
1.79191 -0.940818 -0.49166
2.22479 -1.04021 -0.862527
2.61485 -1.14814 -1.20405
2.87982 -1.23432 -1.38757
3.00711 -1.27274 -1.46511
2.83603 -1.23449 -1.20847
2.14584 -1.04992 -0.515605
2.15746 -1.0542 -0.50408
2.21028 -1.06945 -0.402561
2.22811 -1.0715 -0.412075
