-3.43312 0.772537 1.82431
-3.32158 0.715924 1.9446
-3.29741 0.752955 1.90999
-3.75442 0.771977 1.04054
-1.93792 1.075 3.09874
-1.98684 1.11441 3.14373
-3.40736 0.624829 1.3347
-2.82043 0.451779 2.00907
-3.55118 0.707771 0.623586
-3.75545 0.836469 0.269033
-1.8022 0.969464 2.30052
-2.98098 0.633031 0.580555
-3.50972 0.71986 0.0349056
-3.19974 0.674596 0.353831
-1.4866 0.964996 2.43955
-3.25817 0.694755 0.0574891
-2.50454 0.417863 0.975586
-2.56224 0.526555 0.866964
-1.8352 0.530594 1.79525
-3.21366 0.664279 -0.181104
-2.3089 0.383711 0.730439
-2.56695 0.446768 0.000385466
-0.649914 0.663469 2.50029
-3.04339 0.523977 -0.56576
-2.09503 0.28611 0.670303
-1.46495 0.364825 1.19658
-2.49459 0.410257 -0.23341
-2.71059 0.494844 -0.148645
-2.50182 0.447264 -0.156019
-0.318638 0.570663 2.36728
-2.25498 0.330064 -0.305558
-2.35784 0.333657 -0.426913
-0.583609 0.282179 1.62803
-0.604027 0.408288 0.823069
-0.978264 0.469645 -0.422241
0.734244 -0.270113 1.45826
-0.0654492 0.100187 -0.0497194
-3.98298 0.914349 2.85586
-3.92566 0.772375 2.46405
-3.78639 0.848374 2.54546
-3.57704 0.730691 2.15259
-3.62534 0.894266 1.99814
-3.74334 0.867107 1.16002
-2.66249 0.499757 2.43406
-3.2962 0.707461 1.27049
-3.11281 0.630783 1.45563
-3.50074 0.784748 -0.043278
-1.54335 0.897433 2.44342
-2.62249 0.409929 0.680445
-2.08505 0.347228 0.506167
-1.05562 0.272499 1.79951
-0.757551 0.757872 2.25749
-1.3582 0.471802 1.29318
-1.09863 0.291615 1.46681
0.175115 2.26766 2.86983
-1.14638 0.35958 0.490591
-0.130249 0.38745 1.76867
-0.756277 0.418933 0.939754
-0.256548 0.428814 1.51794
-1.60131 0.154263 -0.604111
-0.719622 0.556383 -0.165394
0.0782847 0.115441 0.264611
0.419904 0.169454 -0.592788
-3.16404 0.747093 3.06729
-3.80738 0.852768 1.84542
-2.97034 0.556496 3.18151
-3.52898 0.799918 2.14045
-3.94498 0.851803 1.6252
-3.74089 0.786144 1.10311
-3.17937 0.623276 1.88687
-3.38804 0.710612 1.58093
-3.28751 0.762567 1.50838
-2.10021 1.1507 2.42845
-3.82038 0.840985 0.341703
-2.66302 0.482736 1.016
-2.95516 0.545803 0.834504
-3.0674 0.509933 0.299113
-0.490301 2.31199 3.20981
-1.65069 0.460408 1.51939
-0.289191 2.35064 3.0099
0.483526 2.42036 3.65232
-1.98224 0.230346 -0.158035
0.121503 0.489164 2.43479
-1.88313 0.251935 -0.492222
0.3796 0.144673 -0.134868
-3.615 0.796288 3.13917
-3.61695 0.832043 2.88575
-3.22469 0.575636 1.89015
-2.02727 1.17416 3.22924
-3.22548 0.710101 1.5814
-3.12239 0.717753 1.52911
-2.1171 1.20129 2.4146
-2.90214 0.613429 1.32654
-3.36538 0.740395 0.587097
-2.97469 0.613334 1.32553
-3.88031 0.925171 0.0574052
-2.21955 0.798646 1.43942
-1.75022 0.536461 1.81668
-0.528097 2.22941 3.07972
-2.62293 0.387263 0.556352
-1.65637 0.552006 1.76564
-2.38729 0.430003 0.798224
-0.895409 0.565107 2.17406
-1.38234 0.261806 1.10727
-0.778088 0.345623 1.89998
-2.44004 0.466924 -0.379903
-1.06595 0.31338 1.40243
-0.312208 0.382299 1.67635
-0.498139 0.26172 0.511268
0.356876 0.0490504 1.39279
0.398944 0.055092 1.32688
0.497298 -0.0184106 1.14949
0.298002 0.0843526 0.201351
-0.396757 0.4539 -0.637368
0.20536 0.29038 -0.598479
1.16647 -0.120391 -0.234134
-2.57686 0.465927 1.07151
-0.492308 2.32584 3.18504
-2.48113 0.248318 -0.488432
-0.524082 0.157977 1.80122
-2.37431 0.408268 -0.541769
1.22783 -0.173365 -0.189407
-3.05895 0.563992 1.35834
-3.36207 0.73455 0.178245
-2.88806 0.617638 0.611897
-1.68595 0.458234 1.59845
-0.200468 2.27139 2.78591
-1.42057 0.349489 0.926906
-2.37633 0.300486 -0.465599
-1.45154 0.717629 -0.0490749
-2.91534 0.541271 2.11096
-2.17787 1.17233 2.62012
-3.61001 0.788226 0.466902
-1.44975 1.05418 2.60424
-1.49585 0.346942 0.929864
-1.10809 0.303748 1.16852
-2.18522 1.09209 2.53317
-3.79484 0.854406 2.54497
-3.13831 0.735543 2.59035
-3.83674 0.934705 1.79387
-3.27862 0.693547 2.08204
-0.786671 2.14441 3.09958
-3.88934 0.938835 1.5724
-0.714152 2.21864 3.06503
-2.79956 0.543739 2.17169
-3.51922 0.781523 1.59999
-3.46804 0.837874 1.69532
-3.3324 0.709499 1.58476
-3.33935 0.780126 1.18128
-3.34299 0.696553 1.37129
-3.59175 0.818543 1.20334
-2.19101 0.781489 1.83725
-2.09572 0.826316 1.75307
-3.80702 0.842265 0.797455
-3.84826 0.757527 0.809185
-3.75829 0.814543 0.658813
-2.92654 0.711577 1.25502
-3.91217 0.896756 0.554124
-3.21461 0.643942 1.01808
-2.94579 0.531286 1.13857
-2.59649 0.376503 1.23112
-3.62294 0.81418 0.703745
-3.64294 0.771405 0.681532
-3.84822 0.949486 0.627172
-2.66938 0.44612 1.10123
-2.88034 0.591289 1.03219
-3.39861 0.787943 0.684155
-3.71802 0.843529 0.392154
-2.81858 0.567171 0.832841
-3.98552 0.856752 0.267112
-2.66428 0.536283 0.835045
-2.46981 0.390991 0.8785
-3.22094 0.67968 0.456957
-3.83843 0.815011 0.261781
-2.07777 1.03414 1.05842
-2.51401 0.493766 0.648765
-2.38888 0.361394 0.625262
-3.26507 0.652565 0.131357
-3.00745 0.443828 0.347447
-2.20295 0.359561 -0.106766
-2.43923 0.377179 -0.179237
-2.58414 0.480223 -0.203868
-2.51934 0.388679 -0.233968
-2.425 0.318372 -0.279583
-2.49732 0.442519 -0.201659
0.890358 -0.332859 1.04602
-3.73252 0.749836 2.92647
-4.03115 0.959652 2.19962
-3.34269 0.768801 2.66443
-3.33042 0.629036 2.64147
-3.04452 0.557817 2.81127
-3.03498 0.658012 2.75864
-3.52646 0.777694 2.43401
-3.16477 0.627969 2.64023
-3.58922 0.653547 2.42871
-3.60377 0.860166 2.07933
-3.29644 0.740329 1.78282
-3.43351 0.755704 1.35352
-3.47944 0.765189 1.36528
-1.3921 0.86742 2.54731
-3.11345 0.597505 1.57566
-2.66911 0.482888 1.72519
-3.02607 0.578451 1.28802
-3.29633 0.674482 1.11599
-1.7225 0.501023 1.78425
-2.717 0.499159 1.21372
-3.60451 0.803381 0.639914
-3.81312 0.824937 0.483877
0.081367 0.429469 2.33957
-0.680788 0.4097 1.78487
-2.62246 0.471484 0.843979
-2.47714 0.350025 0.883253
-2.36947 0.430041 0.910602
-0.207587 0.205585 1.91648
-3.96509 0.890113 -0.0724156
-0.298436 0.277401 1.67561
-0.253014 0.434345 1.61237
-3.31342 0.728824 0.0953033
-2.07174 0.362327 0.432198
-2.991 0.536975 0.0898245
-3.17386 0.655798 -0.192372
-3.0876 0.696551 -0.336452
-2.6919 0.535972 -0.150478
-3.41029 0.801986 -0.342695
-2.71987 0.477836 -0.229094
-2.66239 0.591838 -0.327046
-2.15949 0.279875 -0.349835
-2.49639 0.349216 -0.696853
0.20899 0.163857 0.356655
-0.124764 0.217122 0.0516081
0.357996 0.279121 0.0673134
-3.91096 0.859196 2.90444
-3.59783 0.816455 2.51899
-2.93091 0.552459 2.81192
-2.68923 0.455529 2.12427
-3.42564 0.776218 1.5986
-2.84362 0.471414 1.83915
-3.07584 0.615995 1.49747
-0.0897679 2.3123 2.85805
-0.801769 0.743208 2.57437
-1.60441 0.457474 1.84983
-3.30235 0.72733 0.967829
-3.31192 0.658421 0.928839
-2.63024 0.439101 1.25036
-2.19492 0.91745 1.39625
-3.62419 0.704434 0.51157
-1.24098 0.495899 1.56274
-1.41658 0.433358 1.36311
-2.43195 0.424006 0.607499
-2.28656 0.239606 0.725735
-2.54016 0.477519 0.641324
-1.31511 0.322797 1.11154
-3.2364 0.720679 0.154155
-1.37087 0.379146 0.951119
-3.57727 0.687569 0.00211233
0.538435 0.00261025 1.84823
-2.16814 0.30476 0.595371
-2.56075 0.440492 0.358178
-0.606377 0.308077 1.16971
0.433836 0.02734 1.64983
-3.18664 0.694528 -0.127692
-2.82183 0.465108 0.067122
-3.42827 0.677384 -0.303477
-0.290863 0.245927 0.905778
-2.57589 0.500406 -0.186769
-0.982384 0.599131 0.637407
-2.18517 0.377531 -0.112409
0.284721 0.225512 0.715871
-1.06756 0.474533 -0.364629
-0.774489 0.567503 -0.349254
-0.355774 0.419146 -0.639872
-0.587303 2.30386 3.12287
-3.22657 0.711586 2.01166
-2.23302 1.24256 2.30609
-3.41325 0.701373 1.35271
-2.53733 0.44134 0.926878
-2.58086 0.490845 0.928028
-2.56171 0.408938 0.892154
-0.218975 0.340764 1.66729
-3.53858 0.790128 0.00852485
-3.23692 0.681863 -0.204015
-0.655213 0.347691 0.832664
-1.04506 0.365552 0.63812
-0.874363 0.591437 0.714621
-2.93993 0.567245 -0.527749
0.30249 0.187419 0.498063
-3.14631 0.663946 2.94287
-0.923476 2.12805 3.12032
-3.26734 0.58441 1.91369
0.237016 2.15602 3.07031
-3.0202 0.636363 1.29329
-0.870409 0.61598 2.16724
-3.48813 0.802263 0.695151
-0.645075 0.511641 2.22902
-2.69076 0.46868 1.1
-3.52451 0.765425 0.641393
-2.52064 0.474995 0.980505
-0.292027 0.324056 1.70738
-0.175604 0.406746 1.56075
-0.0987171 0.522867 1.67788
-0.273726 0.448132 1.60534
-0.611126 0.506845 -0.22236
-0.789297 0.574795 -0.357763
-3.73671 0.771324 2.55027
-3.06105 0.660423 1.70517
-0.582285 0.675243 2.35524
-1.47438 0.425001 1.48198
-0.860203 0.403092 1.59249
-1.36621 0.315505 0.846826
-1.37783 0.469123 0.866911
-0.199755 0.250718 1.15576
0.350008 0.0793105 1.00068
-2.73666 0.608713 2.1225
-0.278689 2.34411 3.04393
-1.78534 0.961486 2.41767
-2.22355 0.858624 1.33119
0.230279 0.434505 2.33302
-0.800291 0.382538 1.3104
-0.667597 0.578234 -0.561333
0.986891 -0.147005 -0.0296493
-2.10449 0.315331 -0.431163
-3.77992 0.848515 1.83929
-1.73767 0.480038 1.47021
-1.79546 1.09215 3.46165
0.124736 0.144562 0.132434
-0.173819 2.43264 3.30835
-1.6599 1.20149 3.61952
-3.40193 0.759973 3.28485
-3.41043 0.746261 3.3009
-0.729334 2.21034 3.07536
0.0252966 2.27198 3.07577
-3.90189 0.904995 3.12208
-3.90245 0.832571 2.83478
-2.89468 0.475005 2.7696
-3.89707 0.934869 2.79958
-4.02618 0.791817 2.58301
-3.79272 0.887366 2.57677
-1.56685 0.920508 2.49785
-3.69351 0.906781 2.40772
-3.57781 0.737739 2.48794
-3.20915 0.648121 2.41765
-3.47204 0.720425 2.25702
-3.47262 0.795715 2.34736
-3.21897 0.652464 2.29379
-3.86106 0.867915 2.31687
-1.69859 0.988577 2.3552
-3.98274 0.990605 2.24506
-3.34409 0.721138 2.33665
0.316745 0.330908 2.31163
-3.50366 0.708685 2.17511
-3.20119 0.708389 2.13061
-2.8712 0.55195 2.19121
-3.44036 0.776319 2.08066
-3.97074 0.916791 2.06894
-3.4128 0.777099 2.08605
-4.05156 0.955705 2.12082
-3.42392 0.847952 2.0284
-3.24253 0.581479 2.11924
-3.48642 0.811993 2.06056
-0.500252 0.501198 2.2522
-2.97026 0.567268 2.05244
-2.92788 0.477845 2.02396
-3.47385 0.785081 2.02972
-1.77087 0.328109 1.9018
-2.74504 0.468618 1.86963
-4.05731 0.929662 1.73553
-3.96247 0.867435 1.73897
-2.9066 0.571507 1.73585
-0.334656 0.406884 1.81261
-0.27089 0.321616 1.81344
-0.245117 0.378742 1.70803
-3.01518 0.553864 1.61106
-2.87828 0.568588 1.60025
-3.31063 0.680129 1.6443
-3.58362 0.697305 1.61999
-1.64497 0.545427 1.62076
-0.307799 0.432169 1.71821
-0.306397 0.416916 1.60557
-3.36467 0.747865 1.47474
-0.0311131 0.460368 1.56919
-0.0667195 0.417737 1.4602
-0.221079 0.364077 1.47825
-3.29184 0.690859 1.38408
-0.178685 0.114564 1.37982
-0.0497593 0.249926 1.34808
-3.47163 0.735009 1.3597
-3.46336 0.727429 1.2923
-3.37485 0.752301 1.30289
-3.8683 0.815412 1.23441
0.902682 -0.370029 1.21866
0.850581 -0.322736 1.21608
-2.6225 0.453723 1.14444
-2.6868 0.569191 1.11563
1.03316 -0.340435 0.985072
-3.57943 0.720637 1.09218
-3.27844 0.692119 1.02888
-3.4621 0.667926 1.06511
-3.57545 0.741619 1.06681
-2.01277 0.990305 1.11869
-2.92143 0.544045 0.977409
-3.23666 0.626983 0.989928
-3.50751 0.782643 0.968978
-2.44273 0.483731 0.99851
-3.24768 0.58179 0.927445
-2.43394 0.56759 0.93739
-3.7164 0.754757 0.948536
-3.49973 0.736248 0.959569
-2.47712 0.402923 0.965106
-3.12933 0.512219 0.96868
-3.07085 0.705695 0.911146
-2.92756 0.516523 0.930523
-3.40883 0.743966 0.770651
-3.87008 0.888312 0.77223
-0.234036 0.217421 0.677283
-3.60433 0.748369 0.706624
-2.85409 0.507843 0.660906
-3.44577 0.750656 0.698876
-3.07466 0.525633 0.561731
-3.09917 0.61035 0.585798
-3.93507 0.937465 0.619217
-3.88047 0.850603 0.49033
-3.45314 0.651607 0.381478
-2.51854 0.454869 0.421846
-4.04682 0.942877 0.398877
-2.80328 0.536168 0.297817
-3.05454 0.604912 0.344581
-3.8762 0.755855 0.316895
-3.84164 0.809629 0.371734
-3.81276 0.988328 0.256034
-1.82484 0.132517 0.106113
-2.92839 0.48146 0.0346398
-2.49144 0.307361 0.0918125
-3.60519 0.746833 0.105297
-2.5989 0.394572 0.110925
-0.84211 0.539006 0.0578043
-1.33647 0.532129 -0.0144437
-3.68024 0.821469 0.110667
-3.18998 0.639465 0.0713088
-0.271826 0.207695 -0.204304
-2.87422 0.511521 -0.0713728
-2.97194 0.551074 -0.0278092
-2.49194 0.424801 -0.114153
-2.41021 0.47465 -0.207824
-2.69527 0.476817 -0.221315
-3.62354 0.778396 -0.258797
-1.95634 0.292375 -0.46046
-1.71822 0.171088 -0.641817
-2.85599 0.445584 -0.540849
-1.50645 0.0209523 -0.712161
-2.03706 0.278552 -0.535648
-2.10446 0.315169 -0.582491
-1.70207 0.176841 -0.905647
0.892416 0.228859 -0.898145
-0.401228 2.52517 3.54765
-2.61069 1.34918 3.565
-3.32127 0.877079 3.62759
0.41743 2.16481 2.9447
-3.83803 0.85988 2.89917
-3.6712 0.854352 2.83335
-3.77896 0.938019 2.67704
-3.06499 0.509091 2.78596
-3.72452 0.786712 2.63546
-3.59003 0.801668 2.57776
-1.56724 1.15074 2.47225
-3.11441 0.630809 2.53796
-1.98649 1.07125 2.4739
-3.62863 0.875677 2.4214
-2.9865 0.559485 2.4405
0.353282 0.397432 2.53961
-4.05193 0.924827 2.33481
-1.65282 1.01001 2.36574
-3.43155 0.834676 2.26195
0.180631 0.366741 2.35308
-2.69835 0.494414 2.14916
-3.86193 0.798069 1.82426
-1.24433 0.287432 1.82098
-0.325188 0.341982 1.65677
-0.136343 0.427709 1.75824
-3.49295 0.663881 1.69195
-3.21699 0.629278 1.44777
-0.191283 0.377498 1.63399
-1.58884 0.449607 1.43641
-0.196324 0.140127 1.43699
-3.61962 0.698109 1.3736
-3.30428 0.744618 1.342
-3.30817 0.736319 1.36872
-2.92985 0.602697 1.30268
-3.6463 0.846916 1.3613
-2.94848 0.641058 1.06698
-3.19746 0.570524 1.08205
-2.5689 0.456968 1.00477
1.01899 -0.347779 1.08844
-2.09973 0.975908 1.04917
-2.60346 0.546952 0.999648
-3.56551 0.711972 1.10137
-3.19852 0.579108 1.05764
-2.53675 0.340605 0.967205
-3.96297 0.875818 0.90558
-3.24433 0.599644 0.879684
-3.53825 0.659338 0.974646
-2.5444 0.352398 0.895871
-3.38306 0.764308 0.845221
-3.44092 0.863613 0.7882
-1.59665 0.562092 0.679228
-0.306347 0.161339 0.655395
-2.46029 0.411582 0.526321
-1.18634 0.361587 0.397294
-1.7982 0.2889 0.332818
-2.64965 0.450489 0.0101842
-3.06348 0.655604 -0.0526491
1.27828 -0.146544 -0.301569
-2.08616 0.366362 -0.274322
-1.87535 0.233978 -0.499723
-1.3991 0.0997488 -0.691241
-1.79642 0.149231 -0.568955
0.467043 2.48305 3.58888
-0.619015 2.26543 3.16016
-2.7459 0.569958 3.24903
-3.62695 0.866402 2.62084
-3.22902 0.69653 2.32749
-1.48465 0.935279 2.40955
0.483243 0.41927 2.36166
-3.12766 0.673719 2.23138
-3.80196 0.745877 2.09931
-3.8014 0.785834 2.02458
-3.83867 0.90433 2.04187
-3.85933 0.871599 1.89565
-3.4305 0.820114 1.77686
-0.627299 0.33766 1.6287
-0.164057 0.395692 1.60235
-3.40543 0.76982 1.35402
-0.115385 0.0279399 1.35413
-3.52344 0.764573 1.30998
-2.9957 0.524263 1.187
-2.93452 0.536071 1.11545
-0.26491 0.244543 1.18519
-3.46282 0.617398 0.957813
-3.88438 0.889869 1.07711
-3.76353 0.795071 0.883775
-0.861122 0.596698 0.597317
-3.24855 0.654573 0.548567
-1.14245 0.368617 0.375793
-3.78389 0.892706 0.339966
-3.38739 0.663962 0.0905639
-2.34216 0.321773 -0.181153
-2.7536 0.489747 -0.385499
-1.74484 0.161466 -0.46043
-2.60892 0.520135 -0.53266
-0.797213 2.1921 3.21616
-3.14109 0.668894 3.17002
-0.542744 2.33191 2.97293
-3.45676 0.666253 2.64421
-0.314291 0.510198 2.50708
-2.71989 0.528259 2.34274
-2.95655 0.661466 2.48709
-3.74307 0.86652 2.28405
-2.16499 1.12063 2.30488
-3.19498 0.585689 2.18577
-3.84982 0.883449 2.01913
-2.16142 0.996561 2.076
-2.82398 0.472701 1.96524
-3.25734 0.612485 1.86669
-0.511998 0.318461 1.80329
-0.362103 0.22399 1.74302
-0.35693 0.365658 1.69453
-0.185852 0.522151 1.67086
-2.88409 0.559081 1.62376
-2.4793 0.392146 1.25746
0.417388 0.0386916 1.22704
1.03608 -0.399143 1.07353
-3.20249 0.652897 1.0661
-2.5097 0.390644 1.0825
-2.54875 0.43043 0.881736
-3.80689 0.864657 0.962718
-2.37473 0.428725 0.695035
-0.210648 0.159067 0.698928
-3.12822 0.472669 0.266922
0.452306 0.197627 -0.147973
-0.500836 0.537735 -0.214029
-0.542198 0.526283 -0.254783
-1.7909 0.161727 -0.555773
-1.05954 0.487752 -0.339579
-1.83294 0.191179 -0.411402
-2.9442 0.572915 -0.44765
-2.67639 0.607242 3.41374
-3.11354 0.605279 2.59885
-2.77871 0.485198 2.27774
-1.07314 0.220406 2.05502
-1.04719 0.292863 2.04688
-0.29448 0.400542 1.77821
-0.260903 0.456465 1.72061
-3.41209 0.721606 1.36858
-1.21839 0.304902 1.25743
-1.31623 0.308739 1.03458
-2.57117 0.512568 1.04175
-1.4938 0.35566 1.10291
-2.54761 0.396462 0.99018
-2.70632 0.484108 0.972864
-0.814247 0.645231 0.55976
-1.66665 0.238916 0.421033
-0.0175195 0.120556 0.268674
-0.0167069 0.140426 0.249781
-3.21362 0.66811 0.0550637
-2.6469 0.479561 -0.155647
1.24252 -0.132573 -0.347794
-1.34048 0.706038 -0.258197
-2.34584 0.429478 -0.481128
-1.59819 0.232546 -0.529975
-1.64736 0.179435 -0.570974
-1.63081 0.107522 -0.555641
0.221614 0.431109 -0.882307
-2.21934 1.30902 2.72051
-1.67173 1.13762 2.54825
-2.65138 0.518594 2.45595
-2.64404 0.358306 2.45024
-2.14777 0.7894 1.94325
-0.717377 0.352329 1.59369
-0.14872 0.495547 1.63777
-0.0287289 0.439327 1.61066
-2.57519 0.497399 1.52173
-2.737 0.479188 0.891074
-3.70214 0.773603 0.266245
-2.55533 0.440404 0.0321819
1.20905 -0.179873 -0.369896
-0.727402 0.558575 -0.49278
-1.76587 1.14202 3.56176
-0.996699 0.551007 2.14144
-0.0913986 0.363452 1.65227
-2.69386 0.529262 1.18145
-3.58334 0.779391 0.123508
-3.05256 0.614792 2.49548
-0.348015 0.544328 2.38832
-2.65488 0.508456 2.06939
-0.660639 0.322108 1.02849
-0.684166 0.453938 0.747545
-1.08417 0.47522 -0.477798
-2.27491 0.833557 1.21852
0.64022 0.105799 2.17508
-2.04156 0.808916 1.78705
0.259035 0.0438491 0.560828
-1.27486 0.375547 0.348707
-0.433382 0.479623 -0.604001
-0.578289 2.29026 3.3149
-1.55205 1.13773 3.29728
-0.445622 0.606753 0.0256841
-0.253422 2.38195 3.29378
1.77915 -0.760659 -1.06037
-2.4657 0.496269 -0.270966
-2.45404 0.354244 -0.299991
-3.14261 0.56693 0.0433297
-2.20741 0.36424 0.154312
-2.92091 0.531277 0.316213
-0.0431027 0.101812 0.122356
-3.89539 0.858121 0.409675
-0.086657 0.139623 0.24749
-0.00982526 0.166155 0.295885
-0.194847 0.239602 0.289808
-3.59252 0.77108 0.455051
-2.12072 0.335015 0.499152
-2.20302 0.351273 0.731477
-2.12014 0.314319 0.543025
-2.11349 0.254305 0.618728
-1.94627 0.204822 0.593791
-3.96421 0.870675 0.796049
-2.91505 0.593688 0.938419
-3.45948 0.715105 0.908925
-3.40944 0.769166 0.959599
-3.38266 0.75439 0.921594
-2.76671 0.508752 1.0671
-2.98068 0.580409 1.0871
-1.62415 0.419467 1.11623
-3.63119 0.760595 1.29199
-3.80887 0.812333 1.23382
-3.19651 0.631556 1.39524
-1.22768 0.476136 1.32658
-0.0679573 0.455343 1.42288
-0.112705 0.406591 1.50085
-3.46396 0.629319 1.65535
-3.4502 0.68116 1.6647
-2.86547 0.49054 1.61501
-3.19556 0.615304 1.58687
-3.53372 0.787134 1.65081
-0.056334 0.454773 1.67556
-0.583096 0.219851 1.80155
-3.1768 0.669726 1.83457
-3.47593 0.719721 1.91279
-3.161 0.595656 1.79323
-3.19338 0.603258 1.88998
-0.627564 0.371574 1.91816
-3.03482 0.575511 2.00699
-3.51912 0.723106 2.0722
-3.40644 0.739969 2.02608
-3.40763 0.784907 2.0812
-3.31926 0.663509 2.1992
-3.5375 0.785214 2.16277
-3.76614 0.80697 2.40632
-3.16589 0.619068 2.26213
-2.95968 0.486916 2.40955
-3.79555 0.829568 2.35462
-1.13256 0.80046 2.50916
-3.83971 0.874779 2.51613
-3.11668 0.635494 2.56037
-3.50433 0.746984 2.59106
-3.74218 0.763964 2.76585
-3.0994 0.63694 3.10733
0.504913 2.11951 3.11744
-2.72306 0.527305 3.34405
0.0287222 0.270567 -0.673555
-2.28883 0.276905 -0.45426
-2.365 0.463533 -0.338346
-2.11383 0.317573 -0.173137
-2.76735 0.481974 -0.135179
-3.2445 0.696528 0.086575
-0.143986 0.199074 0.199792
-2.7443 0.565203 0.601942
-2.29901 0.360458 0.618762
-3.47879 0.739784 0.825597
-3.36038 0.660001 1.08335
-2.09353 1.02003 1.12289
-2.60407 0.430484 1.00926
0.392894 0.0748168 0.910394
-2.86201 0.62696 1.23504
-3.40023 0.718586 1.28968
-1.33316 0.273602 1.25299
-3.57154 0.826502 1.31886
-3.02977 0.537203 1.34799
-2.6752 0.487989 1.73619
-2.97061 0.684991 1.6526
-0.233753 0.318058 1.63755
-3.0738 0.491581 1.8292
-0.31795 0.384081 1.70642
-0.418763 0.337609 1.77823
-2.08853 0.739187 1.8299
-1.74469 0.496635 1.86361
-3.05535 0.628391 2.0771
0.666071 0.240362 2.2373
-1.3076 0.84243 2.39922
0.367687 0.220372 2.32148
-2.69956 0.478763 2.37711
-1.29337 0.906977 2.42266
-0.80267 0.710989 2.47601
-1.29472 0.901496 2.47891
-3.66312 0.809995 2.6861
-1.83308 1.11807 3.19051
-3.57466 0.840996 3.48073
-0.640767 0.655919 -0.167703
-1.78366 0.180001 -0.253757
0.408262 0.214823 -0.243006
-2.04453 0.29432 0.259005
-1.03284 0.2655 0.550153
-0.831927 0.465841 0.695212
-2.62833 0.473358 0.793701
-2.55206 0.407814 0.793072
-2.78299 0.531217 1.32778
-2.63546 0.401489 1.46809
-2.56963 0.547958 1.69552
-0.295798 0.332503 1.66075
-2.66487 0.387759 1.77971
-3.32727 0.763849 1.89099
-2.88424 0.569586 2.17963
-3.25757 0.726131 2.20712
0.182596 0.46129 2.28766
-3.73335 0.853112 2.35645
-3.26156 0.614155 2.4378
0.19771 2.17189 2.89431
-0.486172 2.27587 2.83494
-0.3326 2.36165 3.17754
0.447868 2.06003 3.07666
1.75325 -1.01035 -0.82252
-3.66809 0.892739 1.00676
-1.36316 0.480309 1.38978
-2.56483 0.498453 1.33946
-1.45438 0.474688 1.37094
-0.260124 0.458453 1.51209
-1.2318 0.289611 1.84745
-2.15335 0.813373 1.93929
-2.00569 0.702848 1.83659
-3.71997 0.897889 1.9121
-0.972966 0.408246 2.1086
-2.85962 0.542398 2.0762
-3.09475 0.641658 2.2582
0.0736632 0.490576 2.21736
-2.18941 1.16488 2.2694
-2.89931 0.451005 2.42833
-0.572096 2.35732 2.92595
-1.14079 0.303417 0.476369
-2.93742 0.499541 0.471475
-2.75866 0.406279 0.883581
-2.64339 0.45698 0.910484
-2.60702 0.538619 1.21934
-0.368536 0.306021 1.79376
-2.68595 0.466588 1.86333
-2.79362 0.397488 2.46537
-0.811949 0.57513 -0.451218
-2.03379 0.70704 1.95844
-2.28792 1.18234 3.38972
0.188446 0.175738 0.611469
-2.95728 0.544675 1.28159
-2.70471 0.564633 1.42948
-1.78031 1.06167 2.80012
-0.686591 0.537474 -0.179056
-0.683451 0.48567 2.08303
-2.09977 0.827887 2.10072
-2.7255 0.479559 0.940748
-0.132485 0.199816 1.25984
-0.357853 0.47677 0.0984002
0.64644 -0.0308933 1.67826
-1.83585 0.304393 -0.462716
-2.15018 0.266263 0.663159
-3.58651 0.809221 1.2361
-2.5597 0.480544 0.873034
-2.76296 0.580709 1.63186
-2.69121 0.500291 1.63861
-2.90191 0.632267 1.74794
-3.30159 0.580388 1.91158
-3.35828 0.749438 1.93653
-3.14955 0.545609 1.88983
-3.46266 0.816636 2.12902
-3.71094 0.836646 2.22306
-3.43415 0.722023 2.00573
-3.43388 0.779518 2.08028
-3.35722 0.71284 2.08757
-3.19006 0.668584 2.14324
-2.81592 0.574386 2.09774
-3.51312 0.77768 2.34072
-0.0832943 0.109289 1.29031
-3.17576 0.584519 2.51361
-0.202736 0.491429 1.58733
-0.292939 0.38893 1.61821
-0.211571 0.420259 1.66984
-3.09412 0.584641 2.86469
-2.99993 0.590159 2.784
-2.63039 0.418589 2.79902
-3.2183 0.716047 2.96931
-3.19357 0.672328 3.25942
-3.2325 0.672176 3.22193
-3.16539 0.642529 3.1878
-3.19702 0.853695 3.47235
-3.12008 0.82794 3.41414
0.958678 2.07328 2.94331
-2.39774 0.394237 -0.253211
-2.39897 0.356696 -0.255078
-1.47775 0.677344 -0.442773
-2.02749 0.283549 0.0563075
-0.540181 0.526219 -0.291755
-3.54228 0.811999 0.914703
-2.52547 0.438672 1.05559
-3.10599 0.579227 1.81426
0.439472 0.108623 1.18475
-0.305285 0.419969 1.55335
-0.754107 0.314757 1.77265
-3.46262 0.764348 2.77319
-0.530602 0.368032 2.05999
-2.88064 0.635821 2.93432
-0.0812592 2.33093 3.34148
-2.08912 1.02457 1.07941
-3.8449 0.761485 2.28685
-2.78292 0.540943 2.45828
-3.81087 0.859732 2.86371
-3.52946 0.775209 2.84645
-2.74677 0.626894 3.5052
-1.984 1.15237 3.29136
0.598789 2.33244 3.61876
-1.54293 0.133228 -0.578082
-2.58029 0.473337 0.0107526
-0.775111 0.599823 -0.226892
-0.385006 0.32417 0.443101
-2.8004 0.552897 1.45355
-2.8032 0.458272 2.25776
-3.20865 0.605915 2.38643
-0.744921 0.311955 1.8299
-0.418887 0.429701 1.94435
-0.417433 0.650718 2.51774
-0.996436 2.17429 3.17724
-3.56178 0.793922 2.24154
-2.34529 0.964392 2.04813
0.943619 -0.316617 0.985085
-0.571682 0.322144 1.86393
-2.61251 0.431149 2.55211
-2.07399 1.06814 2.49877
-1.70241 1.03447 2.64862
-2.10584 0.978721 2.15434
-2.71027 0.493845 2.34222
-2.56985 0.517721 2.52294
-2.82131 0.512856 3.39584
0.598234 2.40246 3.63745
-2.65727 0.475151 2.14633
-1.20164 0.785195 2.20161
-0.0707039 2.44645 3.15395
-0.305767 2.34211 3.39602
-0.827852 0.386724 1.13933
-1.83868 0.175845 -0.52954
-3.17964 0.64883 2.04968
-3.49412 0.688738 2.38108
-0.346257 0.238595 0.254543
-3.18449 0.615911 2.61571
-2.79677 0.627864 2.54212
-3.09158 0.651186 3.07833
-2.63538 0.532479 2.70099
-0.259823 0.285724 1.12384
1.00537 -0.369652 0.731865
-0.197344 0.450844 1.684
-0.203249 0.468039 1.67705
-0.472216 0.325697 2.08166
-2.18173 0.354464 0.0816691
-2.47535 0.441712 0.801379
-3.56657 0.809177 2.05074
-3.25183 0.764131 2.90103
-0.263426 0.182952 0.916711
-0.505015 0.209448 1.65263
-0.189793 0.442504 1.66401
0.47573 0.34154 2.21524
-2.34745 0.388634 -0.448045
-1.64189 0.156397 -0.666929
-2.53614 0.400279 1.33081
-3.55938 0.646743 2.46338
1.06246 0.0579682 -0.996845
-0.552779 0.379269 1.07798
0.516614 -0.0538435 1.18721
-0.169485 0.411788 1.66916
-1.55163 0.127255 -0.615662
-4.04681 0.865108 2.71281
-3.36366 0.774497 2.5677
-0.788998 0.314077 1.14012
-1.37017 0.52723 0.368289
-0.638079 0.323376 1.24585
-2.60231 0.501152 2.68666
-1.61593 0.647534 0.535497
-0.756741 0.347488 1.9503
-2.40433 0.381784 0.815554
-2.25948 0.616368 1.29497
-3.72646 0.861306 1.95385
-2.52272 0.373731 -0.0804158
-2.35099 0.301957 0.0622823
-2.20599 0.323498 0.624509
-3.16609 0.623604 3.07235
-1.44664 0.712839 -0.310774
-0.685139 0.34282 1.8011
-0.695097 0.405817 1.84094
-0.275114 0.393724 1.4695
-0.173117 0.387374 1.48375
-0.230959 0.372403 1.69464
0.343641 -0.0316267 1.17866
1.02689 -0.441014 1.10491
-3.81618 0.815992 2.37417
-2.81169 0.544373 2.26953
-2.06363 1.18227 2.24657
-0.691746 0.347274 1.70025
-0.454811 0.293491 1.85036
-0.647381 0.530807 2.21352
0.948637 -0.338489 0.972013
0.529954 -0.00179286 1.98016
-3.39516 0.722314 0.602813
-3.60303 0.743839 0.999542
-2.61673 0.442893 1.06464
-2.12082 1.22081 2.22328
-1.6901 1.16211 3.54203
0.32756 0.0984642 1.24397
-2.1856 0.88143 1.13523
-1.5508 0.497907 1.14371
0.465118 0.148621 1.62432
-3.45919 0.67095 2.6632
-1.35214 0.336875 1.45212
-0.96177 0.384903 -0.179706
-3.2748 0.743013 -0.323057
-2.38743 0.310635 -0.396337
-3.14359 0.601771 3.0721
-2.4934 0.378974 0.952408
-1.86273 0.172483 -0.475114
-1.47012 0.679884 0.323956
-0.175702 0.509476 1.64338
-0.11212 0.371535 1.47598
0.31649 0.3803 2.43429
-3.28079 0.638587 0.338579
-2.91718 0.598513 0.879004
-2.67613 0.464139 1.01926
-2.73753 0.547151 2.21753
-1.705 0.435174 1.84614
-0.399065 0.242111 0.380281
-0.254887 0.248297 0.233723
-3.70818 0.80422 0.967585
-3.28753 0.750023 0.288455
-3.29224 0.653519 1.60809
-2.59068 0.489607 0.341534
-1.45831 0.395172 0.817945
-0.598288 0.348119 1.44027
-0.59487 0.272345 1.71089
0.476154 0.206374 -0.301911
0.396366 0.0229979 1.01781
1.76919 -0.926648 -0.753238
-3.88086 0.854808 0.0914822
-3.47968 0.752092 0.927801
-3.40966 0.72105 0.938184
-3.51774 0.682553 0.943814
-2.94605 0.479365 0.827967
-2.91672 0.466884 0.650538
-1.48027 0.4334 1.27447
-0.139225 0.106651 1.32149
0.36807 0.0449706 0.88902
-3.70937 0.766816 1.33509
-3.43039 0.809717 0.661242
-1.67246 0.143562 -0.529552
-0.284403 0.157578 1.34473
-0.929432 0.589419 2.15132
-1.47011 0.371724 1.27227
-2.18137 0.966459 2.09525
1.23837 -0.312288 0.124488
-3.79548 0.870779 2.24412
-3.56956 0.765529 0.28357
-3.37078 0.667151 2.99264
-3.11436 0.646478 0.637499
-3.06281 0.68187 1.76016
-3.01742 0.508058 0.196164
-2.97247 0.576608 0.284139
-3.00556 0.627306 0.216562
-2.78849 0.575577 1.85562
-2.75649 0.521229 2.14667
-2.62802 0.33043 0.451936
-0.80226 0.334857 1.12537
-0.680584 0.373463 1.23731
-0.786152 2.23874 3.18629
-0.457758 0.273046 1.11521
-0.117905 0.394656 1.54197
-0.0067983 0.487556 2.2703
0.299751 0.348095 -0.688243
0.364814 -0.0263748 1.21109
0.938095 -0.311149 1.50696
1.08469 -0.201489 -0.00334341
-3.81088 0.85863 2.58405
-3.62995 0.783633 1.86243
-3.23089 0.616221 0.984605
-2.92488 0.504529 1.10649
-2.73734 0.342564 1.19955
-2.64861 0.425467 -0.0555501
-2.53818 0.523048 0.242898
-2.52493 0.399658 -0.473693
-2.25873 1.22552 2.37657
-2.24902 1.08944 2.42406
-2.36967 0.417672 -0.219668
-2.14164 0.261132 0.471612
-1.80587 0.248795 0.361752
-1.77305 0.465696 1.93666
-1.42618 0.36163 1.07456
-1.24136 0.323962 0.990061
-0.932398 0.464993 0.827896
-0.619458 0.351771 1.15613
-0.579308 0.500563 -0.162122
0.106426 0.175499 -0.0552698
0.126577 0.141012 -0.206063
0.0667968 0.0677472 0.0805554
0.888546 -0.258349 1.40352
-3.79791 0.828784 1.99868
-2.5517 0.480503 0.340326
-2.71729 0.428754 0.241109
-2.35421 0.377761 -0.709346
-1.01349 0.243702 1.52643
-0.727332 0.381366 1.66347
0.538975 -0.06847 1.68514
0.567036 -0.0414609 1.93781
-3.26939 0.687895 1.40095
-3.23882 0.562328 0.96669
-2.70319 0.542537 0.837762
-2.43993 0.452801 0.706885
-1.84592 0.608517 1.55747
-1.50524 0.983925 2.28019
-0.792011 0.368481 1.49307
-0.3468 0.229115 0.43571
0.399797 0.0619117 1.14897
0.496617 0.00959878 0.914866
-3.67129 0.773314 0.333033
-3.59645 0.741843 0.164538
-3.61007 0.717844 0.13479
-3.04824 0.540355 0.188109
-2.32323 0.326552 -0.244622
-2.16744 0.998227 1.02279
-1.72811 0.258284 -0.426836
-1.66827 1.01894 2.34322
-1.46089 0.38112 0.83683
-1.40603 0.412393 0.914954
-0.861338 0.410664 1.62793
-0.730799 0.379127 1.26907
-0.427079 0.338847 0.511293
0.397649 0.217315 -0.0118008
0.514618 0.0503922 0.546313
-3.36701 0.74775 1.33237
-3.21115 0.628814 0.439181
-2.66694 0.41566 0.00357671
-2.20432 1.19374 3.11512
-1.72446 0.99091 3.10265
-1.31374 0.480357 0.815762
-0.663624 0.345137 1.25032
-0.135937 0.231353 -0.0658634
0.404762 0.11942 1.23511
-2.25169 1.24294 3.2383
-0.859942 0.45985 0.493426
-0.453343 0.359799 1.8113
-0.761998 0.482714 0.439952
-0.210259 0.226731 1.29586
-0.364306 2.43978 3.3392
0.421642 0.0669824 -0.0446184
0.931181 -0.28838 1.48557
0.173339 0.0440675 0.0873472
1.07035 -0.253545 -0.0747536
-3.49374 0.788884 2.18665
-3.43235 0.6778 1.27089
-3.57 0.896628 0.376173
-2.88633 0.492403 2.01584
-2.80562 0.621387 1.92967
-2.82382 0.530089 1.63351
-2.6678 0.51196 1.07381
-2.63114 0.524552 1.28512
-2.65048 0.456383 1.05446
-2.44055 0.405595 0.0172505
-2.36509 0.301527 -0.400982
-2.19877 0.422398 -0.570494
-1.80942 0.206978 -0.513155
-0.662693 0.730393 2.58379
-0.348288 0.250834 0.463383
-0.649392 0.530395 -0.626899
-0.0587792 0.056326 0.24268
0.445573 0.288002 0.0771254
1.14565 -0.198456 0.305586
-3.69063 0.949256 2.2088
-3.29589 0.647894 1.81653
-3.40516 0.684651 0.642776
-3.24858 0.636317 -0.260883
-3.29782 0.68072 -0.273489
-2.65469 0.477582 0.315739
-2.77188 0.540685 -0.465944
-2.18877 0.328501 0.592919
-1.41016 0.348402 1.18365
-1.24 0.371098 -0.0180715
-0.735573 0.50897 1.20234
-0.199358 0.249056 1.95648
-0.117848 0.436729 1.57781
0.136922 2.24664 2.85198
0.102048 0.155303 -0.00928051
-3.42405 0.608574 1.30488
-3.39614 0.712478 1.32068
-3.22908 0.652059 0.988004
-2.77958 0.56104 1.51368
-2.94981 0.429459 0.559612
-2.62339 0.449238 0.378445
-2.64161 0.545948 -0.499748
-2.69392 0.437972 -0.490856
-2.62001 0.453266 -0.248248
-2.05127 0.276557 -0.630778
-0.753252 0.46531 1.2121
-0.691771 0.328016 1.7557
-0.574175 0.276902 1.50114
-0.86147 0.484375 0.784925
-0.622023 0.326284 1.18784
-0.792843 0.585491 -0.257011
0.443693 -0.00598998 1.06283
0.51034 -0.0365629 1.20572
0.526544 -0.0541362 1.1753
0.249111 0.122364 0.230755
0.255783 0.229296 -0.625143
0.916492 -0.350514 0.732859
-3.71461 0.83605 1.16338
-3.6741 0.788583 1.03787
-3.39654 0.801351 1.29742
-3.45269 0.838792 0.968275
-2.7738 0.498882 -0.326288
-0.667584 0.33997 1.25341
-0.732619 0.397851 0.884334
-0.663365 0.267533 1.02673
-1.02272 0.469339 -0.645772
-0.114355 0.52271 1.66314
0.436159 -0.0474758 1.92999
0.373041 0.0762454 1.3299
0.783836 2.04222 2.99223
1.10675 -0.158403 -0.255009
-3.70427 0.86261 1.99854
-3.47385 0.716014 2.66867
-3.71366 0.894146 0.482103
-3.30788 0.667107 -0.252536
-1.02762 0.299179 1.50403
-0.558121 0.244091 1.22572
0.398321 0.0840484 1.14396
0.389406 0.149326 0.56086
-1.626 0.612867 -0.134198
-0.788246 0.469052 1.75282
1.25965 -0.220707 0.468152
-2.19087 0.957841 1.20589
-0.300686 0.159997 0.962943
-2.22801 1.19412 3.01632
-0.280423 0.306307 1.57918
-0.814936 0.426606 0.28949
-3.27871 0.639912 1.88652
-2.82049 0.596205 1.95136
-3.79677 0.866386 0.219276
-2.88075 0.602665 1.47889
-3.50181 0.677808 -0.100319
-2.71808 0.538482 1.09446
-2.92239 0.554701 0.580602
-2.55607 0.452668 0.953345
-0.758931 2.32261 3.02228
-2.6273 0.42883 0.407189
-2.57681 0.419872 0.367877
-2.62821 0.498803 -0.168405
-0.116686 0.204893 1.96782
-0.177241 0.463648 1.59241
-3.02012 0.541542 1.10515
-1.45019 1.03312 2.49982
-3.18964 0.654611 0.107876
-2.83032 0.501578 0.371768
-2.19273 0.361451 0.64368
-1.48727 0.363665 1.42913
-0.296856 0.525409 2.52976
-0.595288 0.321303 1.3518
-3.77067 0.932545 2.71458
-2.9449 0.692301 3.44058
-3.59663 0.884511 2.18349
-3.52964 0.763245 1.96803
-2.12219 1.17532 2.52919
-2.77375 0.509842 1.62292
-2.8206 0.593411 0.796403
-2.54136 0.556314 0.920116
-2.55238 0.424918 0.572522
-0.576802 2.33606 3.25165
-0.613785 2.33017 3.09932
-1.25959 0.36096 1.13444
-2.29914 0.388958 -0.418052
-0.761717 0.371945 1.06224
-0.0380158 0.510371 1.65144
0.379112 -0.0311212 1.48857
0.923331 -0.291213 1.39143
-3.74498 0.833446 2.48573
-3.83789 0.949 1.76114
-3.15809 0.631697 2.14407
-2.96313 0.597625 0.362838
-0.829478 0.700808 2.42891
-0.434903 0.605385 2.33147
-1.42309 0.380809 1.09065
-0.569153 0.349439 1.71826
0.414926 0.370543 2.42431
0.522408 -0.0289649 1.20623
0.471698 0.207173 -0.617806
-3.16009 0.708129 3.07913
-3.57644 0.891259 2.14597
-3.45519 0.674165 0.539982
-0.811339 0.318763 1.57776
-0.811136 0.461216 1.0536
0.0801139 0.39145 2.35851
-0.542763 0.389529 1.19791
0.24604 0.227707 -0.542681
-3.79587 0.814634 2.11428
0.14122 0.404246 2.38891
0.263446 0.132364 0.84452
-0.27001 0.201556 0.0521729
-1.36456 0.403261 0.898404
0.0508551 0.390132 2.39936
-3.83459 0.845584 1.80213
-3.52112 0.791583 2.38132
-3.45989 0.738424 2.31614
-3.86438 0.877698 1.68855
-3.29888 0.716156 1.98605
-3.25633 0.657623 1.89802
-2.79429 0.486238 1.98647
-3.3978 0.750121 1.27021
-3.15389 0.60217 1.44569
-3.91845 0.851474 0.826691
-3.95549 0.92052 0.788423
-1.53287 0.889288 2.49417
-3.85302 0.885787 0.725347
-3.34466 0.732051 1.04175
-3.43841 0.705068 0.941112
-3.84142 0.855527 0.49034
-2.84242 0.583955 1.31669
-3.88908 0.821573 0.476782
-3.01775 0.616248 1.13336
-3.85712 0.82388 0.320044
-3.68598 0.835681 0.332802
-3.86725 0.855369 0.307875
-2.64893 0.54327 1.08021
-3.75409 0.76487 0.235674
-3.84756 0.823101 0.213013
-2.63917 0.524768 0.910064
-2.55423 0.410561 0.962987
-2.07399 0.96239 1.11045
-2.8025 0.427282 0.526366
-3.28989 0.614606 0.0933047
-2.98586 0.556493 0.296704
-2.80225 0.500931 0.309052
-3.46253 0.78247 -0.283675
-3.24204 0.649651 -0.0855706
-1.86003 0.283876 0.577913
-2.61774 0.478354 -0.10417
0.609274 0.303272 2.29398
-2.3804 0.464413 0.0432107
-2.59329 0.400902 0.0658195
-2.77691 0.494062 -0.433261
-0.738541 0.57843 -0.173635
-2.9541 0.547517 2.19878
-0.51713 2.35827 2.97326
-3.89122 0.91311 0.39725
-2.50679 0.40387 1.2361
-3.55148 0.760708 0.522139
-3.78889 0.759685 0.25843
-3.38411 0.711354 0.33154
-2.78558 0.568181 0.302695
-3.06858 0.665416 0.0117974
-2.4865 0.387172 0.35099
-0.432871 0.174632 1.80662
-2.30665 0.3945 0.314016
0.712373 0.220305 2.32934
-0.152808 0.548823 1.54744
-2.4995 0.427656 -0.00276477
-0.104878 0.437187 1.49816
-0.890921 0.508275 0.660893
0.95165 -0.253749 1.29498
-0.689427 0.640777 -0.169738
-0.281979 0.451891 -0.587072
-3.33001 0.649254 3.05356
-3.76207 0.945178 1.84389
-2.11592 1.18983 2.85626
-0.718535 2.17001 3.25036
-0.860794 2.15669 3.1554
-3.75476 0.746005 1.03606
-3.12038 0.648812 1.51431
-3.60421 0.813605 1.08653
-2.90602 0.521217 1.31077
-3.59875 0.81038 0.190122
-0.485667 0.542723 2.39384
-1.3536 0.444877 1.33483
-0.533083 0.274518 1.72789
-0.614472 0.327817 1.45588
-2.63183 0.462575 -0.21233
-2.86656 0.710272 3.51083
-3.23566 0.678981 2.90864
-3.76042 0.735268 2.40991
-3.4775 0.770615 0.610767
-2.64312 0.459078 1.04919
-1.9462 0.27905 -0.748793
-0.670262 0.603453 -0.173346
-0.113085 0.320302 -0.464781
-3.68275 0.843602 2.18253
-3.7247 0.872905 2.1118
-3.26729 0.706544 2.12943
-0.266838 2.3527 3.03256
-3.41153 0.717321 0.599107
-1.83803 0.489873 1.81607
-0.816189 0.506721 1.5672
-1.47368 0.571701 -0.120575
-0.34524 0.402588 -0.683178
-1.48243 1.16482 3.42247
-3.62224 0.807035 1.03359
-0.395445 0.284591 1.65592
-1.60712 0.494572 1.50689
-1.51323 0.322801 1.39127
-1.11802 0.358661 1.11517
-1.86266 1.00681 2.96039
-1.08332 2.17472 2.98037
-3.52229 0.849119 2.29168
-3.45019 0.805648 2.29521
-3.21648 0.610812 2.46274
-3.54133 0.776623 2.03546
-3.25363 0.669234 2.03272
-3.50911 0.737956 1.95841
-2.75022 0.497687 2.19156
-2.99113 0.471374 2.07067
-2.13104 0.818007 1.87378
-3.11734 0.618171 1.538
-3.67002 0.878819 1.34573
-3.48942 0.668042 1.26139
-3.57757 0.777396 1.29285
-3.6698 0.806315 1.23164
-3.24822 0.700239 1.39723
-3.42264 0.705536 1.15622
-2.95756 0.620415 1.20534
-3.75693 0.862272 1.04049
-3.5075 0.697733 0.984911
-3.41733 0.72676 1.01089
-3.33805 0.711931 1.05576
-3.33904 0.635128 1.07597
-3.79002 0.887603 0.868913
-4.01569 0.854035 0.788493
-3.87409 0.817655 0.716014
-3.41137 0.815926 0.958562
-3.98211 0.897678 0.681196
-3.96297 0.877346 0.621241
-2.77103 0.496597 1.00341
-0.231186 0.497482 1.67037
-2.58761 0.484597 0.82169
-2.50019 0.513344 0.869234
-0.113606 0.419105 1.47819
-0.106615 0.434449 1.53692
-3.84068 0.810116 0.344631
0.0441851 0.347145 1.44096
-3.50001 0.643438 0.407531
-3.83292 0.828159 0.305753
-2.75495 0.423441 0.569958
-2.38779 0.416103 0.634977
-3.85095 0.824892 0.183124
-2.25297 0.300666 0.632664
-3.01502 0.634036 0.223402
-2.86999 0.608095 0.272735
-2.95378 0.619996 0.24179
-2.40933 0.455604 0.372197
-3.30249 0.715817 0.0243744
-3.3459 0.649429 0.0889794
-2.10956 0.375648 0.311886
-3.10004 0.575504 0.0500486
-3.10253 0.669302 0.146305
-2.9343 0.643406 -0.123579
-3.4867 0.577226 -0.320914
-1.96983 0.279402 0.0342688
-2.60803 0.464665 -0.21694
-0.157608 0.245001 0.152375
-2.54347 0.416847 -0.499828
-1.83479 0.18558 -0.558367
-1.71678 0.0341817 -0.541443
-0.0776466 0.282825 -0.621217
-0.430834 2.5048 3.55978
-1.98563 1.09325 3.14414
-3.62326 0.810407 2.54476
-3.46132 0.76516 2.31665
-3.8149 0.871856 2.02146
-3.44629 0.72739 2.11824
-3.69889 0.821248 1.92491
-2.83332 0.616828 2.21758
-3.81381 0.773842 1.72145
-0.875862 0.714124 2.47327
-3.02974 0.652846 1.5352
-3.12236 0.550584 1.5045
-3.25829 0.722207 1.43997
-1.70203 0.520315 1.87188
0.2831 0.440666 2.26461
-3.64098 0.809922 1.01056
-3.36057 0.727336 1.15946
-3.9401 0.872139 0.859939
-2.69569 0.450651 1.04888
-2.57147 0.443154 0.997367
-2.59068 0.470538 1.03644
-2.60303 0.449297 0.735071
-2.51043 0.403591 0.655103
-3.66792 0.729255 0.185359
-2.69082 0.556629 0.0489464
-2.30977 0.348315 0.113706
0.306713 0.104871 0.824923
-2.65218 0.538998 0.0153348
-2.67931 0.501523 -0.118428
-2.23032 0.263653 -0.46133
-1.95728 0.22978 -0.601786
-1.67629 0.160228 -0.567638
0.301118 0.189216 -0.610338
-3.69643 0.825737 2.85612
-0.543703 2.41882 2.88072
-2.90095 0.476907 2.28873
-3.76136 0.909587 1.85617
-3.77598 0.797272 1.71863
-3.56914 0.78569 1.33315
-0.95657 0.45162 2.10141
-1.07381 0.297511 2.15729
-2.62491 0.425 1.38359
-3.71389 0.721519 0.959718
-3.24155 0.646893 1.02179
-2.87202 0.58308 1.12671
-2.43246 0.406309 0.897318
-2.54131 0.347593 0.905202
-2.63574 0.445757 0.726009
-1.34573 0.399025 0.985243
-2.68363 0.39984 0.334492
-3.42878 0.769618 0.059915
-2.28662 0.421324 0.0572109
-3.33461 0.71729 -0.214869
-0.600546 0.542676 -0.198156
0.538863 0.162431 -0.170063
0.454677 0.0946504 -0.584923
1.74543 -1.03736 -0.87199
-3.84859 0.855813 2.52803
-0.546074 2.40893 2.93359
-3.33268 0.605676 2.26407
-3.50271 0.706102 1.9543
-0.231661 0.539906 2.60995
-2.70049 0.416939 1.09875
0.282184 0.197974 1.79019
-3.06647 0.546936 0.212079
-2.2869 0.443261 0.088006
-3.67144 0.804515 2.03881
-2.18683 0.885842 1.84081
-1.42969 0.449867 1.44979
-3.53884 0.751289 0.723601
-2.56758 0.488968 0.987429
0.333826 0.0778323 1.17208
-0.734435 0.689183 -0.21249
-0.766466 0.587105 -0.337246
-2.23883 1.27289 2.54823
-3.24669 0.633431 1.86499
-3.73554 0.744547 1.50997
-0.476956 0.69773 2.2536
-2.86606 0.534707 0.892788
-1.1517 0.153494 0.485864
-0.854903 0.4638 -0.369163
-2.63123 0.483057 2.17192
-2.76708 0.535888 0.845604
1.20966 -0.212919 -0.180095
-0.143626 0.146743 1.34825
0.116436 0.0997182 1.16291
-0.519455 0.347365 1.80185
0.103231 0.136763 0.0558906
-0.410996 0.387725 0.249377
-0.916504 0.55054 -0.377701
-0.416012 0.552096 -0.598275
-1.9237 1.24204 3.49858
-0.583329 0.485481 -0.401279
-2.25961 0.315747 -0.157127
-3.74107 0.813611 0.29939
-2.37176 0.362003 0.325523
-1.12659 0.285786 0.501886
0.0200667 0.0570651 0.573237
-2.96574 0.497807 0.846324
-2.92984 0.541474 1.02342
-3.3606 0.784968 1.30518
-2.73689 0.501577 1.23529
-3.24629 0.695284 1.24679
-3.4121 0.711405 1.22982
-3.63218 0.800861 1.51684
-3.27474 0.755344 1.65209
-3.00153 0.567041 1.72318
-2.95218 0.589249 1.8022
-3.30489 0.701508 2.049
-3.28911 0.646604 2.12515
-0.576216 0.55486 2.10491
-3.20625 0.739357 2.19403
-1.49095 0.93776 2.32724
0.43864 0.403968 2.49616
-3.0336 0.675756 2.47593
-3.76395 0.794177 2.85464
-3.52039 0.75238 2.83985
-3.30125 0.689551 2.97371
-3.0403 0.649739 3.28072
-2.79585 0.542357 3.35301
-0.508206 0.570072 -0.241494
-0.211045 0.239358 0.128406
-2.71469 0.474098 0.587987
-2.29327 0.333603 0.568642
0.287809 0.0980398 1.14283
-2.56733 0.427225 1.35365
-3.40901 0.704581 1.21771
-2.84777 0.500187 1.37947
-3.03338 0.565111 1.49559
-3.01392 0.491211 1.39072
-1.24859 0.450342 1.4141
-2.90882 0.56358 2.10182
-0.459236 0.513735 2.0433
-0.667286 0.72895 2.25742
-2.17624 1.16254 2.59888
0.048965 2.25591 2.99942
0.725167 2.10967 2.97679
-2.31767 0.447014 -0.364512
-0.0463433 0.224537 -0.100664
-2.6079 0.490285 0.945445
-3.01574 0.572326 0.977592
-3.26941 0.661239 1.08598
-2.52711 0.369384 1.41024
-1.51171 0.361348 1.53322
-0.138705 0.506987 1.6586
-2.14227 0.780266 1.78743
-2.10214 1.14463 2.14688
-2.68227 0.52359 1.16728
-2.00611 0.745672 1.38741
-1.13842 0.399988 1.99811
-0.896868 0.413324 2.0562
-2.86008 0.521139 2.3069
-2.82257 0.543059 2.33711
-2.66525 0.484844 2.34686
-3.66364 0.810876 2.51435
-2.90198 0.541411 2.55935
-1.99033 1.10283 2.72838
-2.2418 1.29479 3.39296
-2.21841 0.221263 -0.226108
-3.33461 0.587374 0.805778
-0.193278 0.431121 1.68058
-2.22666 0.693265 1.82827
-2.09986 1.17568 2.31923
-2.49312 0.461846 2.36331
0.385662 0.413221 2.64473
-3.35622 0.529898 1.02827
-2.91082 0.499675 1.09867
-0.9804 0.562933 2.14237
-1.94886 0.969746 2.17162
-3.28695 0.805835 2.40875
-3.36029 0.719558 1.70099
-0.786259 0.649023 2.18449
-0.356039 2.49463 2.67873
-0.700804 0.371075 1.91974
-0.558701 2.50263 3.34095
-2.67298 0.419676 0.954497
-2.05734 0.650241 1.93378
-1.31494 0.554203 2.05651
-3.29059 0.693788 0.0518308
-2.08491 0.325907 0.643372
-1.06564 0.318866 0.44383
-2.59277 0.374805 1.05974
-3.37742 0.657189 1.33754
-3.61978 0.858991 1.29521
-3.03207 0.586349 1.73254
-3.20433 0.609159 1.86853
-3.47849 0.710368 2.06202
-3.27641 0.695294 2.08512
-2.63561 0.54121 2.06794
-2.25635 0.853127 2.15312
-3.64589 0.816617 2.38317
-3.58081 0.751365 2.45472
-2.7671 0.548183 2.22877
-2.9749 0.637924 2.38191
-0.525177 0.439128 2.04201
-1.65589 0.906096 2.37188
-3.54269 0.651914 2.89702
-1.62778 0.968979 2.49181
-3.43867 0.853779 3.59339
-2.11137 1.17508 3.4132
-2.99707 0.644344 2.12243
-0.255896 0.489853 1.5701
-3.17892 0.662509 2.40818
-1.22331 0.731973 2.23953
-3.07282 0.573689 2.80524
-1.91833 0.986234 3.12565
-2.08936 1.10644 3.06122
-1.60124 0.123656 -0.586304
-1.8422 0.181366 -0.610965
-0.744448 0.531112 -0.425604
-2.56774 0.432991 0.907941
-3.50622 0.70838 2.85388
-0.408219 0.602774 2.3175
-3.58161 0.810839 3.36541
-2.94653 0.56827 3.35975
-2.10691 0.319755 0.75524
-2.59113 0.529636 1.13591
-3.31515 0.729341 1.26893
-2.77288 0.528421 2.08957
-2.71234 0.483944 2.42938
-1.39194 0.84597 2.28122
-2.69424 0.448383 2.58671
-3.18208 0.578435 2.85732
-2.65593 0.422217 2.01252
-0.491597 0.306847 1.71507
-1.06106 0.358619 2.21076
-0.406319 0.525147 2.15702
0.187425 0.540428 2.22257
-2.76878 0.568293 3.36592
-1.8334 1.09678 3.31107
-0.328202 0.166793 0.318132
-2.10051 0.707478 2.07678
-2.75932 0.572717 2.08526
-0.128014 0.423457 1.63958
-2.62521 0.504324 1.44933
-0.744181 0.325469 1.15043
-2.08139 0.972041 2.06963
-1.13545 0.768652 2.18886
-2.24412 1.22936 3.42474
-0.549584 0.693658 2.33521
-2.51135 0.537619 1.08963
-3.69469 0.798373 2.2965
-3.63168 0.770065 2.47431
-2.84792 0.445695 2.27458
-3.27589 0.670433 2.6114
-3.25098 0.582816 2.91485
-0.232525 0.4307 1.65974
-0.357954 0.395713 1.70806
-3.36937 0.730841 0.617099
-2.54186 0.412077 0.98933
-2.97359 0.576857 2.30936
-2.17924 0.823377 1.90927
-0.14099 0.260178 1.27299
-2.67044 0.450753 2.83896
-1.6256 0.191806 -0.692315
-2.51469 0.45105 1.39036
0.51254 2.26669 3.53605
-2.21919 0.357195 0.0881471
-1.26914 0.549835 -0.0109821
-2.55934 0.436277 1.05799
-2.76638 0.529514 3.32599
-2.12949 0.934637 0.911648
-1.75462 1.15397 3.64741
-0.729512 0.628626 2.11991
-1.74445 1.0618 3.28749
-2.52729 0.449212 1.14186
-2.65664 0.472543 1.14321
-2.64492 0.622738 3.23235
-0.182076 0.463303 1.75357
0.476425 0.277261 -0.255206
-0.211922 0.491233 1.48267
-0.298281 0.454528 1.64934
-0.18721 0.518059 1.64412
-2.97096 0.616414 2.85132
-1.56658 0.208019 -0.628525
0.461429 0.00854402 1.16892
-0.133826 0.154634 0.109697
-0.187434 0.333193 1.71038
-1.53923 0.672094 -0.290894
-0.0856575 0.408639 1.5629
-2.53576 0.468835 0.996741
-2.53797 0.430025 0.933464
-2.88383 0.488336 2.27115
0.458503 -0.13306 1.14411
-2.52776 0.437109 0.912944
-2.42018 0.405803 1.07726
-2.91001 0.364422 2.22556
-0.955307 0.515558 2.04884
-1.7351 0.673612 0.691876
-0.213602 0.170705 1.50514
-3.77998 0.767057 2.02991
-3.8237 0.857746 2.17856
-2.51438 0.441512 1.10158
-0.587843 0.319407 1.01067
-0.590046 0.351788 1.82332
-0.215349 0.410954 1.5631
0.905061 -0.209086 0.761037
-2.81918 0.57158 2.12804
-0.494454 0.286744 0.956637
-2.54668 0.40619 0.850513
-2.21882 1.17672 2.23254
-1.3464 0.342938 1.8647
-1.4014 0.299938 1.10584
0.00182862 0.141494 1.21098
-2.39227 0.495072 -0.150381
-0.112107 0.156731 0.619016
-3.65182 0.713254 1.03372
-0.889134 0.560437 2.16415
-0.358515 0.27064 0.993304
0.545083 -0.140291 1.12012
-3.01234 0.47591 0.756039
-0.666153 0.299135 1.54925
0.509756 -0.0607233 1.61501
-3.75506 0.8637 2.17149
-2.70937 0.468855 -0.476144
-2.91723 0.577183 0.887063
-2.65562 0.480632 -0.135088
-2.36835 0.320646 -0.429632
-1.27984 0.390804 1.66479
0.448608 -0.0868024 1.9054
-1.4305 0.367414 0.82645
-1.52933 0.38427 1.46445
-0.643872 0.311941 1.4152
-2.40288 0.36545 0.849992
-2.16542 1.07041 2.39467
-0.446047 0.425281 1.80009
-3.76009 0.831757 2.00274
-3.16579 0.663034 1.98338
-2.65721 0.478693 0.61816
-2.13703 0.329193 0.613803
-2.092 0.314302 -0.141489
-1.56391 1.01169 3.13967
-1.29592 0.363868 1.78302
0.419111 0.0408097 1.04855
-3.75687 0.869096 1.94817
-3.26568 0.667408 0.312295
-3.31121 0.662351 0.389013
-3.19629 0.711114 0.501235
-2.6646 0.406598 0.453407
-2.47721 0.386382 0.327444
-2.38636 0.477259 0.752208
-2.25932 0.408621 -0.26967
-1.75065 0.963062 2.28148
-0.700413 0.392199 1.33898
-0.541321 0.321297 1.45202
0.33798 -0.026431 1.29859
0.400388 2.17961 3.06288
-3.56967 0.774682 1.01428
-3.28968 0.691487 1.97427
-2.92273 0.552607 0.256179
-2.12946 0.413645 0.62722
-0.733565 0.343025 0.980026
-0.55712 0.384202 1.00078
0.41714 0.186415 0.0378835
-3.78904 0.834976 0.367421
-3.77987 0.876704 2.14915
-3.72365 0.788069 2.08383
-3.67888 0.78657 1.02914
-3.66772 0.764016 1.00734
-3.55261 0.768716 0.0466289
-3.39128 0.697636 1.505
-3.36557 0.723105 1.3603
-3.42331 0.680039 1.33497
-3.0419 0.582671 0.218806
-3.0594 0.566814 1.15993
-2.94089 0.59719 1.13869
-2.92137 0.557148 0.860905
-2.645 0.666609 1.52829
-1.49919 0.676997 -0.296234
-1.40973 0.38285 0.872874
-1.4077 0.384027 1.64664
-0.461491 0.317484 0.430067
0.490562 -0.0041532 1.02957
-3.70809 0.840596 0.575316
-3.32957 0.676796 1.28907
-3.29282 0.668408 0.447533
-0.176321 0.0855676 -0.187973
0.982942 -0.385007 0.909828
-0.548626 0.327673 1.55665
-0.474253 0.345092 1.08419
-0.65507 0.347873 1.32567
-0.394581 2.44552 3.26618
0.524833 -0.0367145 1.10213
-0.940989 0.454164 0.392004
-0.274197 0.268565 1.18615
-0.326102 0.270526 1.00659
-1.47182 0.378636 1.1842
-0.167832 0.264604 0.893895
-0.831717 0.331676 1.091
-3.79012 0.826735 2.4246
-3.5506 0.79336 2.1975
-3.52744 0.736058 0.827057
-3.21416 0.684617 0.972477
-3.33569 0.610787 0.234871
-3.28699 0.627307 0.231345
-3.02769 0.625746 0.230654
-2.6914 0.490114 -0.36848
-1.65487 1.0258 2.41776
-1.70044 0.891365 2.33239
-2.31803 0.312052 -0.379429
-1.37253 0.389031 1.05055
