1.47414 -0.784247 -1.76702
1.79764 -0.879547 -1.14628
2.10994 -0.992747 -0.158704
2.12814 -0.980747 -0.253564
1.96594 -0.936847 -1.59865
2.10394 -0.986248 -1.24463
2.22374 -1.02195 -0.856754
2.17334 -0.997547 -1.34756
2.68774 -1.17185 -1.81244
-3.48266 0.798753 2.62292
-3.52286 0.811253 2.18764
-3.09476 0.659253 1.82454
0.79104 2.06754 2.83657
-2.79056 0.572353 1.99218
-3.68736 0.839053 -1.04538
-2.63546 0.527953 2.3651
-2.77156 0.554253 1.98217
-2.74096 0.546653 1.90606
-1.47716 0.958553 2.04829
-1.39286 0.611853 1.65897
-0.73886 0.711653 2.27148
-2.13206 0.324753 0.384796
-0.669459 0.701753 2.14095
-1.61546 0.189753 0.358746
-0.810459 0.220753 0.920227
-0.0159592 0.177653 1.50038
0.120441 0.137053 1.47314
-0.0121597 0.413453 -0.528814
0.0153404 0.389153 -0.535184
0.0338398 0.372553 -0.531924
0.689941 0.279453 1.44274
1.03074 0.167553 2.32219
0.78494 0.203053 1.3197
0.331541 0.0735526 0.228866
0.45264 0.0500532 -0.292214
0.64084 0.014153 0.390006
0.986541 -0.108647 1.53594
1.18614 -0.192247 1.65196
1.14104 -0.167947 0.845804
1.39274 -0.452447 1.05844
1.16984 -0.105648 -1.60407
1.66154 -0.536347 0.908326
2.13704 -0.993248 -0.161784
2.13674 -0.984447 -1.36978
2.18404 -1.00605 -1.17208
1.29134 2.32774 3.38205
-2.61506 0.511453 1.68361
-3.14856 0.661653 -0.702804
-3.15836 0.679053 -0.806604
-3.42086 0.753353 -2.00393
-0.96646 0.800952 2.20285
-2.53556 0.459553 -0.134164
-2.24856 0.375853 -0.895744
-2.22676 0.356453 -0.845734
-1.65856 0.197053 -0.655904
-1.32036 0.0812526 -1.02852
-0.0871586 0.200353 1.51242
-1.25436 0.0631528 -1.2867
-0.0905594 0.205053 1.23112
-1.23996 0.0641532 -1.67989
0.0765396 0.146253 1.1412
-0.0216602 0.188653 0.714731
0.24374 0.104153 1.54228
0.232341 0.107053 1.51482
0.0374409 0.373353 -0.497364
0.14904 0.298253 -0.382034
1.02704 0.165753 2.29129
0.680341 -0.0425467 0.039796
0.747741 0.340853 -1.52468
1.13984 -0.168848 1.09416
1.03084 -0.124947 0.297666
1.15874 -0.00374743 -0.333584
1.19144 -0.0115475 -0.335064
1.15534 -0.0936475 -1.59675
1.60204 0.0479532 -1.13962
1.59254 -0.300647 -0.590874
2.04044 -0.967447 -0.188744
-3.87716 0.954653 3.0641
-3.84236 0.924153 2.97643
-3.85256 0.903353 2.6311
-3.57786 0.819053 2.33816
-2.79056 0.552953 1.66944
-2.21166 0.382853 1.45167
-2.19536 0.370953 1.10265
-1.33186 0.452553 1.26706
-2.31286 0.400653 -1.1169
-0.31486 0.591153 2.22468
0.226741 0.127153 1.55822
0.15534 0.133653 0.717612
0.447241 -0.00524661 0.437516
1.14054 -0.173447 1.61092
1.14914 0.0648532 -0.535784
1.27574 -0.209647 0.718089
1.67384 -0.839147 -1.10032
-2.71936 0.543553 2.07322
0.80804 0.235753 2.01015
0.73084 0.308853 -1.49244
1.10994 -0.164847 1.19715
0.86334 -0.0712475 -0.191854
1.27274 -0.227347 1.60146
1.15164 -0.173447 0.919015
2.05944 -0.965547 -1.13471
-2.84666 0.594153 2.04006
-1.43196 0.944353 2.07271
1.65654 -0.549747 0.687066
-3.76816 1.05248 3.25234
-0.527359 0.654353 2.03255
-1.97246 0.276053 -1.95329
0.27684 0.0949531 0.201256
2.75804 -1.19135 -1.58973
1.71444 -0.555247 0.633966
1.41724 -0.154047 0.234966
-0.967058 0.415953 -0.531104
1.32444 2.07188 3.27369
-0.705859 0.352853 0.343926
0.0367409 0.120353 1.54525
-0.107359 3.42376 3.3566
0.79244 2.18695 3.3824
0.767542 2.18584 3.37369
0.78144 2.16723 3.3675
0.332941 2.30043 3.18152
-3.78076 1.05889 3.31383
-3.57526 0.932853 3.19187
-3.58156 0.919053 3.17255
-3.71156 0.869853 2.86461
0.42954 2.17612 2.63459
0.45364 2.17035 2.61518
0.679741 2.10608 2.65054
-3.66656 0.855653 2.63255
-3.68696 0.857053 2.59116
-3.61876 0.826853 2.59
0.84374 2.04769 2.61868
-3.41226 0.770253 2.19147
-3.45256 0.778853 1.81334
-3.48086 0.803353 1.79345
-2.78906 0.568552 1.92453
-1.34976 0.915453 2.03193
-0.87616 0.764553 2.20035
-3.65826 0.849353 1.41794
-0.572659 0.664553 2.07874
-3.45376 0.778253 1.28999
-3.08376 0.659353 1.42957
-0.07976 0.507653 2.20358
0.0626408 0.462453 2.0905
-3.18956 0.691353 1.06348
-1.24996 0.565953 1.64541
0.541841 0.313453 2.20655
-2.64046 0.510353 1.12853
-2.06466 0.327753 1.3363
0.514641 0.322753 2.03191
0.683841 0.270052 2.09154
-3.36716 0.740053 0.604686
1.17834 0.113253 2.11615
-0.633559 0.165653 1.51009
-1.10076 0.363953 1.20532
1.30844 0.0739532 2.09054
-0.551459 0.255053 1.26944
-0.97156 0.311853 1.08281
-0.550259 0.258553 1.22947
0.11804 0.135553 1.49529
-0.95386 0.303153 1.04787
-0.934559 0.300252 1.01784
0.619041 0.141953 1.52898
-0.887259 0.283853 0.857277
0.96224 0.0241533 1.47573
0.753841 0.190453 1.25512
-0.873959 0.280053 0.587366
-2.58776 0.483153 -0.151104
-0.85886 0.277653 0.551446
-3.15646 0.672953 -0.546854
-2.32366 0.401153 -0.139274
-3.02416 0.637253 -0.524734
-2.98316 0.624653 -0.541594
-1.70536 0.211653 0.0930459
-0.76356 0.256553 0.397516
0.68424 -0.094747 1.0967
-0.710659 0.235153 0.378936
0.39974 0.077353 0.842469
0.73344 0.0489526 0.973348
0.747741 0.0245529 0.984771
0.638641 0.121453 0.89773
0.76444 -0.008347 0.978452
-0.54226 0.188553 0.322786
-0.511259 0.176153 0.319506
-2.92736 0.604352 -0.877914
0.595741 0.104352 0.749151
1.07064 -0.152247 0.972567
-2.93986 0.603553 -1.00044
-0.49116 0.166153 0.146786
-2.74776 0.536252 -0.944574
-0.49326 0.163753 0.106326
-0.492859 0.164453 0.067756
-0.49766 0.176153 0.047996
-1.96296 0.289753 -0.702274
-2.19746 0.356053 -0.834484
0.436941 -0.00694701 0.444786
1.04994 -0.144347 0.721005
-3.04646 0.643753 -1.39476
-0.589659 0.361853 -0.223774
-3.06306 0.641853 -1.43987
-3.09596 0.645752 -1.48508
1.33634 -0.227447 0.713545
-2.25036 0.363153 -1.18664
-3.15506 0.672452 -1.80567
1.72204 -0.551548 0.804367
-2.94676 0.574953 -1.77662
1.64844 -0.537947 0.733454
-2.75876 0.536952 -1.80535
-2.31666 0.384453 -1.57036
0.0938412 0.340353 -0.386184
-2.19006 0.360153 -1.56021
-1.52496 0.132453 -1.1687
-1.99006 0.299553 -1.44602
-2.64546 0.499153 -1.85121
-2.05946 0.310953 -1.50956
0.0744396 0.376153 -0.552954
-1.29716 0.0676532 -1.14995
0.238741 0.328653 -0.470034
-2.00986 0.290553 -1.81813
-1.97666 0.285753 -2.00481
-2.04416 0.305353 -2.04575
-0.13896 0.619353 -1.21707
-1.11316 0.00915293 -1.83839
-0.85056 -0.045547 -1.7863
2.10744 -0.990947 -0.175934
2.17214 -0.997247 -0.195264
2.29944 -1.04725 -0.463104
1.67394 -0.846547 -1.01052
1.72714 -0.856047 -1.10598
1.86614 -0.903547 -1.03276
1.77854 -0.873747 -1.10297
1.88484 -0.907647 -1.03135
1.90284 -0.912847 -1.02988
1.70534 -0.854047 -1.17299
2.17134 -1.02945 -0.850794
2.26054 -1.03605 -0.858154
1.44324 -0.134747 -1.53842
1.37394 -0.759247 -1.54599
1.44184 -0.784447 -1.7783
2.08744 -0.977447 -1.32827
2.07544 -0.971947 -1.34067
2.24924 -1.02465 -1.28609
2.33284 -1.05155 -1.23887
2.16424 -0.994347 -1.41025
2.28704 -1.03215 -1.46144
-3.81486 1.06346 3.30176
-3.70066 1.02224 3.22909
-3.58156 0.903853 3.15276
0.536442 2.14544 2.86302
1.19234 1.94544 2.961
-3.71466 0.884253 2.83827
-3.86796 0.929853 2.66128
1.37594 1.88593 2.86712
0.95634 2.01228 2.64853
1.52334 1.84003 2.6518
-2.88676 0.608053 2.41936
-1.48106 0.961753 2.04958
-2.77226 0.562653 1.89218
-2.47976 0.447753 1.8649
-0.67396 0.702353 2.13744
-2.61866 0.510853 1.69248
-1.43906 0.715353 1.83124
-0.177559 0.544153 2.20905
-2.73716 0.526053 1.40582
-2.20126 0.361053 1.60612
0.73014 0.250653 2.19975
0.93114 0.189153 2.27501
-3.46636 0.755153 0.681226
1.00424 0.171052 2.21022
-3.04016 0.632153 0.795808
-0.44286 0.104352 1.60139
-2.66366 0.506052 0.677146
-0.52096 0.125153 1.51085
-0.50206 0.120653 1.49581
0.00274048 0.174253 1.48257
0.13314 0.129253 1.52294
0.15114 0.123753 1.5095
0.170141 0.120753 1.4824
-2.60586 0.510252 0.363016
0.63504 0.144653 1.50783
-0.56576 0.175353 1.06385
0.799841 0.154353 1.49189
0.942741 0.0276533 1.49373
-0.460059 0.112153 0.923418
0.99694 -0.120147 1.54027
0.79964 0.195453 1.33287
0.98904 0.00945333 1.45397
-0.0203594 0.180753 0.983439
0.74304 0.205553 1.25042
1.04364 -0.142247 1.49096
0.000239941 0.177953 0.956369
-0.509859 0.142553 0.727773
0.0751396 0.166053 0.932778
1.25304 -0.241647 1.53305
0.125841 0.140753 0.955669
0.168541 0.126453 0.954825
0.19934 0.119353 0.956008
-3.25286 0.701353 -0.591144
-2.83586 0.577553 -0.440564
-1.74876 0.225153 -0.185554
-2.72706 0.529753 -0.736664
-1.85526 0.281153 -0.315704
1.42284 -0.464447 1.28544
1.46254 -0.480347 1.29506
1.24234 -0.204047 1.1051
1.46334 -0.478147 1.26763
1.10124 -0.159147 0.989438
1.12034 -0.165947 0.960456
0.72154 -0.101147 0.756302
1.24814 -0.204947 0.961187
-3.40476 0.727853 -1.51634
-3.16066 0.655953 -1.51384
-1.49336 0.137253 -0.702354
-1.70866 0.187853 -0.858034
-2.55896 0.480953 -1.39118
-2.48156 0.456253 -1.49436
0.92584 -0.104248 0.219216
0.218441 0.250953 -0.251224
-2.73666 0.528853 -1.81589
-1.32616 0.0891528 -1.10947
0.188341 0.321753 -0.469794
0.23394 0.328253 -0.466884
0.282942 0.327953 -0.568404
-1.21616 0.0382533 -1.81879
-1.14156 0.0209527 -1.84822
1.28074 0.0251527 -0.521254
-0.864159 -0.0382476 -1.80302
1.40794 -0.0221467 -0.561744
1.86504 -0.396947 -0.226614
2.24674 -1.02095 -0.307554
2.24834 -1.03025 -0.436974
1.85284 -0.902447 -1.01012
2.10204 -0.983247 -1.24095
1.42214 -0.780347 -1.78337
1.46724 -0.782647 -1.77279
2.39214 -1.08145 -1.20591
1.97954 -0.939947 -1.54336
2.06054 -0.982247 -1.5037
2.47494 -1.12085 -1.21905
2.57874 -1.13585 -1.31023
2.72114 -1.19415 -1.54829
-3.68536 1.02958 3.25203
0.55084 2.14184 2.82952
0.850341 2.04807 2.78964
-3.86726 0.879053 2.61315
-3.75696 0.884953 2.59503
-3.49956 0.812153 2.59743
-3.52186 0.814353 2.18805
-2.70006 0.529453 2.16328
-2.74436 0.542653 2.00217
-1.11726 0.833252 2.18996
-2.92426 0.611553 1.83218
-0.83116 0.743453 2.12631
-0.89906 0.766453 2.09374
-0.71526 0.708453 2.02217
-2.41576 0.456453 1.40431
0.697941 0.263653 2.10742
0.71614 0.256953 2.09709
-0.873659 0.312953 1.42143
0.013641 0.174552 1.62275
-2.76016 0.536453 0.420916
-2.70796 0.530353 0.430946
0.863041 0.130353 1.50444
-1.68336 0.203853 0.551316
0.18444 0.119553 1.21643
1.03134 -0.141947 1.57374
-0.51936 0.130553 0.753898
0.0151401 0.177553 0.838526
-3.15696 0.669253 -0.774794
0.74394 0.00515322 0.929539
0.803041 -0.0163474 0.936521
-2.93996 0.621753 -1.09417
-1.29416 0.0698533 -0.210554
1.70814 -0.519347 1.09725
-2.54536 0.460953 -1.22761
-0.629059 0.507753 -0.417904
1.60824 -0.522048 0.901745
1.65624 -0.536647 0.905787
-0.0591587 0.416053 -0.543334
0.0282398 0.369653 -0.535854
0.990741 -0.104047 0.025526
-1.21616 0.0491529 -1.22749
-1.13206 0.0181527 -1.20469
-1.15786 0.0346532 -1.23145
-1.19046 0.0498529 -1.25205
1.36744 -0.0548472 -0.216374
1.26984 -0.0314469 -0.397214
0.666841 0.125353 -0.811374
1.32084 -0.0332474 -0.458764
1.24974 0.0287528 -0.515514
-1.05146 -0.00704715 -1.83312
2.01364 -0.957647 0.051836
0.441541 0.280553 -1.30478
0.399341 0.330453 -1.35437
1.58774 -0.301947 -0.591924
2.06354 -0.980747 -0.184004
2.16314 -0.992347 -0.406734
1.62034 -0.827147 -1.01895
1.48694 -0.783147 -1.64621
2.15384 -0.999548 -1.17884
2.18094 -1.00955 -1.17617
2.33624 -1.05545 -1.0885
1.45754 -0.783447 -1.73615
2.23544 -1.02605 -1.21043
2.18694 -1.00395 -1.31992
2.30294 -1.04595 -1.54378
2.47984 -1.10405 -1.4439
2.70464 -1.17575 -1.76624
-3.70236 1.00574 3.21728
-3.88016 0.944453 2.97526
-3.82036 0.892553 2.56073
-0.19916 0.550053 2.1784
-2.20636 0.382253 1.45087
-2.59806 0.496053 1.16194
-2.86976 0.577553 0.815534
-3.30596 0.710653 0.457146
0.15294 0.130853 1.65995
0.245741 0.110053 1.51816
0.59604 0.146053 1.54437
-0.530958 0.162553 1.06861
0.14734 0.129853 1.25104
1.23554 -0.207047 1.6486
-2.53926 0.482852 -0.168764
-0.593458 0.220053 0.623776
-3.03606 0.622653 -0.484644
1.31104 -0.230547 1.5038
-0.0227589 0.190453 0.710052
-3.14576 0.666953 -0.702354
0.73344 0.0574527 0.960631
-1.64556 0.195453 -0.366854
-2.27686 0.392453 -0.865704
-2.22026 0.355453 -0.838494
-0.64856 0.446053 -0.349504
1.23544 -0.171648 0.644956
1.06854 0.0222526 0.409356
-1.71736 0.211853 -1.17464
0.67794 -0.0656466 0.0284459
-1.31956 0.0783525 -0.969554
0.143341 0.370253 -0.547664
0.299741 0.294553 -0.531014
0.886141 -0.0951466 -0.147004
1.16274 -0.00564715 -0.329664
-1.25186 0.0397525 -1.80166
1.17264 0.0256534 -0.526674
0.70404 0.129053 -0.815554
1.30404 -0.0158467 -0.459034
2.03014 -0.968347 -0.189824
0.663341 0.208553 -1.27096
2.39644 -1.08685 -0.698134
1.97304 -0.930647 -1.05244
1.92804 -0.928447 -1.26969
2.11184 -0.975147 -1.35257
2.41514 -1.07915 -1.5183
2.74054 -1.17905 -1.78302
-1.33426 0.914153 2.06111
-2.79856 0.569353 1.77241
-0.89996 0.766953 2.04418
-0.18216 0.382153 1.94662
0.932741 0.194253 2.21967
0.88804 0.202652 2.20198
-2.45646 0.467553 0.734749
-1.09266 0.429153 1.11053
1.16664 0.0226531 1.94414
-0.49506 0.153053 1.32835
0.139341 0.140953 1.20653
0.81274 0.155453 1.35425
1.27424 -0.220747 1.6594
-3.15246 0.671453 -0.756684
0.11804 0.163453 0.689316
1.26804 -0.214347 1.25683
0.59724 0.124353 0.840526
1.18364 -0.185547 1.11113
-0.514159 0.211052 -0.150584
-2.85226 0.565453 -1.54706
0.220041 0.291053 -0.340104
0.25254 0.262653 -0.325264
-1.49186 0.121553 -1.20216
-2.31556 0.379253 -1.77389
1.75004 -0.537747 0.497836
0.18144 0.325453 -0.582094
-0.472658 0.443653 -1.11176
1.29684 -0.0515475 -0.339804
2.04704 -0.972947 -0.144494
0.784342 0.160253 -1.27994
0.758041 0.351353 -1.51346
1.45964 -0.789947 -1.61473
2.52254 -1.11875 -0.989434
1.95904 -0.942947 -1.52048
-3.82496 0.948553 3.11149
-2.71626 0.546353 2.0843
-3.09136 0.672053 1.68889
-1.46546 0.839353 1.94191
-0.26566 0.381953 1.95078
0.88874 0.0678525 1.49756
-3.06836 0.652753 -0.640454
-0.52936 0.222153 0.258856
0.254041 0.389153 -0.227774
1.67214 -0.543547 0.646556
1.44644 -0.463647 0.270476
1.21254 0.0410533 -0.561634
1.37944 -0.225847 -0.434804
2.05984 -0.971047 -1.50808
-3.86596 0.897953 2.99341
-0.35956 0.605653 2.01031
-2.26416 0.395052 1.38849
-1.00216 0.288253 1.54361
-2.25986 0.401453 1.09381
-0.976559 0.252453 1.49597
0.703241 0.021853 0.918538
0.61564 -0.0152468 0.812919
0.61124 0.0137525 0.754739
1.18464 -0.171648 0.807353
1.12764 -0.163347 0.753959
0.0358406 0.350453 -0.304684
0.214441 0.210953 -0.299734
1.75064 -0.552847 0.569096
1.16044 0.0215526 -0.444844
1.70954 -0.783847 -1.18971
2.05694 -0.962247 -1.66842
-3.76796 1.05323 3.26666
-2.26816 0.379953 1.15886
1.36284 0.063253 2.08926
0.720041 -0.150847 0.301806
-0.11966 0.328453 -0.469754
-2.04446 0.325553 -1.95941
-1.21236 0.865053 2.11046
0.88064 0.100153 1.53657
-3.57726 0.962253 3.30697
0.63414 -0.0643468 0.357386
0.513141 0.0708528 0.242876
0.43914 0.128053 -0.308744
0.972341 -0.149547 1.34629
0.414041 0.0184532 1.05671
0.632641 -0.0423474 1.07486
0.79894 -0.141747 0.294196
0.704441 0.150953 -0.471814
1.90814 -0.723947 -0.273624
1.79594 -0.884947 -1.73712
2.57794 -1.12475 -1.54357
2.08864 -0.980847 -1.65342
2.18444 -1.01555 -1.5145
2.15944 -1.00965 -1.51898
2.00404 -0.961347 -1.52258
1.95624 -0.946847 -1.51715
1.99044 -0.951447 -1.50873
-1.18766 0.0272527 -1.85181
-1.21906 0.0533529 -1.83002
1.80094 -0.880747 -1.14415
1.88824 -0.907047 -1.12062
-1.51476 0.138153 -1.80511
1.82514 -0.883947 -1.01445
2.22454 -1.01975 -0.856504
2.19374 -1.02765 -0.843244
-2.06326 0.305253 -1.51009
-3.26326 0.684053 -1.51133
-3.05516 0.635252 -1.39742
-1.70646 0.215053 -1.15611
1.27494 0.0235525 -0.501334
-2.22376 0.372353 -1.20128
-3.11316 0.652253 -1.19943
-3.00766 0.620253 -0.988954
2.17604 -0.995147 -0.194174
-2.94906 0.608353 -0.862404
-2.65516 0.501853 -0.820944
-2.01696 0.290353 -0.503444
-2.84946 0.576153 -0.449094
-1.56236 0.155853 -0.164804
-0.50766 0.162653 0.065906
-2.32856 0.399953 -0.161814
-2.35846 0.403853 -0.155694
-3.14826 0.673753 -0.191584
-3.38486 0.754053 -0.178684
-0.61036 0.364653 0.182276
-2.99026 0.626053 -0.033664
-2.09596 0.329653 0.0801659
-3.12996 0.669153 0.120556
1.10854 -0.125347 0.645106
-3.28626 0.719353 0.433096
1.23754 -0.205547 0.97249
-3.28396 0.713653 0.645196
-2.84206 0.578553 0.700516
-1.29936 0.781053 0.853969
0.0653397 0.158353 0.951556
0.619041 -0.034347 1.08713
-3.66406 0.856753 1.02327
0.92764 0.0305534 1.46679
1.31674 -0.232947 1.48118
0.15184 0.129253 1.49474
-2.26146 0.391153 1.40598
-0.631459 0.168252 1.50878
-2.63016 0.518652 1.44448
-3.41296 0.769253 1.64592
-3.45196 0.788953 1.79676
-3.45206 0.787053 1.81229
-2.90026 0.611053 1.8404
-2.41226 0.438753 1.86776
-1.46126 0.952653 2.04516
1.37174 0.0615526 2.08035
-2.71026 0.541852 2.12692
-2.73166 0.555453 2.15137
-0.693259 0.700653 2.20638
-0.0773586 0.506553 2.2032
-0.797459 0.742652 2.20869
0.544641 0.312053 2.20503
0.37924 0.366053 2.20781
0.288141 0.391753 2.21782
0.357341 0.372953 2.21828
-3.74096 0.881653 3.1033
1.63264 1.80267 2.67602
0.455541 2.1683 2.84206
0.366041 2.2946 3.36755
2.25754 -1.02145 -1.45962
2.06394 -0.975047 -1.49945
2.09594 -0.983247 -1.31094
2.46774 -1.10815 -1.2317
1.90464 -0.917448 -1.21718
0.395342 0.288453 -1.298
1.95644 -0.933447 -0.849354
2.01214 -0.945847 -0.770914
-1.98306 0.290453 -1.48326
-1.22176 0.0468526 -1.19592
-1.28506 0.0649534 -1.19287
-1.11246 0.015553 -0.856584
-0.60886 0.472353 -0.557354
-1.88216 0.243053 -0.808294
-3.37656 0.736853 -0.825544
-1.87066 0.251253 -0.471634
0.651041 -0.0156474 -0.0413341
0.738241 -0.047647 -0.026344
-3.37176 0.741653 -0.486044
-1.56536 0.154653 -0.152494
-3.72556 0.838153 -0.187954
0.44734 -0.0022473 0.461696
1.28364 -0.183147 0.649656
1.80764 -0.590848 0.706756
-2.02786 0.310153 0.372126
-1.73466 0.234153 0.407746
0.204841 0.122053 0.730863
1.57784 -0.507147 0.913956
1.57694 -0.519248 0.933857
1.20224 -0.176247 0.938289
-3.18206 0.702053 0.671926
-0.46336 0.115353 0.923718
1.39314 -0.449048 1.06166
1.41014 -0.470347 1.0686
-0.829859 0.222453 0.931702
0.773142 0.183253 1.27305
0.711841 0.241653 1.30856
-2.25476 0.377753 1.18962
-2.48496 0.460352 1.40745
-0.0383591 0.185053 1.52207
-1.25906 0.558553 1.67365
-2.54846 0.487553 1.676
-3.01646 0.643253 1.69841
-2.89386 0.617753 1.83386
-3.48456 0.793553 1.86427
-2.78876 0.575953 1.98501
-0.872959 0.762153 2.018
1.34724 0.0640531 2.1006
-0.54776 0.655253 2.10909
-1.17496 0.849253 2.1136
-2.70506 0.524953 2.16308
-3.35736 0.753453 2.18662
-1.43456 0.948653 2.1883
-1.36026 0.914453 2.21522
-3.75886 0.879553 2.59569
2.11754 -0.969147 -1.35197
-1.49746 0.114453 -1.81474
2.16244 -1.00595 -1.04113
2.09124 -0.987147 -1.0349
2.18634 -0.997147 -0.753314
-2.10006 0.337153 -1.49832
-2.11216 0.339253 -1.47202
1.37034 -0.0653472 -0.299284
-2.92176 0.597953 -1.03682
-2.98486 0.604853 -0.713384
0.896541 -0.106947 0.149786
-1.55586 0.142353 0.109746
-0.61946 0.167353 0.89364
-0.517359 0.156953 1.06907
1.10064 -0.159647 1.22527
-0.46716 0.127753 1.31069
-1.23336 0.564953 1.62541
-2.88676 0.590553 1.61478
-1.28186 0.895253 2.33492
-3.69626 1.0146 3.25373
1.08134 1.97775 2.83833
1.06204 1.97284 2.86057
1.15704 2.04604 3.19121
2.12264 -0.988947 -1.51836
-1.25766 0.0329528 -1.80732
0.27164 0.321653 -0.505884
-2.32416 0.429153 -0.899794
-1.04836 0.404153 -0.541144
-1.52876 0.165053 -0.135814
-2.55576 0.513653 -0.157364
1.10594 -0.156847 0.738853
1.67894 -0.542847 0.893098
-2.49906 0.464453 0.700286
0.246841 0.105953 1.52444
-1.40166 0.624853 1.67978
-2.90076 0.609753 2.02625
-3.86066 1.01835 3.10741
2.74294 -1.21395 -1.5819
2.57364 -1.08975 -1.51192
-1.14386 0.0325532 -1.83894
-1.86466 0.492953 1.04047
-2.32596 0.504853 1.97474
-1.26266 0.891552 2.03167
-2.77396 0.536653 0.688046
-2.26016 0.394753 1.09158
-2.38056 0.421053 1.40743
-1.60566 0.126053 -1.20867
0.185241 0.0978532 1.13374
-1.34156 0.550653 1.18974
-2.86366 0.607453 2.06657
0.98744 0.0551525 -0.270574
0.684141 0.0608526 0.927514
1.23844 -0.0486474 -0.591964
0.960441 -0.0807471 0.074046
0.29104 0.042953 0.043306
1.51574 -0.376647 0.375176
0.879041 -0.178547 0.870962
-3.33286 0.721353 -1.53296
-2.33306 0.390253 -1.53702
-2.29276 0.383053 -1.53327
-2.50756 0.450553 -1.41361
-2.93836 0.618153 -1.08936
-0.85196 -0.0528474 -1.78998
-1.55196 0.156053 -1.17102
-2.29126 0.388653 -0.811414
-1.31396 0.0742526 -1.12859
-2.98566 0.624653 -0.0369341
1.49174 -0.780147 -1.69333
-1.88206 0.251153 -0.188564
-2.09036 0.330353 0.0811959
2.02944 -0.946747 -1.72847
1.89104 -0.916447 -1.62955
-2.01606 0.313953 0.373406
2.00514 -0.958247 -1.52303
1.97544 -0.942547 -1.49871
-1.90696 0.273453 0.371526
-0.497559 0.167453 0.00280589
-0.63086 0.359553 0.202116
-0.605059 0.348953 0.192066
2.05644 -0.967847 -1.4021
1.27324 0.0207525 -0.481354
2.04904 -0.973447 -1.38439
1.85104 -0.891947 -1.08122
-0.925659 0.337553 0.605926
-2.52156 0.472053 1.20169
-3.36896 0.749453 1.67694
2.47954 -1.11755 -1.21499
-2.77446 0.540153 1.43099
-0.497559 0.122753 0.735466
-0.931259 0.303253 0.996538
-2.31436 0.421953 1.5296
2.28974 -1.03285 -0.798074
-3.03646 0.662053 1.97575
-2.50936 0.474553 1.68952
-3.40266 0.777953 2.17598
-2.77126 0.552453 1.89178
0.96734 -0.139147 0.298236
-2.97736 0.644553 2.05028
-0.899559 0.302153 1.3926
-2.79936 0.562853 2.19069
-3.48316 0.810353 2.59817
-1.46416 0.948853 2.06374
-3.68336 0.852053 2.82036
-0.996559 0.284253 1.61978
-3.87436 0.943953 3.08723
-3.44786 0.780053 2.90061
-3.70836 1.28413 3.32421
0.0180412 0.167153 1.49732
0.0674397 0.152953 1.48103
0.735841 0.218653 1.2797
-0.88966 0.763052 2.2228
0.156641 0.124653 1.51448
1.13654 -0.172547 0.973937
1.15884 -0.175647 0.965348
-0.68566 0.694753 2.18916
1.32264 -0.226747 0.958369
1.30354 -0.224947 0.972502
0.64804 2.10806 2.62195
0.565841 0.179153 1.51685
0.677141 2.10384 2.65005
1.07004 -0.151447 1.21808
1.05084 -0.148347 1.23226
0.42864 2.18183 2.87379
0.87524 2.03838 2.63723
1.71934 -0.553247 0.804437
0.95964 0.021153 1.44996
0.535042 2.14545 2.86456
1.57934 -0.511347 0.915152
0.972541 2.00574 2.63636
1.41884 -0.461847 1.04516
0.445041 2.16974 2.95972
0.865741 2.04158 2.75831
1.06224 -0.149147 1.48054
1.09014 -0.158647 1.47767
1.45224 -0.473847 1.27777
0.35424 0.374753 2.22041
1.31994 -0.234047 1.47812
1.16964 1.94773 2.7888
1.26544 1.92198 2.87404
0.977741 0.176453 2.22149
1.36664 0.0532527 2.10729
-2.95366 0.563053 -1.51727
-1.41386 0.100853 -1.81033
-2.71286 0.537353 -0.947624
-2.23466 0.366353 -1.14498
-3.00886 0.609053 -0.800844
-3.14626 0.667953 -0.659304
-2.73736 0.548353 -0.185294
-1.64076 0.162353 -0.490854
-3.41536 0.744653 0.581806
-2.21716 0.354753 0.0789159
-1.27456 0.0737529 -0.215954
-2.88506 0.575153 0.811588
1.85234 -0.906148 -1.20517
2.45414 -1.10315 -1.50064
1.87684 -0.916647 -1.20551
1.98904 -0.965848 -1.12689
0.694441 -0.0438475 0.028676
-0.630959 0.173653 0.755517
-0.808459 0.222653 0.92978
2.48114 -1.10415 -0.849524
1.54584 -0.491848 -0.037414
-3.87676 0.947653 2.65973
-1.23446 0.564653 1.61847
-2.81816 0.565653 2.17843
-0.437359 0.132853 1.14139
2.28294 -1.04295 -0.442374
2.23914 -1.02265 -0.402244
1.07164 -0.146147 0.704203
0.196241 0.114553 1.21924
0.539241 -0.0266471 1.07729
1.64294 -0.535447 0.363426
-3.58616 0.878453 3.12965
1.31144 -0.222447 0.715096
1.34564 -0.230247 0.710598
1.05484 -0.144847 0.966075
1.08764 -0.155047 0.958845
1.23724 -0.200747 0.97771
0.284342 0.0946527 1.52504
0.850441 0.120453 1.42916
1.65954 -0.538547 0.8758
1.39484 -0.451747 1.06488
1.40994 -0.468347 1.07012
1.63584 -0.505147 1.10474
1.70784 -0.515347 1.09842
1.46564 -0.473647 1.30335
1.06784 1.98372 2.84679
0.907741 0.193753 2.22221
1.03254 0.166753 2.19582
1.34594 0.051353 2.12489
1.33334 0.130053 -1.24451
-1.64816 0.187453 -0.661514
-3.38906 0.764353 0.408216
-3.30106 0.716353 0.464266
0.0268398 0.344853 -0.378474
0.0193401 0.343353 -0.332994
-0.593159 0.329553 0.191146
1.24554 0.0250526 -0.480244
1.88744 -0.929647 -1.19063
0.772541 -0.0566468 -0.199844
1.94264 -0.941948 -1.02171
-2.43886 0.445153 1.40629
-2.06976 0.340753 1.30977
-0.0348591 0.220953 0.660036
-2.94296 0.610953 1.79654
-0.0508598 0.194753 0.699526
-3.42136 0.781053 2.14586
-0.54666 0.141653 0.939691
-0.55876 0.169153 1.06483
-0.52476 0.160653 1.07267
2.22724 -1.01405 -0.414274
-0.432959 0.123353 1.24311
0.79544 -0.0565467 0.923532
-3.70056 1.02814 3.25675
0.81574 0.127753 1.31941
0.535341 0.182853 1.51449
1.61764 -0.519847 0.904343
1.46764 -0.483047 1.25928
1.02474 0.166653 2.32509
-1.62026 0.181153 -1.18027
-1.32156 0.0757528 -0.966864
-0.558859 0.421653 -0.389314
1.70034 -0.0850472 -1.20439
-3.22596 0.683853 0.410516
0.330641 0.282353 -0.573274
-2.12126 0.345953 0.389316
1.98794 -0.955747 -1.51456
1.07044 0.0570531 -0.507474
2.38364 -1.06925 -1.54095
1.29604 -0.0432467 -0.336694
-2.98016 0.645353 1.94428
-3.69096 1.29814 3.32536
-0.99186 0.801053 2.09817
0.10824 0.123853 1.36044
1.10274 -0.147547 0.992175
1.10384 -0.161647 1.14295
1.10914 -0.162047 1.25342
1.00884 -0.127247 1.59208
1.19924 -0.196047 1.6248
1.18734 0.116952 2.07511
-0.00725975 0.527453 -1.22747
0.0896412 0.383053 -0.798484
-1.60346 0.189753 -0.379294
1.59234 -0.0867467 -1.17224
1.37904 -0.226347 -0.482154
1.37534 -0.238847 -0.454034
0.49414 0.00745253 0.431066
2.19524 -1.00065 -0.761134
-3.85016 0.906653 2.96275
-3.78676 1.05629 3.27119
1.12024 -0.169047 1.20981
1.26624 -0.216947 1.11187
1.15064 -0.168447 1.51054
1.32794 -0.144947 -1.49077
1.33904 0.123253 -1.08528
-0.54386 0.265553 0.297406
1.59634 -0.348947 -0.569984
-2.87536 0.596853 1.79234
-0.91516 0.305853 1.35966
0.616541 -0.0328469 1.18192
0.692941 -0.194047 1.0875
0.952541 0.0209527 1.53035
0.239141 0.228453 -0.280494
0.688841 -0.0311475 -0.197504
-1.30906 0.421053 1.25853
0.689541 -0.020247 0.372836
1.21724 -0.179147 0.808823
-0.49506 0.633953 2.02911
-2.87396 0.633653 -0.587854
-3.88656 0.981683 3.05377
0.17144 0.345353 -0.863924
-0.75486 0.445753 0.241256
0.77424 0.000353367 -0.310054
0.639541 0.00225309 0.541476
1.30544 -0.102848 -0.432904
1.87524 -0.498147 -0.624094
-2.94746 0.603953 -1.51242
-3.13206 0.662753 -0.585814
-2.30496 0.376353 -2.0821
-2.55426 0.477453 -1.39052
-2.31686 0.390953 -1.63938
-3.30416 0.719353 0.656066
-3.29746 0.707353 0.644406
-2.12686 0.354053 -1.46718
-3.90196 0.937753 2.84139
-2.57856 0.486153 -0.146304
-3.71566 0.859252 2.85038
-3.58916 0.882253 3.12937
-3.39876 0.775653 2.54749
-3.44456 0.781953 2.89764
-2.88396 0.608153 2.41796
-0.60546 0.552253 -0.490904
0.427541 2.18197 2.87288
-1.43396 0.944953 2.03553
-1.59436 0.175453 0.114246
-1.43126 0.943053 2.15598
0.68234 2.10498 2.65135
-0.59326 0.356353 -0.222164
-1.12036 0.841453 2.11479
-0.0633587 0.380653 -0.724424
0.84324 2.04782 2.62222
0.78684 2.07058 2.77358
-0.0550598 0.405253 -0.543714
-0.85846 0.282353 0.524266
0.954841 2.01437 2.65046
0.790741 2.17873 3.37547
0.982841 2.00348 2.62214
0.132141 0.369853 -0.516034
-0.99206 0.282753 1.6214
1.16934 1.94874 2.78834
-0.81436 0.226753 1.31236
-0.866259 0.233353 1.59692
-0.628159 0.167853 1.51422
-0.0656589 0.200953 0.720907
0.0637413 0.160153 0.955158
0.44264 0.00185255 0.460366
0.064241 0.155553 1.48221
1.12944 0.0617528 -0.449494
0.755941 0.197453 1.25865
0.65814 -0.0522475 1.1044
0.79084 -0.053247 0.955299
0.669841 0.280553 2.00248
1.05084 -0.145047 0.7255
0.93074 0.028153 1.40633
0.969741 0.0166526 1.42876
0.994941 0.00425295 1.44191
1.05094 -0.148847 1.23613
1.90384 -0.929247 -1.65897
1.13724 -0.176547 1.4989
1.30304 -0.228947 1.4969
1.32704 -0.235647 1.5144
2.06734 -0.982147 -1.48379
1.38194 0.0519529 2.09181
2.07884 -0.969847 -1.33908
2.15684 -1.00265 -1.54569
2.01424 -0.965447 -1.18813
2.01704 -0.962747 -1.11739
1.41344 -0.467747 1.31207
1.44304 -0.475647 1.26178
1.43214 -0.472247 1.29793
2.26194 -1.03135 -0.826864
2.25464 -1.02445 -0.431454
2.28064 -1.04205 -0.444364
-2.65376 0.497753 -2.02699
-3.35556 0.733253 -0.172864
-2.84476 0.608153 0.0759659
-2.80036 0.564953 0.073956
-3.85916 0.922553 2.62071
-2.28136 0.388053 -0.864734
-3.85516 0.919053 3.08618
-3.70566 1.02419 3.26004
-3.47526 0.789752 2.65702
-2.62056 0.495853 1.37553
-2.54686 0.478153 1.64813
-2.52536 0.479553 1.91014
-1.29856 0.895853 2.18538
-0.58416 0.343453 -0.216644
0.0940414 0.369653 -0.524824
-0.444859 0.126553 1.13465
-0.435559 0.131453 1.1658
-0.0118603 0.179953 1.49993
0.59514 -0.0157475 0.0274959
0.162141 0.435953 2.06423
1.27594 0.0230527 -0.532464
0.875641 -0.0941472 0.120306
0.688041 0.0774532 0.954836
0.727041 0.226953 1.27787
0.791141 0.171752 1.28816
1.29114 -0.219747 0.963774
1.90324 -0.919847 -1.67992
1.30324 -0.225247 0.975849
1.40924 0.0441528 2.06639
1.39424 -0.453347 1.06297
1.45244 -0.472947 1.28205
1.77004 -0.574847 0.750729
1.69444 -0.465747 1.08376
1.70834 -0.512147 1.10385
2.04174 -0.967948 -0.188144
2.13324 -0.992847 -0.159344
2.26124 -1.02835 -0.340764
-3.14496 0.663253 -0.219354
-3.30636 0.716153 0.465906
-3.89146 0.940253 2.66243
-3.82546 0.897653 2.56713
-3.09376 0.659153 1.82246
-1.70616 0.208553 -1.13718
-2.94806 0.626053 2.03111
-2.78616 0.554153 1.67039
-1.24426 0.0617528 -1.6804
-2.74336 0.544652 1.90136
-2.61756 0.514153 2.15559
-1.36696 0.925953 2.04486
-0.307459 0.283853 -0.586484
0.0338398 0.377753 -0.492714
-0.0642589 0.197553 1.20545
0.404741 0.024653 0.135056
1.44514 -0.165647 -1.49388
1.17424 0.0386529 -0.455674
1.29424 0.0137525 -0.538234
0.79364 -0.066647 0.917068
1.45514 -0.781247 -1.60606
1.05644 -0.147647 1.21002
1.03214 0.163853 2.29256
1.82214 -0.891147 -1.20547
1.98624 -0.948247 -1.55334
1.91414 -0.925647 -1.17299
2.25384 -1.02885 -1.64643
-1.69366 0.208453 0.376726
-0.32346 0.284853 -0.521104
-0.99226 0.799053 2.15833
-1.07376 0.674453 1.94667
-0.948759 0.788853 2.13699
-0.889759 0.760153 2.0582
0.408941 0.0655532 -0.240204
0.0182415 0.172753 0.996542
-0.0028595 0.180053 1.25653
0.14574 0.134153 1.52544
1.58284 -0.0692467 -1.13192
1.14404 -0.143247 0.628096
0.94514 0.186753 2.08623
1.27774 -0.210947 0.723973
1.15684 0.123553 2.23353
1.11654 -0.172348 1.6478
2.09384 -0.976047 -1.70829
1.75734 -0.568447 0.891667
2.01004 -0.951747 0.0638359
-2.18156 0.380053 0.449326
-1.33096 0.914453 2.06248
-0.933659 0.317753 1.37264
0.0831409 0.151253 1.61631
0.66464 -0.0389476 0.495626
0.89484 0.208553 2.20974
2.08754 -0.983747 -1.54233
1.98034 -0.932447 -1.06869
1.43864 -0.463547 1.58102
-3.88986 0.951953 3.04336
-1.24636 0.533353 1.55224
-0.195059 0.552352 2.14162
0.691141 -0.0967469 0.791794
0.816541 0.156053 1.36233
0.825241 0.0747533 1.3321
-1.17636 0.522653 1.04737
0.61174 -0.031547 0.805647
1.03784 -0.142647 0.911713
1.35674 0.080853 2.11231
-3.80576 0.965853 3.11519
-2.77196 0.604053 2.08252
0.736341 -0.101547 0.841532
1.55594 -0.498347 0.848185
0.99624 -0.142148 0.139446
0.745041 -0.0971474 1.2962
0.164341 0.297353 0.038656
0.628841 -0.0205474 1.25822
2.00584 -0.499247 -0.292794
-4.29926 0.509953 2.39423
-3.57866 0.917953 3.17282
-3.67376 0.853253 2.62078
0.78914 2.17784 3.37525
0.428241 2.18026 2.8726
0.78614 2.07068 2.77514
0.845941 2.04763 2.84547
-0.67236 0.698853 2.14006
-2.31546 0.391953 -1.63796
0.120941 0.138052 1.49911
0.804441 0.198353 1.3501
0.66344 0.0890527 0.933413
0.285141 0.300053 -0.466774
1.38364 0.0523525 2.09196
1.16894 0.0445533 -0.524234
-3.46706 0.792853 2.65486
1.39294 2.16884 3.37361
-3.37476 0.745653 -0.825154
-0.864359 0.752053 2.11214
-1.47256 0.119353 -0.787624
0.0724407 0.160353 1.45031
0.403341 0.085053 0.813962
0.153041 0.372253 -0.451054
0.135141 0.364053 -0.482564
1.18964 0.110953 2.14697
1.11564 -0.182247 1.52257
1.18144 0.0303531 -0.488634
1.27644 0.0234533 -0.531844
1.31024 -0.00584742 -0.501564
1.77044 -0.577247 0.74921
1.61684 -0.832347 -1.54733
2.45254 -1.10065 -1.27595
-3.85846 0.912053 2.65709
-0.94426 0.788053 2.22887
-0.97176 0.795953 2.08458
-0.502859 0.150053 1.08371
0.0131412 0.163153 1.24356
0.0252414 0.173053 1.12811
0.0330406 0.194653 0.688326
0.0196415 0.342553 -0.382664
0.789741 0.218153 1.3481
1.33994 0.0740533 2.1106
0.949241 0.0114532 1.41059
1.14474 -0.172947 1.13152
1.26994 -0.212947 0.976368
1.44144 -0.177347 -1.49955
1.44774 -0.785047 -1.61267
2.33414 -1.05045 -0.726944
-3.73666 0.992713 3.21601
-3.90286 0.959153 2.92377
-2.77276 0.562853 2.08192
-2.84696 0.586353 1.75363
-3.24296 0.703553 -0.117014
-1.11786 0.836953 2.12191
-0.89436 0.767453 2.05344
-0.0104603 0.174653 1.52715
0.119741 0.142853 1.46994
-1.28956 0.0732532 -1.09606
-1.25176 0.0624528 -1.28089
1.15224 -0.176647 1.65378
1.14464 -0.171147 1.3723
1.79214 -0.563247 0.552926
1.75254 -0.499547 0.276686
2.51994 -1.11745 -1.02098
-3.58166 0.820853 2.33111
-1.45406 0.950453 2.08633
0.148842 0.128553 1.66165
1.15924 0.119053 2.23985
0.347841 0.0310531 0.209486
1.24944 -0.208347 1.2913
2.05774 -0.965647 -1.13399
-1.23076 0.668453 0.748963
0.0835415 0.150353 1.57157
0.623541 0.0640531 0.816558
1.35544 0.0666528 2.11543
1.87114 -0.453948 0.206686
2.04884 -0.961047 -1.20094
-3.75776 1.05287 3.25322
-3.87176 0.968153 3.02575
2.75844 -1.18855 -1.587
-3.86216 0.880553 2.87757
0.131641 0.185353 0.233216
0.789741 2.17866 3.3753
-3.58296 0.928253 3.19207
-3.59386 0.896853 3.15574
0.754541 2.07509 2.97585
0.461641 2.16846 2.84116
0.78634 2.06648 2.94402
0.84954 2.046 2.84549
-3.68306 0.857453 2.58998
1.09634 1.97426 2.87095
1.20034 1.94049 2.88046
1.49634 1.84764 2.62354
-2.75516 0.565853 2.11265
-1.33296 0.905153 2.21467
-1.31596 0.902353 2.20343
-2.73326 0.529953 1.40487
-2.84956 0.578453 0.698406
0.73464 0.252353 2.20095
0.664041 0.290053 2.00395
-0.44336 0.100153 1.60269
1.17144 0.116453 2.20747
0.0629402 0.152453 1.65228
-0.0647587 0.193453 1.48155
-0.53636 0.257153 1.19141
0.0012413 0.173453 1.48122
0.0594402 0.156653 1.47988
0.32464 0.0959525 1.49937
-0.893259 0.287753 0.718993
-2.15176 0.344553 0.074406
-3.02676 0.634552 -0.525134
-0.52446 0.127353 0.906057
0.788541 0.182253 1.44045
-3.58406 0.812553 -1.06286
0.79154 0.219353 1.35906
0.77354 0.243753 1.3373
0.0620399 0.161653 0.952505
-2.76696 0.535953 -0.736034
1.05904 -0.155847 1.50417
1.07344 -0.154247 1.49185
1.08394 -0.157047 1.4819
0.00244102 0.167653 0.735565
1.24924 -0.222147 1.51675
1.25184 -0.210747 1.4855
0.206041 0.113452 0.720235
-2.34356 0.415453 -0.802324
-2.35416 0.412353 -0.832374
-2.23326 0.369553 -0.830454
-1.99686 0.291353 -0.705834
-1.96566 0.285653 -0.704884
-3.46226 0.764853 -1.85421
1.32494 -0.232247 1.23455
1.11954 -0.165147 0.958283
-3.05936 0.630253 -1.82184
1.48144 -0.485147 1.31258
1.45054 -0.474047 1.27798
1.23844 -0.202647 0.974263
-2.32486 0.384453 -1.5488
-2.02686 0.305353 -1.48544
1.32584 -0.228548 0.724593
-2.31656 0.390553 -2.05103
0.183141 0.319753 -0.486804
0.78914 -0.0643468 0.0584759
-2.29206 0.384353 -2.0744
-1.99626 0.297253 -2.00341
-1.14006 0.0228525 -1.84655
-0.853659 -0.0531468 -1.8138
1.88844 -0.914747 -1.20828
1.42114 -0.780247 -1.7857
1.44284 -0.782647 -1.77985
2.10194 -0.986347 -1.21424
2.34894 -1.05245 -1.10171
2.17334 -0.994247 -1.34624
2.04624 -0.962747 -1.49487
2.75984 -1.20015 -1.5263
0.78404 2.07233 2.77386
1.18324 1.94743 2.9574
-3.70176 0.873253 2.59317
-3.48906 0.797153 2.62353
-3.07366 0.643153 2.17999
-2.80906 0.574353 2.17729
-1.45156 0.948653 2.15683
-0.855358 0.761453 2.2144
-0.958559 0.804253 2.05972
-0.23576 0.557253 2.2102
-0.19986 0.550353 2.1811
-0.06226 0.502153 2.13715
-3.39266 0.748453 0.585476
0.162641 0.425252 2.06438
-2.89586 0.585653 0.733722
-0.864859 0.233253 1.60326
-1.30126 0.781653 0.860229
-3.36436 0.732553 -0.178134
1.33744 0.0626531 2.09895
0.169641 0.121653 1.48097
-0.79336 0.209853 0.93899
-0.762059 0.202453 0.926245
-0.74886 0.196353 0.907027
0.834942 0.145553 1.40061
0.772741 0.182853 1.27141
1.04584 -0.134647 1.48943
0.0253406 0.212653 0.667206
1.20954 -0.193947 1.48469
-0.569359 0.259853 0.241256
-2.56366 0.466353 -1.21294
1.34264 -0.242547 1.23919
-1.76496 0.228653 -1.18307
1.13724 -0.133847 0.665266
-2.14036 0.327153 -1.5055
0.15624 0.361853 -0.498064
0.192341 0.320353 -0.467724
-1.21056 0.0553527 -1.22669
0.304441 0.290153 -0.556434
-1.51986 0.133953 -1.81341
-1.49146 0.120453 -1.81216
0.842641 -0.0671467 -0.264444
1.54144 -0.497647 0.307926
-1.13046 0.0115533 -1.82307
1.16844 0.0324531 -0.556804
0.664241 0.223953 -1.28914
2.24064 -1.02135 -1.18265
2.12054 -0.978947 -1.39582
-3.85216 0.907253 3.09991
-0.980059 0.792253 2.19669
-2.85846 0.589753 1.71012
-2.58386 0.481753 1.19657
-2.60116 0.497253 1.16441
-3.30596 0.718553 0.681826
0.320841 0.374453 2.03603
-1.02406 0.336553 1.13683
-2.84136 0.578253 0.0695259
0.291641 0.087153 1.52394
-0.0181603 0.183453 1.32438
-0.76606 0.204953 0.886893
0.566141 0.178653 1.51395
-3.17646 0.672653 -0.562644
0.701441 0.277253 1.44559
0.852241 0.154053 1.48364
0.99024 -0.0036473 1.52348
1.13104 -0.170948 1.52626
-0.50516 0.172653 0.486446
0.0237404 0.205452 0.645596
0.18284 0.123353 0.701216
1.27014 -0.210947 1.26041
-2.90766 0.572153 -1.50593
-2.84216 0.558353 -1.54561
1.43524 -0.475347 1.05672
-1.34946 0.0880533 -1.1322
0.0358406 0.370353 -0.466094
0.0400406 0.369253 -0.501604
0.0298401 0.370453 -0.533404
0.884441 -0.0705476 -0.234534
1.52474 -0.501347 -0.0464041
1.17374 0.0293527 -0.526704
1.26814 0.00975279 -0.470584
1.32464 -0.0344472 -0.459114
0.984441 0.226153 -1.09279
2.23154 -1.03735 -1.7887
2.61824 -1.15725 -1.81939
-3.82776 0.977753 3.14046
-1.48096 0.983533 2.15299
0.88904 0.199852 2.19869
0.689941 0.261353 2.05725
-1.09026 0.429053 1.11107
1.31264 0.0699525 2.10091
1.28894 0.0828529 2.05415
0.89154 0.0825525 1.49823
0.799041 0.211853 1.38194
0.816641 0.163053 1.35643
1.20014 -0.202447 1.66282
1.16794 -0.193247 1.6172
-0.531859 0.191553 0.513846
-2.86986 0.574353 -1.23956
-0.594759 0.363553 -0.230514
1.11444 -0.169047 0.994755
-1.50386 0.126353 -0.827644
-0.572159 0.431153 -0.527294
1.09124 -0.151147 0.71286
-1.42686 0.0968528 -1.19303
-1.27146 0.0629526 -1.1349
0.94944 -0.134947 0.271836
0.678541 -0.0678467 0.028836
-1.25246 0.0733533 -1.2881
1.27914 0.0186525 -0.532764
0.75164 0.312253 -1.49907
2.04594 -0.976448 -0.148364
1.65144 -0.281847 -0.710204
2.06244 -0.332147 -0.498894
1.69184 -0.851247 -0.964144
2.29004 -1.04005 -0.863074
1.51064 -0.794947 -1.62137
2.05794 -0.972747 -1.22296
1.99474 -0.951947 -1.65473
0.870641 2.03732 2.85076
-3.58806 0.809753 2.33694
-1.42266 0.941853 2.21395
-2.71706 0.545153 2.09204
-0.595059 0.684753 2.07803
-0.10686 0.524153 2.21894
-2.47486 0.449953 0.746182
-2.37556 0.416753 0.744729
-0.680159 0.170553 1.47901
-1.26016 0.736253 0.841621
0.972541 0.170553 2.04499
-2.61796 0.532053 -0.098334
0.0699402 0.159853 0.988915
0.12594 0.140253 0.994571
-2.28646 0.389253 -0.735184
1.46634 -0.475147 1.30365
1.18234 -0.183147 0.869283
1.23904 -0.171347 0.727171
1.64044 -0.528947 0.729832
0.837341 -0.0669474 -0.155904
0.748741 0.126553 -0.823454
1.20394 0.0343528 -0.565274
-3.83696 0.876153 3.0629
-0.83676 0.759453 2.13018
-2.25036 0.408153 1.39085
-2.42006 0.448553 1.10875
1.07404 -0.161447 1.52102
1.17064 -0.169447 0.812845
1.44494 -0.476847 0.267876
1.33954 -0.0773473 -0.933834
-2.90146 0.593353 1.769
-0.518259 0.648453 2.09153
-0.68816 0.591153 2.02296
-2.27716 0.353153 1.1589
0.73974 0.249953 2.08547
0.106441 0.139653 1.59232
1.07484 -0.137948 0.648296
0.316141 0.237553 -0.499354
0.61284 -0.00214717 -0.247724
1.51044 -0.262647 -0.838154
2.07044 -0.962847 -0.272164
1.65724 -0.0693469 -1.17178
1.24574 0.094153 2.08892
2.81514 -1.19255 -1.74289
0.91414 -0.0618472 1.39967
0.64554 0.111352 0.915577
1.48024 -0.285847 -0.541874
0.39574 0.00225309 1.02886
0.64384 -0.0653472 -0.066224
1.40844 -0.162447 -0.864954
0.63834 -0.0307469 1.07477
1.15254 -0.215347 0.418306
1.98154 -0.516147 0.337406
1.82024 -0.429047 0.106596
2.74064 -1.20245 -1.55091
2.38184 -1.06545 -1.54281
2.29964 -1.03415 -1.4088
2.33434 -1.05675 -1.32986
1.88004 -0.903447 -1.41969
-0.945959 -0.0496468 -1.81315
-1.16936 0.0327525 -1.84485
-1.30546 0.0585533 -1.80251
-3.06276 0.624753 -1.82273
2.17024 -1.01145 -0.747334
-1.19746 0.0460525 -1.25833
-3.18666 0.672452 -1.50823
-1.48506 0.132553 -1.20602
-1.46326 0.121353 -1.18719
-2.21036 0.361453 -0.828304
0.28684 0.0987525 -0.321784
-2.67596 0.487353 -0.828224
0.452841 0.0451532 -0.249594
-2.12836 0.337653 -0.501744
0.74374 -0.049047 -0.024534
1.48614 -0.504147 0.086696
0.83344 -0.0789475 0.0615359
-3.04386 0.612453 -0.472044
-0.538658 0.226353 0.0904459
0.526642 0.00725321 0.400846
-3.46016 0.758353 0.420316
-1.31166 0.757253 0.937136
0.0272403 0.172452 1.12797
1.45284 -0.474947 1.27671
-3.32156 0.742353 1.01374
-0.90116 0.292353 1.39446
-1.16516 0.335753 1.3961
1.31744 -0.238147 1.50711
-2.29126 0.389453 1.3612
1.27254 -0.219847 1.50962
-1.24036 0.558853 1.58069
-3.38926 0.732053 1.66026
-3.32236 0.737453 1.67325
-2.82236 0.585653 2.03348
-3.00576 0.645453 2.04203
0.780842 0.233753 2.07707
-1.10156 0.834053 2.10928
-3.44436 0.785453 2.15798
-2.81216 0.576053 2.17892
-3.44406 0.780953 2.1984
0.381241 0.364353 2.20787
-0.29636 0.577853 2.2179
0.32024 0.383353 2.21794
-0.72716 0.717153 2.27524
0.252441 0.519853 2.35506
-3.67446 0.847853 2.633
1.29384 1.90675 2.84352
1.88054 -0.906447 -1.27939
2.05734 -0.961147 -1.18318
2.12884 -1.01065 -0.862414
-1.24706 0.0645528 -1.1668
0.0903412 0.386653 -0.487164
-1.81756 0.228153 -0.803954
2.03604 -0.965647 -0.166164
-1.88786 0.256553 -0.707214
0.701341 -0.0305466 -0.00528401
0.53004 0.0145526 -0.0238641
0.80414 -0.0737471 0.041996
-2.44176 0.422953 -0.188594
1.15314 -0.130147 0.649656
1.77444 -0.586547 0.746502
1.41114 -0.472847 1.06761
1.66844 -0.516347 1.08844
1.09584 -0.168947 1.248
0.78544 0.174653 1.31086
-0.859459 0.236352 1.25952
-0.466359 0.129953 1.30899
-2.58126 0.488452 1.43286
-1.36546 0.590953 1.64568
1.34204 0.0574527 2.1225
-2.88546 0.603953 2.17994
-3.84766 0.962253 3.1011
2.07684 -0.954947 -1.35299
-0.181759 0.592053 -1.12142
2.27514 -1.04055 -0.416914
0.681341 -0.0206475 -0.394474
2.02394 -0.955247 -0.183354
0.474642 0.0205531 0.040956
0.158041 0.138653 0.707162
-3.10526 0.650653 0.713402
0.972141 -0.0243468 1.54368
-2.95426 0.603753 1.62757
-2.64666 0.500353 1.86631
-1.12866 0.707552 1.92525
-0.237559 0.383653 1.98457
0.931541 0.180053 2.05587
-3.03516 0.643753 2.20892
-1.29456 0.899953 2.33477
-2.05956 1.78876 3.35804
2.75104 -1.20585 -1.57412
-1.25286 0.0258527 -1.80743
2.53184 -1.12115 -0.998984
-0.0753597 0.537253 -1.09877
2.01574 -0.962547 -0.187804
-2.45316 0.399252 -0.158654
1.44444 -0.145847 0.406816
-3.12566 0.653253 -0.135024
0.0742413 0.159353 1.19252
1.15354 0.121353 2.02352
-0.289358 0.577453 2.01984
0.596641 0.298653 2.25995
0.53214 2.14987 2.84008
1.49604 -0.814148 -1.5708
-1.28386 0.0755525 -1.8227
1.21364 -0.0303473 -0.372254
-2.18396 0.370053 -0.771334
0.869741 -0.0922475 0.0379259
-2.52286 0.508852 -0.159064
0.742141 -0.109347 0.697056
1.19514 -0.183147 1.19537
-3.17166 0.689353 1.68182
-1.15306 0.868853 1.98691
1.29814 0.0804525 2.09627
2.03054 -0.999147 -1.57324
0.0902401 0.297353 -0.384724
0.0749413 0.277053 -0.350214
0.637241 -0.00614688 0.583666
1.54644 -0.496747 1.31388
-1.56206 0.570153 1.19633
0.903341 0.00605253 1.55219
1.11094 -0.189447 0.925482
0.856441 0.136053 1.51515
-0.192959 0.567253 2.23004
0.67094 2.11841 2.84753
0.234941 0.213853 -0.224524
1.16474 -0.140748 1.50515
1.17214 -0.157747 0.454936
-1.21156 0.891753 2.08848
1.41614 -0.237747 -0.486604
1.58264 -0.271147 -0.372284
0.88734 -0.178147 0.8958
0.11664 0.0244527 1.21005
0.94964 -0.204847 1.22114
-3.11126 0.642153 -1.82166
-1.96156 0.279853 -1.98525
-2.70466 0.523552 -1.38153
-2.94386 0.587953 -1.22456
-2.84246 0.561353 -1.20633
1.17564 -0.110647 -1.60411
-2.97766 0.609653 -0.803744
-2.38736 0.393053 -0.870094
-2.62916 0.493253 -0.732274
0.457441 0.205053 -0.852174
0.67514 0.140653 -0.848404
2.33644 -1.05185 -1.53466
-3.32126 0.707552 -0.154094
-2.76836 0.562553 -0.193474
0.298641 0.293753 -0.494744
1.87074 -0.902147 -1.22502
2.33674 -1.05185 -1.28386
2.01414 -0.966347 -1.18691
-0.569659 0.335853 -0.220664
-2.47536 0.454853 0.0338859
1.22464 0.0157533 -0.516374
-2.48066 0.466453 0.069686
1.13964 0.0561529 -0.453374
2.02594 -0.950247 -1.07847
0.287841 0.0989528 -0.319304
-2.03096 0.315653 0.0821659
0.455042 0.0465532 -0.247564
2.42024 -1.07835 -1.03465
0.474241 0.0409532 -0.234314
-3.43226 0.765353 0.606736
-3.36856 0.755253 0.591746
0.84144 -0.0686469 -0.271334
0.821741 -0.069447 -0.252364
2.15504 -1.03095 -0.850654
-3.41246 0.739253 0.678026
-0.639759 0.367353 0.206236
-0.500759 0.161853 0.244436
0.73644 -0.0453467 0.0104659
0.79034 -0.0677466 0.027866
-0.657559 0.199353 0.528936
2.23244 -1.02755 -0.403034
0.17844 0.161053 0.642786
-1.02026 0.332853 1.13521
-2.82336 0.580853 1.6803
-2.89806 0.612752 1.87018
-3.52086 0.793353 2.17801
0.77584 -0.0219474 0.968656
-0.864859 0.229053 1.59458
0.75884 0.179452 1.25054
1.14024 -0.174747 1.11777
1.69294 -0.546347 0.848354
0.118841 0.136853 1.49735
0.27754 0.080153 1.5253
1.32044 -0.230147 1.24233
0.95684 0.0268531 1.47777
1.16204 -0.169747 1.46858
1.27424 -0.221147 1.51028
0.65604 2.1212 2.61684
0.854141 2.04342 2.63336
0.356041 0.373353 2.21932
1.15424 0.123053 2.10949
1.30414 0.0739532 2.09114
1.19984 1.93939 2.75554
0.756441 2.0752 2.97761
1.23344 1.92296 2.83692
-2.10056 0.321253 -1.50192
-2.10196 0.338953 -1.46887
-1.97006 0.294353 -1.48177
-1.45056 0.124753 -1.54639
-2.36496 0.414653 -1.18535
0.742241 0.193253 -1.28648
-1.70136 0.197153 -1.1807
-3.16086 0.690653 -0.810894
1.96894 -0.954747 -1.53124
-1.65576 0.185553 -0.664694
-2.13366 0.338153 -0.501524
2.43764 -1.09355 -1.51282
2.41704 -1.08295 -1.48143
0.0828415 0.386653 -0.487204
2.43354 -1.09295 -1.40165
1.32454 -0.012547 -0.557854
2.23854 -1.02925 -1.04531
0.627041 -0.0157475 -0.040044
-0.850859 0.282053 0.522876
-2.65906 0.509053 1.04826
0.0373398 0.194853 0.641966
-2.57066 0.480553 1.2041
-0.00615921 0.185353 0.737795
-0.44056 0.133253 1.16861
-0.43466 0.120553 1.24158
0.16204 0.124953 1.24742
1.20774 -0.192847 0.93952
1.28134 -0.209647 0.975323
1.24744 -0.208347 1.00549
0.128641 0.131153 1.52717
-0.182959 0.551453 2.2108
1.16474 -0.183847 1.61773
0.253641 0.525053 2.37704
1.34924 0.0573526 2.12275
-3.14746 0.661353 -0.693574
1.40234 -0.724747 -1.58948
1.07524 0.0587526 -0.546804
1.33134 -0.0725474 -0.333084
0.45174 0.0649534 -0.135694
-1.27906 0.761253 0.78303
-2.33306 0.422753 1.32494
-0.53566 0.139953 0.89715
-0.46576 0.123353 0.927223
0.0576397 0.165353 1.13688
1.29484 -0.218147 1.00466
0.58814 0.162553 1.51878
-3.75596 1.14265 3.32188
0.465141 2.17601 2.61872
-2.06316 1.84426 3.35002
0.55644 2.14125 2.8338
1.29854 2.32896 3.37905
-3.17526 0.698653 -2.00311
-2.33546 0.404153 -0.747434
1.68864 -0.0710473 -1.17258
0.0939403 0.406953 -0.706044
-3.23706 0.694453 -0.124414
-0.0532593 0.272553 0.440446
0.598942 0.0116525 0.458146
-2.66136 0.514452 1.5088
-2.21256 0.375653 1.45779
-2.92456 0.617253 1.93412
-2.66206 0.503453 1.88441
-1.43326 0.936553 2.16089
-3.74986 1.04203 3.30436
0.946041 0.186453 2.21943
1.32504 -0.156147 -1.49891
0.461441 0.0123525 0.413846
-2.46606 0.430253 1.17874
0.103641 0.167853 0.646946
-1.51866 0.785653 1.94733
0.964841 0.0344529 1.52345
-3.80236 1.1482 3.28591
0.86914 2.03486 2.76114
0.776041 0.126053 -1.29816
0.26564 0.128453 -0.189974
-0.59076 0.356953 0.176346
-2.50976 0.438753 0.806117
1.00394 -0.119647 0.337256
1.86164 -0.411847 0.178316
-3.82736 1.24337 3.28383
1.30804 -0.236747 0.640326
0.634241 -0.00924727 0.722572
1.13444 0.152253 2.28902
0.63804 0.0341525 1.23055
0.584541 0.333453 -1.41879
1.56194 -0.435147 -0.768444
-2.53716 0.461353 -1.42327
-2.53126 0.458252 -1.37764
-2.47216 0.461752 0.034026
0.473341 0.257453 -1.32534
-0.11566 0.348953 -0.738864
0.30034 0.298553 -0.497274
-3.67526 0.845653 2.61528
-0.85336 0.282053 0.523196
0.305841 0.0914531 0.0241359
-3.57036 0.943053 3.21573
-3.56766 0.866553 3.13256
1.27494 0.0284534 -0.503144
0.787641 -0.0619473 0.020506
0.406841 2.18165 2.8317
2.40224 -1.08515 -1.5012
0.706541 0.0756526 0.987978
-0.304659 0.576053 2.26595
0.758241 0.190653 1.25394
2.26184 -1.03155 -0.827134
2.26734 -1.02585 -0.797194
2.28924 -1.03485 -0.800214
1.66734 -0.540647 0.74973
1.66134 -0.538447 0.90611
0.937141 0.188553 2.26966
-1.47186 0.128353 -1.82216
-2.23756 0.357153 0.373396
0.24654 0.313953 -0.441254
-2.54706 0.472653 1.40486
-2.80756 0.571453 1.66211
-1.14796 0.499453 0.932644
-3.87646 0.980053 3.12383
1.24034 0.0289531 -0.505664
-1.28156 0.883152 2.15444
0.0154396 0.209553 0.665336
0.730341 -0.0396476 -0.007474
1.96244 -0.945947 -1.52622
1.92724 -0.928247 -1.26508
1.99884 -0.942047 -1.04634
0.0272403 0.165053 1.47159
0.716541 0.0636525 0.991105
1.06634 -0.153947 0.699146
0.81764 0.127753 1.31241
1.30964 -0.219847 0.717313
1.32124 -0.222547 0.732507
1.23574 -0.199547 0.981624
1.13894 -0.172247 1.12274
1.40904 -0.462147 0.748824
1.25004 -0.204947 1.25652
1.15164 -0.179447 1.46578
1.27884 -0.218247 1.48623
1.70484 -0.514847 1.10274
-1.24546 0.0772529 -1.62146
-2.24796 0.369553 -0.124604
-3.02866 0.656553 1.00534
0.77144 0.166253 -1.32799
0.73884 0.189153 -1.26947
0.94494 0.133453 -1.26745
0.0881401 0.320553 -0.419204
