-1.51487 0.454011 0.747457
-1.53563 0.437591 1.1488
-1.52861 0.438773 1.13068
-0.660681 0.802261 -1.35118
-1.40015 0.406316 0.97203
-0.978317 0.0165271 -1.99646
-0.454586 0.548733 -0.690478
-0.907127 0.28046 1.73725
-0.449196 0.29174 0.409555
-0.392688 0.304346 0.310565
-0.501836 -0.121474 -2.19059
-0.43762 0.265764 0.686059
-0.691174 0.100841 1.61778
-0.251882 0.265156 0.583707
-0.233701 0.159762 0.565107
-0.0190353 0.240445 0.827251
-0.00586864 0.232197 0.808605
-0.0940057 -0.248803 -2.10584
-0.127725 0.121456 1.50198
-0.0621822 -0.260273 -2.12284
-0.0908105 -0.268925 -1.80429
0.151231 0.318887 2.07404
0.156818 0.318771 2.05642
0.111138 -0.322161 -2.25306
0.217272 -0.0720594 -0.389142
0.16596 -0.356687 -2.1936
0.213984 -0.329765 -2.48823
0.327118 0.241657 1.1315
0.181638 -0.362093 -2.19554
0.300449 -0.089907 -0.550385
0.333965 0.263554 2.08198
0.22286 -0.362756 -1.73252
0.248389 -0.368643 -1.72547
0.394616 -0.132604 -0.41372
0.478523 -0.0264496 0.388898
0.450339 -0.434894 -2.37852
0.466036 -0.427684 -2.35983
0.471628 -0.431556 -2.38628
0.494703 -0.47036 -1.39141
0.695329 -0.277196 -0.0456887
0.763729 -0.139978 0.80776
0.857554 -0.267237 0.30991
0.946032 -0.238273 0.281137
1.051 0.0447046 1.54685
0.97352 -0.24839 0.265657
0.849368 -0.596367 -1.01168
0.937904 -0.59811 -1.99337
1.13636 -0.653865 -2.05966
1.15876 -0.392585 -0.105295
1.2434 -0.665384 -2.50853
1.19096 -0.695141 -1.68792
1.29551 -0.741795 -1.51148
1.55304 -0.100903 1.13589
1.42909 -0.745183 -2.2961
2.33835 1.19778 1.54123
1.60348 -0.756216 -3.1549
2.26529 -1.07967 -0.598885
2.92579 -1.30353 0.224282
-2.93332 0.631288 -0.216877
-2.96165 0.598894 0.0364909
-2.88343 0.549157 0.135111
-2.85422 0.549416 0.200471
-2.79223 0.555077 -0.0162567
-2.62159 0.486512 -0.0806329
-2.60296 0.477204 -0.0821487
-1.4526 0.893391 -0.891673
-1.33636 0.772377 0.0215512
-1.2909 0.801446 -0.0409522
-1.08265 0.783646 -1.16419
-1.07531 0.780497 -1.14562
-1.02334 0.218899 1.38625
-0.366718 0.538751 -0.752193
-0.564283 0.298272 0.844429
-0.597604 0.292309 1.17925
-0.462824 0.253103 1.07474
-0.412843 0.265505 0.779128
-0.258509 0.244413 0.570275
-0.339227 0.194581 1.34497
-0.224655 -0.202769 -2.07482
-0.217334 -0.212527 -2.063
-0.167138 -0.239137 -1.8883
-0.102422 -0.262531 -1.81425
-0.0349763 0.0907167 0.905356
0.00526633 -0.289155 -2.06996
0.0166573 0.0189985 0.908994
0.01891 0.00044962 0.833737
0.147571 -0.0329249 -0.748682
0.171524 0.212112 1.30545
0.200478 0.207358 1.26765
0.154924 -0.349521 -1.7474
0.255879 -0.360787 -2.63154
0.292565 0.0317172 0.405393
0.348208 0.253269 2.08628
0.347343 0.032513 0.443872
0.239565 -0.374172 -1.78707
0.371518 0.0145205 0.427896
0.426285 0.24356 1.99757
0.388574 -0.00930559 0.756214
0.294688 -0.422564 -1.02801
0.493822 -0.0294227 0.391486
1.62061 1.66759 2.35926
0.583742 0.18965 1.72215
0.513194 -0.467651 -2.4665
0.45662 -0.455596 -1.7098
0.526193 -0.46477 -2.45089
1.70452 1.64287 2.30104
0.602688 -0.156992 -0.223366
0.47977 -0.464497 -1.37263
0.576808 -0.0823412 0.819808
0.460862 -0.478345 -1.12829
1.717 1.63644 2.30303
0.49122 -0.475523 -1.17917
0.627394 -0.0868792 0.866111
0.649682 -0.106304 0.923646
0.778548 -0.144179 0.810533
1.90309 1.58228 2.15083
0.725815 -0.321184 0.549462
0.72182 -0.557148 -1.32114
1.97117 1.55657 2.24112
0.998578 -0.568262 -2.92149
1.16121 0.0169211 1.32987
1.02153 -0.414916 0.536577
2.20253 1.49685 1.80068
1.21008 -0.652338 -2.83748
2.21649 1.48306 1.91311
1.18929 -0.402898 -0.0923166
2.23652 1.48406 1.84189
1.26508 -0.671551 -2.48266
1.18833 -0.731335 -1.01834
1.20099 -0.730628 -1.0376
1.34659 -0.703108 -2.65871
1.47942 -0.077468 1.06064
1.3963 -0.726813 -2.32507
2.43232 1.29205 1.83574
1.87059 -0.473421 0.281038
2.57633 0.890896 1.58096
2.05014 -0.244355 0.74836
2.11953 -0.257599 0.57089
1.88387 -0.945741 -0.663546
1.96886 -0.937769 -1.48728
2.43169 -0.361602 0.487485
2.47577 -0.372619 1.14195
2.48273 -0.378142 1.1193
2.31452 -1.07887 -0.835993
2.31469 -1.11144 -0.0929724
2.36764 -1.12738 0.0106372
2.69012 -0.449024 1.08411
2.85707 -1.28726 0.244943
2.86873 -1.29226 0.251967
3.17535 -1.3713 -0.748051
3.78379 -1.57634 -0.244127
-1.46923 0.830238 -0.0863725
-1.45178 0.811333 0.0816527
-1.39341 0.828436 0.0554408
-1.30464 0.772484 0.0188318
-1.50738 0.566921 0.92388
-1.55583 0.442638 1.2607
-1.3875 0.402882 0.912234
-1.26851 0.284393 1.55359
-0.904312 0.436277 0.2454
-1.06532 0.252799 1.66985
-0.88353 -0.00405701 -1.91607
-0.864748 -0.00563913 -1.94184
-0.403321 0.5151 -0.672689
-0.278162 0.52827 -0.891256
-0.511964 0.26698 1.28783
-0.2692 0.180187 1.53734
-0.277717 -0.210042 -1.57211
-0.168116 -0.256293 -1.83989
0.177434 0.297426 1.0131
0.0556194 -0.290695 -2.3924
0.277531 0.057869 0.209061
0.436693 0.342999 2.2176
0.46746 0.093901 1.03792
0.571338 0.206061 1.67251
0.531324 -0.455581 -2.30055
0.482812 -0.476027 -1.14302
0.521137 -0.487214 -1.608
0.588955 -0.261952 0.301928
0.588847 -0.269588 0.36099
0.758348 -0.153762 1.0108
0.803089 -0.547883 -2.38688
0.907872 0.0900119 1.66181
0.931987 -0.0274065 1.31873
0.838292 -0.560806 -1.62492
0.845258 -0.345181 0.393327
0.982521 -0.579559 -3.18278
1.00744 -0.573587 -3.18819
2.01293 1.54364 2.19502
0.997902 -0.615891 -2.00789
1.01835 -0.411385 0.554378
1.1178 -0.387893 -0.122933
1.12884 -0.650918 -2.12571
1.23196 -0.658098 -2.49795
1.22377 -0.726422 -1.0435
1.2883 -0.725122 -1.82464
1.39837 -0.529215 0.395475
1.66524 -0.13685 1.11164
1.49888 -0.556396 0.0675437
1.87613 -0.488642 0.0515585
1.83822 -0.854918 -2.37253
1.89944 -0.885952 -2.24278
2.58051 0.883395 1.59182
2.07969 -0.24644 0.562474
1.98862 -0.909018 -2.54847
1.95919 -0.988648 -0.161707
1.99419 -0.989603 -0.5106
1.99634 -0.988807 -0.550504
2.12563 -1.02348 -0.917861
2.2967 -1.07962 -0.650692
2.28813 -1.0992 -0.122431
2.31486 -1.10811 -0.442651
2.33273 -1.11032 -0.464275
2.45898 -1.10846 -1.09711
2.66201 -0.439307 1.27879
2.62238 -1.1785 -0.741596
2.58132 -1.20989 0.02113
2.69102 -1.17628 -1.44316
2.70626 -1.17805 -1.4179
2.67337 -1.18638 -0.722446
2.73623 -1.18792 -1.44905
2.87401 -1.31798 0.428777
2.89744 -1.29523 0.240537
3.09552 -1.31935 -0.77457
3.13952 -1.38888 0.656852
3.18671 -1.39038 0.741528
3.30831 -1.41905 -0.171357
-3.1864 0.670964 0.405265
-2.7478 0.527612 0.0290906
-2.69236 0.499265 -0.00812073
-2.68881 0.491662 -0.0440244
-1.51188 0.90004 -0.842108
-1.84248 0.789933 0.539115
-1.37271 0.813873 -0.00468727
-1.35741 0.79638 0.031647
-1.27204 0.794127 -0.0483581
-1.27098 0.784382 -0.0187718
-1.27549 0.770796 0.00831244
-1.16604 0.759691 -0.235509
-0.997841 0.23571 1.6089
-0.633164 0.467763 0.565183
-0.705367 0.329974 0.151405
-0.651325 0.354019 0.0567085
-0.361779 0.532123 -0.773665
-0.380925 0.505428 -0.670851
-0.287722 0.4899 -0.777984
-0.522305 0.254972 1.46047
-0.133867 0.131621 1.64502
0.124096 0.0983819 0.320752
0.328614 0.201373 1.06073
0.399126 -0.00198784 0.597882
0.492087 0.0980621 1.07008
0.643268 0.182277 1.66098
0.41132 -0.46777 -1.12607
0.613641 -0.077414 0.575089
0.862626 0.214629 1.93552
0.80507 -0.29758 0.289876
0.880936 -0.337229 0.406426
1.12956 0.0244896 1.3559
2.13676 1.51419 1.97459
1.15703 -0.644786 -2.05043
1.26381 -0.640521 -3.41841
1.07421 -0.663546 -0.863141
1.5628 -0.182682 -0.456628
1.64843 -0.817975 -1.94016
1.76663 -0.837713 -2.41461
1.86938 -0.472495 0.300334
2.14664 -0.266128 0.565424
2.16149 -0.28787 0.594863
2.21795 -1.06373 -0.10796
2.54431 -1.15564 -0.784835
2.64647 -1.1855 -0.927494
2.6725 -1.17531 -0.947633
2.72504 -1.18523 -1.3966
3.65102 -1.51033 -0.419254
-2.94233 0.616076 -0.00659054
-2.92026 0.564955 0.171437
-1.71839 1.10632 -0.587157
-2.30313 0.381831 0.208224
-0.727157 0.362922 0.956645
-0.361198 0.521266 -0.805757
-0.50149 0.340057 -0.326202
-0.511281 0.330706 -0.281324
-0.190396 0.244256 -1.01397
-0.415525 0.231314 1.25225
-0.314934 0.19284 1.32699
-0.305968 0.183577 1.47864
-0.295289 0.17933 1.36328
0.144861 0.216102 1.29443
0.213876 0.0972673 0.215735
0.309874 0.317268 1.20502
0.270372 -0.380089 -1.70704
0.389031 -0.0125248 0.776826
0.450856 -0.0195148 0.570243
0.614839 -0.086707 0.665469
0.990504 0.0760267 1.38145
0.886131 -0.363952 0.70982
0.998237 -0.330461 0.18735
2.45129 1.41397 2.03272
1.50528 -0.806166 -1.08634
1.52751 -0.819995 -1.03752
1.79478 -0.468801 -0.0657445
2.4647 -1.16156 -0.177331
3.1028 -1.39169 0.655105
-2.79589 0.549535 0.72855
-1.83923 0.777546 0.490159
-1.3554 0.825187 -0.0600266
-1.56746 0.608458 0.914305
-1.44803 0.436888 0.962448
-0.527924 0.297302 -0.027529
-0.317221 -0.177051 -2.23392
-0.0441623 0.19254 0.724088
0.0117705 -0.284997 -2.01292
0.0662718 -0.0381886 0.871132
0.500877 0.0377244 0.990748
0.715719 -0.535296 -1.76111
0.830371 -0.54241 -2.20808
0.948568 -0.582188 -2.24433
1.01245 -0.671122 -0.879288
1.42165 -0.751618 -1.90557
1.93205 -0.357232 0.511314
1.97241 -0.363397 0.485485
2.35653 -1.11458 -0.105151
3.1358 -1.3806 -0.0510352
3.54276 -1.51665 0.35387
-1.49644 0.828063 0.0281166
-1.6805 0.666133 0.425806
-1.41563 0.828903 0.0149977
-1.52685 0.580735 0.902137
-0.991321 0.239746 1.63897
0.695888 -0.118726 0.954094
1.55662 -0.106524 1.08771
1.73561 -0.828561 -2.4322
2.74965 -1.19362 -1.42685
-1.20659 0.855109 -1.06531
-1.65141 0.56439 0.552452
-1.53684 0.570175 0.986953
-0.356125 0.217702 0.530764
0.613095 -0.278983 0.317819
1.51786 -0.34156 -0.327306
-0.609809 0.346446 -0.0697908
2.52412 -1.17661 -0.750369
4.64468 -1.71187 0.145068
-0.650201 0.294564 0.139998
-0.200802 0.453087 -0.512106
0.115924 0.014406 0.750104
-0.259482 0.0549073 1.67665
1.47227 -0.569473 -0.241899
-1.52681 0.442714 1.13008
-2.71937 0.496659 0.418287
-2.68501 0.486464 0.4348
-2.69722 0.491717 0.417367
-2.6279 0.474534 0.384757
0.156405 0.319266 2.05676
-1.40106 0.40698 0.970954
-1.51666 0.456142 0.746769
-1.49744 0.445915 0.754964
-1.58681 0.486125 0.554276
-0.142816 0.116237 1.68645
-0.418239 0.263529 0.774412
-0.428195 0.271296 0.740724
0.202131 0.306867 1.04971
-0.0974178 0.283635 0.779745
-0.034144 0.23919 0.764744
0.0214131 0.0560021 0.868922
1.05316 0.0459237 1.53261
-0.395493 0.288485 0.374108
0.467496 0.0910796 1.03585
0.439283 0.102596 1.01283
-0.155666 0.124901 0.560682
-1.45619 0.889378 -0.861368
1.09051 0.0442419 1.33915
-1.41263 0.875503 -0.897981
0.552838 -0.0796239 0.985704
0.54213 -0.0713902 0.966315
-0.8748 0.63446 -0.783116
0.391275 0.00269537 0.434304
-1.10009 0.785869 -1.13203
0.33188 0.0266738 0.203647
0.761402 -0.325487 0.495203
1.84132 -0.185674 0.9364
0.960072 -0.239856 0.305929
1.79719 -0.166972 0.84877
0.993162 -0.255064 0.298654
-0.0365294 0.0364407 -0.753675
1.83644 -0.170904 0.680476
0.384331 -0.125559 -0.425002
0.429288 -0.135928 -0.429827
2.04764 -0.24468 0.767112
2.35235 -0.336876 0.545549
0.448286 -0.473327 -1.1187
-0.512026 -0.124009 -2.17344
-0.520583 -0.11672 -2.18679
-0.103242 -0.26217 -1.81395
0.848333 -0.596394 -1.01205
-0.242267 -0.201807 -2.09001
0.152808 -0.36422 -1.73237
-0.172176 -0.217708 -2.1635
-0.267009 -0.192518 -2.27895
0.0938946 -0.325033 -2.09024
2.89973 -1.31441 0.337227
0.462244 -0.435397 -2.36486
0.444468 -0.444833 -2.38292
0.469199 -0.43082 -2.38388
2.26626 -1.07991 -0.596916
3.42569 -1.48589 0.445405
2.50227 -1.1183 -1.12171
1.62001 1.66769 2.39645
-2.70367 0.491216 0.441344
-1.1503 0.256046 1.39516
-2.92049 0.587228 0.0951148
0.156569 0.315719 2.03942
1.93544 1.58341 1.89085
-0.342083 0.190107 1.64697
2.21368 1.48554 1.91314
-0.442029 0.223374 1.41123
2.2587 1.47526 1.91788
2.24203 1.47871 1.88818
2.23719 1.48367 1.84257
-0.500589 0.262841 1.12088
-0.466374 0.254963 1.07396
-1.3202 0.815826 -0.0562467
0.203262 0.322707 1.0775
1.07195 0.031216 1.60306
0.0232588 0.0589794 0.892406
-1.20088 0.733699 -0.533378
-0.0584289 0.112888 0.613753
-0.135809 0.0768471 0.574023
1.16393 0.0198319 1.30758
1.17026 0.0186911 1.28893
0.467889 -0.0472593 0.725766
-0.875531 0.829001 -1.0213
0.625825 -0.0812668 0.590888
-1.08682 0.785029 -1.1713
1.55173 -0.0989805 1.13815
1.58563 -0.105223 0.974734
0.759978 -0.327431 0.509808
-0.252466 0.507562 -0.839142
1.01937 -0.41351 0.53843
0.927507 -0.236937 0.278779
0.99336 -0.253165 0.280517
0.601774 -0.253282 -0.0588663
1.15031 -0.452881 0.0335874
1.49755 -0.561707 0.293617
1.07025 -0.362882 -0.158104
-0.980689 0.0207386 -2.02501
2.17982 -0.27786 0.524483
2.18147 -0.275196 0.506397
1.87329 -0.481894 0.0554486
2.37381 -0.331399 0.328209
0.487689 -0.479645 -1.17768
0.431206 -0.452104 -1.40452
0.838793 -0.594423 -1.03056
-0.288221 -0.194393 -2.15529
0.237255 -0.374225 -1.78432
0.806048 -0.576786 -1.26745
-0.290306 -0.174499 -2.39397
0.0881456 -0.317999 -2.11829
1.20075 -0.730607 -1.0369
2.36848 -1.12539 0.00909815
1.12076 -0.679726 -1.24783
0.118533 -0.322916 -2.24403
0.168919 -0.35396 -2.21227
2.28683 -1.09582 -0.122465
2.39466 -1.12952 -0.0196441
0.0233358 -0.282869 -2.42779
2.41391 -1.12743 -0.103225
1.88251 -0.948494 -0.662521
2.91138 -1.3179 0.354821
1.47495 -0.804353 -1.12248
2.58364 -1.19189 -0.027637
1.86858 -0.931952 -0.981886
2.36664 -1.10691 -0.48584
1.88436 -0.938183 -0.996848
3.08471 -1.35186 0.17776
0.490506 -0.424687 -2.60101
1.26708 -0.71738 -1.83282
3.09137 -1.35446 -0.141121
2.09262 -0.983509 -1.3374
0.938197 -0.545753 -2.77626
1.25024 -0.669481 -2.57944
1.34673 -0.696789 -2.65651
3.64129 -1.51779 -0.374952
1.87392 -0.890771 -2.26389
3.05819 -1.27326 -1.7214
-1.03821 0.242446 1.60651
-2.75931 0.519705 0.407459
-0.813788 0.153991 1.65167
-2.96314 0.609684 0.00348429
-1.39171 0.401676 0.914183
-0.270888 0.180569 1.53714
-0.295262 0.172348 1.4615
0.559765 0.201043 1.73505
0.574591 0.202277 1.70954
2.40563 1.32187 1.83355
0.907608 0.0889891 1.66255
2.49221 1.1452 1.75457
-0.00471539 0.222747 0.760705
1.07229 0.0544431 1.35049
0.307166 0.0290766 0.526214
0.783355 -0.141234 0.7963
0.445439 -0.0123007 0.38908
1.44595 -0.0636016 1.06277
-0.331835 0.482635 -0.623901
0.857156 -0.299994 0.212542
1.16624 -0.455148 0.216092
2.60509 -0.417558 1.14071
1.11729 -0.386361 -0.123098
-0.413267 -0.170476 -1.52142
1.49744 -0.554701 0.0671221
0.315773 0.136103 -1.37298
0.437603 -0.474652 -1.10348
1.88095 -0.482442 0.0145249
-0.124876 -0.25135 -1.84391
0.95214 -0.633074 -0.879131
0.859899 -0.598744 -1.0383
-0.066386 -0.268871 -1.97713
0.863898 -0.597821 -1.16678
1.94602 -0.999236 -0.134661
0.668392 -0.515534 -1.49261
-0.150644 -0.225674 -2.36668
2.23818 -1.08078 -0.0793473
0.537663 -0.460853 -1.92308
1.9928 -0.991736 -0.510495
2.38779 -1.12062 -0.183185
2.33341 -1.09315 -0.276064
1.96142 -0.962363 -0.798962
0.876515 -0.581043 -1.9078
1.27203 -0.726123 -1.51886
1.69498 -0.862874 -1.19453
2.08901 -1.00307 -0.911992
0.479386 -0.43362 -2.56941
2.12502 -1.02318 -0.916804
0.778482 -0.539772 -2.39781
0.568384 -0.452606 -2.89168
0.485031 -0.402254 -3.10458
3.2429 -1.38853 -0.332856
0.591324 -0.435823 -3.27193
3.2877 -1.41376 -0.505108
3.73956 -1.55044 -0.0475028
3.90481 -1.63239 0.0785609
3.09417 -1.31987 -0.775645
1.25188 -0.661039 -2.82402
3.7482 -1.56632 -0.235661
1.87436 -0.883606 -2.32121
1.50807 -0.75175 -2.77123
2.25947 -1.00274 -2.13907
1.58406 -0.758199 -2.94194
3.20388 -1.32548 -1.48007
-2.72456 0.501677 0.449844
-2.74688 0.524163 0.0247597
-2.69549 0.49016 -0.0432966
-2.30717 0.382279 0.214291
-0.122452 0.11838 1.66995
2.49118 1.41615 2.03333
-0.349345 0.197616 1.34544
-0.7597 0.388252 0.918996
-0.0726624 0.0985248 1.46076
0.21592 0.179194 1.32546
-1.24567 0.755216 -0.0290967
-0.398507 0.252298 0.782717
0.383558 0.212671 1.13635
-0.210394 0.155758 0.629202
-0.554509 0.329716 -0.0365206
1.44653 -0.0669619 1.22662
-0.360605 0.472902 -0.578585
-0.271232 0.448303 -0.644695
-0.359983 0.532006 -0.770058
-0.314905 0.491145 -0.723555
0.414718 -0.198092 0.102783
0.886784 -0.327411 0.405026
1.05912 -0.441109 0.589842
0.805803 -0.290905 0.292144
2.05746 -0.248242 0.846857
2.57448 -0.405478 1.12132
3.0174 -0.467196 1.43451
-0.248832 -0.219024 -1.6334
0.411581 -0.443663 -1.17681
0.537773 -0.504079 -1.2201
-0.41276 -0.150615 -2.17424
0.540922 -0.498889 -1.26703
2.93881 -1.34081 0.760238
0.27634 -0.382576 -2.06149
2.38104 -1.11343 -0.277348
2.90928 -1.29452 0.0949963
2.30802 -1.09386 -0.533453
2.02865 -0.979796 -0.852663
1.26527 -0.730454 -1.7995
2.56207 -1.1704 -0.838681
2.66647 -1.1782 -0.947305
2.07124 -0.974386 -1.55336
2.37413 -1.0456 -1.92213
1.64148 -0.773816 -3.07361
2.83143 -1.19101 -1.99359
-1.59648 0.612379 0.948503
0.31969 0.261685 2.08706
-0.451449 0.234372 1.42593
-0.347531 0.193305 1.50456
-0.476565 0.244825 1.36706
-0.412126 0.233475 1.2498
-0.384279 0.220569 1.2327
0.173318 0.310626 1.05765
0.807731 -0.16348 0.96144
0.744328 -0.142623 0.848568
-0.305847 0.278575 -0.178835
-0.321754 0.509558 -0.799642
1.77265 -0.158205 0.837701
2.8371 -0.487103 1.03362
1.52793 -0.141011 -0.52173
-0.083099 -0.262762 -1.8407
-0.132405 -0.24802 -1.92383
1.84758 -0.97763 -0.298829
1.10722 -0.675168 -1.21728
2.35812 -1.10062 -0.30214
3.24361 -1.41133 0.414125
0.916069 -0.553133 -2.75661
1.38256 -0.732073 -2.28551
0.447659 -0.37399 -3.27237
1.28859 -0.686702 -2.7577
1.91455 -0.898024 -2.30108
1.7151 -0.806355 -2.97522
0.127045 0.266093 1.25598
2.44729 1.26767 1.83301
-1.1599 0.717777 -0.205389
0.467506 -0.0356453 0.669372
-0.547945 0.352779 -0.318385
0.523104 -0.043693 0.544793
1.8318 -0.185005 0.938483
1.02019 -0.660171 -0.881156
0.268131 -0.383898 -1.75954
3.02418 -1.35345 0.663875
2.98593 -1.33152 0.60007
2.35065 -1.12794 -0.104949
4.39555 -1.61725 0.0153013
0.708219 -0.119787 0.957761
0.669475 -0.108109 0.890747
1.3795 -0.0504755 1.30621
0.194005 0.106255 0.213106
1.54808 -0.102284 1.08457
1.65788 -0.820182 -2.40338
-2.82396 0.558119 0.2524
-0.565424 0.593798 -0.690136
2.61888 -1.17271 -0.929585
1.03847 -0.588367 -2.744
1.17763 -0.135078 1.07262
-0.536021 0.506735 -1.08276
-1.46281 0.71743 0.148404
-0.242535 0.24701 0.61243
-0.982521 0.611021 0.408444
-0.226749 0.163255 0.377603
2.86312 -1.23588 -0.199369
0.0155221 0.180176 0.882427
0.358941 -0.0277562 0.873093
0.0470448 0.258021 -0.166015
0.506123 0.0594794 1.10332
-0.0493578 0.306662 -0.462373
1.5084 -0.506805 -0.200846
2.17951 1.69391 2.65127
2.35874 1.27576 1.67846
0.330383 0.261486 2.08257
0.835931 0.108528 1.69729
1.11013 0.037574 1.34188
-0.917485 0.289829 1.71712
0.884632 0.00150153 1.27472
-1.01083 0.227079 1.58642
1.58996 -0.104073 0.963167
1.66319 -0.129871 0.926769
2.04606 -0.245894 0.770327
0.236367 0.361713 1.10424
0.480188 0.090075 1.05341
0.763038 -0.149536 0.9909
1.76528 -0.163244 0.779587
0.18979 0.310582 1.04932
0.555775 -0.0799019 0.970257
0.243449 0.136378 0.92744
0.256465 0.111191 0.910631
2.92358 -1.32172 0.372726
-0.0315301 0.0965981 0.900649
3.31778 -1.42664 0.285858
-1.53752 0.43712 1.15133
-1.52976 0.440106 1.13153
-1.52196 0.437041 1.11611
-0.293664 0.219325 0.884573
-0.0313374 0.251771 0.805324
-0.0849881 0.278981 0.791953
0.0348322 0.177972 0.750449
-1.41683 0.410589 0.983859
1.02131 -0.41356 0.54182
-0.203299 0.325196 0.737738
0.623925 -0.0800403 0.589597
-1.3797 0.402729 0.936867
-1.37216 0.386527 0.93052
-1.54154 0.593912 0.953105
3.10183 -1.36658 0.135141
0.481001 -0.0349486 0.56438
-1.47519 0.438818 0.786071
-1.4974 0.446412 0.755059
-1.51482 0.455816 0.746801
0.992734 -0.256598 0.298848
0.85487 -0.267986 0.308767
0.961604 -0.245671 0.285159
0.939627 -0.239163 0.286529
2.77114 -1.25428 -0.0682505
-0.475913 0.291131 0.423138
-0.464349 0.299557 0.40299
-1.6003 0.482403 0.573245
-0.446606 0.292915 0.392101
-1.59042 0.482949 0.555642
2.20193 -1.0734 -0.206728
-1.88653 0.94423 0.438138
-2.65616 0.488436 0.437905
-2.68402 0.492518 0.422766
2.67862 -1.18025 -0.384498
3.34477 -1.41847 -0.491537
3.87696 -1.57639 -0.594937
2.56377 -1.1601 -0.53062
-0.731981 0.398393 -0.0687801
-3.58085 0.790997 0.266685
-1.28476 0.798095 -0.017099
-1.23768 0.749555 -0.0547196
-2.84487 0.563774 0.0355854
-2.72023 0.509553 -0.0161243
0.394457 -0.132197 -0.412861
0.384217 -0.125442 -0.423758
-3.18808 0.671044 -0.0204029
-2.98926 0.622215 -0.137582
1.71355 -0.878821 -0.733041
-2.96469 0.61809 -0.239284
-1.39686 0.785175 -0.389901
3.09639 -1.33349 -1.00963
-1.68325 1.06315 -0.394444
-0.0383446 0.0345376 -0.753423
-0.0744929 0.048019 -0.763038
-1.45773 0.887406 -0.85933
0.500992 -0.490707 -1.28411
0.744806 -0.537741 -1.63435
0.253737 -0.368464 -1.74945
0.222537 -0.37135 -1.77629
-0.211053 -0.223383 -1.78428
-0.147474 -0.251284 -1.84624
-0.214791 -0.237603 -1.86369
0.932274 -0.585027 -2.00542
0.164348 -0.349474 -1.98636
-0.0862842 -0.265648 -2.00327
-0.762107 -0.0333997 -2.02939
0.0813911 -0.322041 -2.10017
-0.243536 -0.202697 -2.08942
-0.296926 -0.181518 -2.10606
0.194764 -0.352527 -2.20776
1.03848 -0.601884 -2.28109
1.27898 -0.68598 -2.31738
-0.0794966 -0.253036 -2.25556
-0.0462344 -0.256326 -2.29639
0.468843 -0.42958 -2.38405
1.30536 -0.672563 -2.47332
0.502189 -0.429561 -2.58819
0.337534 -0.365659 -2.57867
1.91274 -0.882474 -2.665
0.630524 -0.464196 -2.66023
0.300899 -0.355108 -2.7566
0.853106 -0.527859 -2.871
0.487301 -0.403868 -3.1339
1.90181 -0.82718 -3.34915
2.54975 1.46378 2.08666
2.25866 1.47571 1.92041
2.20243 1.49333 1.85801
2.23579 1.48376 1.84288
3.16912 -0.516055 1.39054
0.546264 0.197327 1.90287
2.56266 -0.405584 1.30437
0.586636 0.195076 1.72548
0.975344 0.0736326 1.59685
2.50736 -0.393295 1.21834
2.53299 -0.393671 1.19231
1.05279 0.0472347 1.51633
0.0463083 0.109221 1.56365
-0.346488 0.187031 1.64617
-0.290724 0.171588 1.60681
1.55242 -0.101202 1.13736
1.53426 -0.0963308 1.13866
0.226772 0.185891 1.26967
-0.44172 0.226149 1.41097
1.79804 -0.165762 0.848393
2.06226 -0.25112 0.751611
0.322722 0.271401 1.08821
-1.14975 0.255328 1.3972
0.247922 0.284972 1.05238
-1.54712 0.439053 1.33371
-0.502476 0.262997 1.11977
-1.59555 0.485434 1.31247
0.556719 -0.0712309 0.810058
3.46272 -1.47955 0.251451
2.94828 -1.32252 0.340018
4.44777 -1.61055 0.0384886
0.0308573 -0.0189151 0.822993
0.469424 -0.0406481 0.724636
-1.34012 0.340991 0.977811
-1.37542 0.379337 0.968108
0.603294 -0.0750949 0.590307
-1.41629 0.400455 0.88407
0.78514 -0.332689 0.498153
3.57541 -1.49747 0.0136837
0.763363 -0.326912 0.497401
2.50118 -1.17885 0.173936
0.255725 0.0442721 0.53214
0.27761 0.0367733 0.519731
0.328803 0.0199237 0.496095
-0.236128 0.161707 0.569903
0.975927 -0.263427 0.331654
0.96278 -0.244477 0.268315
2.28531 -1.09164 0.0385226
0.603474 -0.265294 0.308925
2.5849 -1.1939 -0.0272799
2.39245 -1.12517 -0.0185288
-0.48459 0.284688 0.439576
0.184752 0.066808 0.313191
2.8122 -1.27494 -0.122812
-2.78038 0.525695 0.728224
-0.766522 0.38621 0.386507
-2.78124 0.507495 0.677047
0.64984 -0.278834 0.148553
3.37381 -1.42151 -0.287307
-3.00045 0.572687 0.686915
1.9993 -0.993718 -0.172136
0.916559 -0.351211 -0.0755683
2.10063 -1.02073 -0.340272
1.82055 -0.9471 -0.304297
-2.79461 0.53177 0.354363
0.712089 -0.28505 -0.175807
-3.05085 0.616975 0.317954
-2.8088 0.544039 0.222754
-1.49687 0.858019 0.0335783
2.29264 -1.08864 -0.559429
1.68787 -0.885801 -0.518763
0.389643 -0.168386 -0.351571
-1.14313 0.733856 -0.122585
-2.79369 0.556088 -0.0127956
-1.16922 0.750503 -0.182831
-1.17447 0.772334 -0.202283
-3.16353 0.669056 -0.0367279
0.645008 -0.208817 -0.505106
3.1381 -1.32758 -0.869249
2.81339 -1.2248 -0.854981
3.27282 -1.36913 -0.928824
2.57148 -1.17399 -0.855124
2.12285 -1.02321 -0.916313
1.60944 -0.84479 -0.983092
-0.405804 0.514942 -0.668652
1.84784 -0.921127 -1.04257
-0.472048 0.554074 -0.6882
0.867339 -0.599513 -0.980011
-1.53884 0.911352 -0.793267
0.459705 -0.47739 -1.12851
-1.439 0.880801 -0.87082
-1.44876 0.887636 -0.885447
0.794568 -0.575205 -1.282
0.755654 -0.563122 -1.28906
1.96496 -0.940104 -1.48568
2.33903 -1.04566 -1.57066
0.429478 -0.450696 -1.40382
1.90413 -0.917151 -1.5519
0.717757 -0.53362 -1.46612
1.4449 -0.783174 -1.55316
3.05806 -1.27409 -1.7196
0.233183 -0.368608 -1.7332
1.37078 -0.735993 -1.84124
0.436355 -0.437341 -1.82308
1.42283 -0.755246 -1.92027
-0.299066 -0.19376 -1.83606
-0.169976 -0.243866 -1.88654
0.513356 -0.451523 -1.93288
0.738485 -0.531505 -2.06385
0.132186 -0.327062 -2.03407
-0.0742918 -0.26258 -2.0228
1.72904 -0.844407 -2.18237
0.094385 -0.319584 -2.08767
-0.260913 -0.198607 -2.08118
1.87195 -0.896712 -2.26321
-0.431531 -0.14498 -2.13778
-0.320157 -0.187976 -2.15323
-0.291131 -0.19419 -2.15709
-0.16914 -0.215829 -2.18564
1.39257 -0.72954 -2.32347
-0.47121 -0.122978 -2.24361
-0.22677 -0.208263 -2.26834
1.98176 -0.910866 -2.40059
-0.16706 -0.238212 -2.32315
1.24687 -0.66687 -2.47605
0.509837 -0.441701 -2.50985
0.460761 -0.41972 -2.5979
1.34422 -0.701814 -2.65692
1.32029 -0.692005 -2.73135
0.776083 -0.501825 -2.71425
1.28547 -0.679781 -2.77049
0.0213023 -0.275168 -2.77147
1.21721 -0.646967 -2.90321
1.71262 -0.797677 -3.01299
1.68472 1.65738 2.06001
2.25919 1.47441 1.87176
0.39671 0.347997 2.24374
3.34576 -1.33181 1.05894
1.41482 -0.0572846 1.27588
-0.287155 0.168063 1.63879
0.934884 -0.0308171 1.31561
-0.292295 0.174422 1.56074
-1.06312 0.242113 1.64048
-1.04487 0.239589 1.61047
0.159275 0.210144 1.34079
3.15281 -1.39409 0.68769
3.12968 -1.3944 0.66015
-0.30342 0.198132 1.27406
0.520119 0.046781 1.07656
-1.02411 0.227003 1.38969
0.230935 0.289697 1.08104
0.420081 0.100031 1.01865
-0.586479 0.271234 1.21575
-0.448805 0.236231 1.10775
0.700766 -0.115067 0.834367
2.43158 -0.363068 0.489337
2.96495 -1.33473 0.399881
2.28971 -0.315014 0.44714
2.59114 -1.21248 0.305081
3.80282 -1.57784 0.0654882
0.997171 -0.402928 0.532705
0.640064 -0.0859974 0.579017
1.33959 -0.513133 0.403113
1.13169 -0.450562 0.434263
3.35483 -1.4383 0.00639383
-2.26066 0.324498 0.935048
3.76688 -1.57308 -0.222132
2.23544 -1.07942 -0.078943
2.29856 -1.10881 -0.106617
3.10826 -1.33751 -0.263289
2.43868 -1.15602 -0.162338
3.52978 -1.47743 -0.35568
2.21704 -1.07108 -0.166474
-2.79655 0.510393 0.570567
2.76973 -1.23203 -0.339021
0.74501 -0.297638 -0.0263413
0.737042 -0.291876 -0.0404009
1.11789 -0.380796 -0.119641
2.09461 -1.02309 -0.306586
-2.25842 0.375982 0.229075
2.31721 -1.11052 -0.443623
2.38958 -1.12273 -0.468149
-0.921486 0.463432 -0.099344
-1.26864 0.788357 -0.0382189
1.70394 -0.884693 -0.532311
2.17363 -1.04861 -0.598186
2.65931 -1.18932 -0.699932
2.60424 -1.17351 -0.70153
-2.60857 0.476944 -0.077332
-0.597092 0.361096 -0.29437
0.344028 -0.112791 -0.48082
0.251691 -0.0746879 -0.607357
-0.340063 0.481076 -0.596578
1.06856 -0.674724 -0.879152
-0.251984 0.453279 -0.666895
1.87244 -0.932882 -1.0175
1.19798 -0.733449 -1.03209
0.860735 -0.596663 -1.03979
-1.61038 0.978074 -0.744239
-0.143923 0.247613 -1.03797
-0.164536 0.254812 -1.04621
-0.419957 0.41403 -1.06941
2.5636 -1.13154 -1.5949
1.2689 -0.724958 -1.51685
0.842721 -0.559707 -1.6245
1.73156 -0.859776 -1.79951
1.39548 -0.749805 -1.88066
-0.180548 -0.247656 -1.85598
1.61265 -0.800055 -2.01955
-0.857819 -0.00183979 -1.96468
-0.421124 -0.141813 -1.99877
-0.437783 -0.139515 -2.15469
-0.162592 -0.215153 -2.24372
0.776706 -0.539551 -2.39645
1.7503 -0.824115 -2.44251
1.99844 -0.922385 -2.53457
1.16747 -0.633437 -2.67895
0.875856 -0.534957 -2.79815
1.75613 -0.789527 -3.03003
1.57648 -0.758988 -3.12207
1.59002 -0.757853 -3.13646
1.3763 -0.673521 -3.53302
1.35883 -0.664787 -3.634
2.53908 1.46107 2.11471
0.668637 0.169241 1.64915
-0.149912 0.113043 1.70702
0.935042 -0.0320039 1.31546
3.09952 -1.38798 0.800183
3.00974 -1.38376 0.775214
0.559468 -0.0404042 1.16871
-0.357857 0.195408 1.34389
3.06955 -1.38373 0.669175
0.345274 0.209086 1.14218
0.279321 0.289173 1.1295
2.97578 -1.31385 0.630335
-0.439892 0.227878 1.2811
3.26386 -1.41532 0.392831
3.66427 -1.54875 0.302709
4.38043 -1.60149 0.108918
3.58419 -1.5144 0.246628
3.55697 -1.50098 0.234704
-0.794402 0.40145 0.943327
2.64424 -1.21762 0.290221
2.84554 -1.28276 0.232905
0.49553 -0.0325392 0.560216
-2.2756 0.332409 0.909223
0.384978 0.0117294 0.446871
0.463112 -0.0333354 0.42261
0.483468 -0.0154261 0.372326
0.798976 -0.298907 0.294168
0.797393 -0.305638 0.255199
0.100846 0.102622 0.357608
2.79338 -1.23765 -0.153553
1.79133 -0.477221 -0.0639103
-2.82771 0.506727 0.594087
-2.81633 0.525139 0.555885
-1.88544 0.874012 0.425488
2.35401 -1.11038 -0.261404
-0.886104 0.434875 0.246099
2.33179 -1.09434 -0.272963
-0.717681 0.366171 0.150611
-3.19036 0.65395 0.435864
2.35934 -1.1099 -0.426109
-1.32302 0.769269 0.0382507
3.2374 -1.36032 -0.683944
1.57346 -0.180219 -0.484504
-2.88379 0.585277 0.0410151
-2.68788 0.487019 -0.045837
2.50608 -1.13375 -0.749187
2.53854 -1.14902 -0.775432
-3.04311 0.63515 -0.146794
-1.17118 0.712781 -0.519522
-0.384037 0.517347 -0.689255
2.36871 -1.09488 -1.10911
0.614666 -0.526204 -0.908116
2.58442 -1.14989 -1.25988
0.948487 -0.627071 -1.15568
0.483789 -0.479993 -1.14461
2.09536 -1.00188 -1.31573
-1.50871 0.902382 -0.840487
1.67533 -0.869346 -1.46372
-1.18206 0.818769 -1.12267
0.407078 -0.438201 -1.40628
0.886031 -0.602522 -1.48907
2.04599 -0.974478 -1.62391
-0.326507 -0.200973 -1.52008
2.85695 -1.19385 -2.00391
0.718632 -0.521355 -1.89064
2.13638 -0.984475 -2.0083
0.40417 -0.428065 -1.94689
0.920188 -0.582336 -2.01112
1.29394 -0.687587 -2.60289
2.35132 -1.01111 -2.65441
0.610578 -0.46717 -2.88487
0.533204 -0.427985 -3.22116
0.851843 -0.5029 -3.43642
2.53233 0.932159 1.60403
0.952728 0.0739569 1.72377
0.983622 0.0637761 1.69438
0.45796 0.237619 1.79886
2.84227 -0.486344 1.03951
2.57289 -0.388841 0.906597
-0.826539 0.166079 1.61401
0.432031 0.140026 1.13489
0.507941 -0.0595585 0.677911
3.77279 -1.56962 0.0695904
0.475234 -0.0245386 0.591931
2.59889 -1.19821 0.178627
2.56528 -1.18675 0.153746
-0.563826 0.265654 0.486095
0.87169 -0.327 0.182299
2.48201 -1.13836 -0.317598
3.77954 -1.54022 -0.542653
-0.611339 0.339637 0.0161202
-1.11769 0.684281 0.0818477
-2.36727 0.402494 0.205035
-0.957236 0.473496 0.00948638
-2.95056 0.605909 -0.00207123
2.71906 -1.19666 -0.834666
2.05324 -0.992868 -0.8683
-3.09458 0.659136 -0.285799
-0.350403 0.481462 -0.6735
-0.32218 0.511783 -0.801454
-0.305173 0.507164 -0.840034
1.1452 -0.683502 -1.16029
0.416334 -0.442962 -1.17539
1.70575 -0.865329 -1.46611
-0.177224 -0.229621 -2.01271
0.934983 -0.561919 -2.29966
1.78783 -0.856341 -2.3692
1.5703 -0.767722 -2.40102
1.17765 -0.655808 -2.39947
0.753522 -0.522412 -2.44079
1.2187 -0.663941 -2.51967
1.28346 -0.672479 -2.52366
0.783791 -0.497402 -2.78277
1.39862 -0.0578087 1.07206
-0.410935 0.219478 1.46227
2.99945 -1.36534 0.709232
-0.47094 0.252716 1.36316
0.259718 0.244943 1.02458
-1.27104 0.290133 1.27555
3.21882 -1.39951 0.184776
0.499175 -0.0482649 0.636573
0.397783 -0.00400786 0.645336
3.70084 -1.54505 -0.195706
2.63739 -1.22036 -0.030358
3.1364 -1.36037 -0.116223
0.993149 -0.318725 0.184166
2.31936 -1.11241 -0.0716254
1.84449 -0.486506 0.00616454
3.59707 -1.53228 -0.363909
2.76776 -1.23576 -0.375949
-2.85384 0.568913 0.216876
1.51274 -0.240346 -0.420081
3.17974 -1.36023 -0.701942
1.78167 -0.912122 -0.658266
-0.538045 0.35806 -0.318792
2.67593 -1.17532 -0.861623
-0.300571 0.489361 -0.511874
1.82805 -0.910625 -1.06486
-0.130186 -0.252634 -1.92831
0.522844 -0.409849 -3.15602
1.19642 -0.242625 1.03893
0.236576 0.329425 1.20947
4.59074 -1.66393 0.196967
0.984952 -0.403688 0.708949
0.763283 -0.313167 0.5216
2.69148 -1.22112 -0.0643429
0.46152 -0.201292 0.100391
0.572727 -0.241962 -0.101712
-1.39703 0.825665 -0.0266196
0.837085 -0.538033 -2.20602
0.63341 0.186825 1.69601
1.19861 -0.152383 1.10358
2.93398 -1.3291 0.704508
1.34292 -0.51156 0.29584
-0.452526 0.236632 0.433845
-0.80524 0.385615 0.42237
-0.820993 0.426505 0.245594
-1.34673 0.773494 0.0672856
-1.10682 0.727514 -0.135545
-0.373593 0.457988 -0.403505
-0.421581 0.489571 -1.08435
-0.847019 0.808014 -1.02574
0.929807 -0.534163 -3.37
4.67449 -1.81149 0.0863385
0.390785 0.00786571 0.717782
1.04923 -0.415511 0.484956
3.72363 -1.5439 -0.154404
-0.488407 0.266391 0.439324
0.506672 0.0117508 1.14001
-0.684348 0.279545 0.492385
-1.30592 0.402206 0.94536
-0.0171508 0.254088 1.13253
0.384798 -0.128662 -0.105331
-1.27805 0.728445 0.0308534
1.55199 -0.219012 -0.524307
0.0382766 0.0585155 0.548692
-0.172136 0.133569 0.313824
-0.0479805 0.267514 -0.481769
-0.540301 0.592717 -0.535109
0.327133 -0.237097 -0.711966
1.41132 -0.63888 -0.228564
0.234837 -0.326236 -2.99646
0.822619 -0.511523 -2.82322
0.632978 -0.463133 -2.66057
-1.08776 0.78409 -1.12883
-0.2177 -0.211184 -2.05911
-0.0926829 -0.247481 -2.10514
0.17544 -0.358272 -2.2129
0.0967078 -0.319379 -2.13575
-0.114941 -0.262949 -1.97168
-2.95444 0.616901 -0.243708
0.136268 -0.32668 -2.03382
-3.14186 0.655127 -0.0617221
0.239965 -0.369903 -2.02663
-0.259787 -0.20437 -1.70716
0.360526 -0.407711 -2.02798
1.0488 -0.622177 -2.41576
0.198952 -0.362266 -1.78468
0.217792 -0.368305 -1.79499
-0.0738005 -0.286861 -1.59469
-2.88443 0.552738 0.186656
-3.03842 0.608381 0.298671
0.410552 -0.436056 -1.70457
0.457675 -0.455046 -1.70902
-0.474847 0.541824 -0.69232
-1.17676 0.769488 -0.200837
-0.348548 0.525671 -0.714875
-1.22825 0.742705 -0.0437945
1.72904 -0.845368 -2.18177
0.67214 -0.513019 -1.49147
1.35842 -0.746608 -1.86016
1.0944 -0.671965 -1.62257
1.17032 -0.695395 -1.66763
0.526852 -0.489045 -1.18766
1.42792 -0.778498 -1.54503
1.44944 -0.785356 -1.55682
-2.22529 0.315295 0.9134
-2.30761 0.333885 0.969396
2.69418 -1.13296 -2.17659
1.30212 -0.727238 -1.24497
1.37381 -0.758509 -1.08356
-1.50479 0.426087 1.11795
0.127379 0.133523 0.256108
0.44796 -0.0118934 0.389376
-0.551803 0.29248 1.11924
2.16983 -1.04306 -0.972544
2.12303 -1.02521 -0.916486
0.936272 -0.235635 0.306067
-0.286414 0.186826 1.27465
2.26482 -1.07832 -0.597803
0.566321 -0.0737054 0.935916
0.599566 -0.0837478 0.916051
0.628134 -0.0965458 0.896557
0.615426 -0.091974 0.913002
-0.209018 0.148713 1.5413
-0.29164 0.170023 1.6051
1.96784 -1.00782 -0.138741
2.67364 -1.20504 -0.366812
2.39364 -1.11929 -0.113168
1.42722 -0.059704 1.12445
0.83633 0.109581 1.69828
1.33938 -0.0381343 1.3128
3.34301 -1.42866 -0.190204
3.02216 -1.34095 0.0831249
2.84008 -1.29317 0.265985
2.93745 -1.31039 0.253446
3.25152 -1.41077 0.152376
3.8977 -0.293033 0.991587
1.46579 -0.695047 -3.55565
0.0593558 -0.287861 -2.57176
0.425373 -0.385144 -2.72425
1.24359 -0.630841 -3.09444
0.852997 -0.526177 -2.87074
-0.162057 -0.215321 -2.24499
0.465222 -0.41957 -2.59917
-0.063513 -0.255592 -2.24364
-0.422159 -0.141147 -1.99991
-0.208761 -0.212063 -2.12912
-0.223618 -0.205883 -2.10583
0.0221953 -0.28258 -2.23605
1.06152 -0.605904 -2.83242
1.21927 -0.644927 -2.90123
-0.343572 -0.175584 -1.89089
1.0933 -0.607502 -2.72615
-0.0520852 -0.272441 -2.00893
1.87253 -0.838972 -3.10514
0.0589871 -0.301259 -1.94444
0.167777 -0.349343 -1.97269
1.29904 -0.67049 -2.51197
-2.77669 0.547721 0.0999138
-2.87966 0.549121 0.167259
1.26321 -0.704647 -2.20208
2.1552 -0.944799 -2.6625
-2.56742 0.468879 0.329153
1.18315 -0.673678 -1.97134
-2.7688 0.514603 0.51781
-1.20652 0.758629 -0.0779798
-0.925801 0.460093 -0.0786412
-2.53072 0.444636 0.811986
-0.638353 0.365196 -0.138129
0.395271 -0.170688 -0.355551
1.17003 -0.701119 -0.96511
1.98285 -0.946353 -1.48287
-1.37197 0.382412 0.968457
2.11828 -0.98531 -1.41493
0.870248 -0.300253 -0.395544
-0.474874 0.251825 1.13422
0.606542 -0.268059 0.304861
0.994867 -0.264282 0.259472
0.408375 -0.0142137 0.738256
-0.897551 0.280074 1.66358
0.567891 -0.0676114 0.653752
0.904983 -0.290516 0.369478
0.996422 -0.278934 0.32204
0.12506 0.315691 1.08863
2.22287 -1.06936 -0.598
0.643796 -0.099054 0.874282
0.718303 -0.125768 0.832559
-0.725791 0.0920746 1.87943
-0.183805 0.136692 1.55609
3.10393 -1.30914 -1.02819
1.01355 -0.422434 0.671282
-0.62734 0.0529831 1.93106
1.90458 -0.492238 0.132075
-0.170365 0.13008 1.7226
2.29421 -1.10605 -0.120748
3.17457 -1.35691 -0.718885
2.39989 -1.12809 -0.0915781
1.61423 -0.11064 0.961329
2.12487 -0.262252 0.574339
3.29893 -1.40719 -0.517294
1.41614 -0.0613314 1.27435
3.3908 -1.42783 -0.26386
2.89562 -1.27377 0.231988
2.84632 -1.29237 0.359672
3.26982 -1.41153 0.138128
3.2614 -1.40487 0.333332
1.65965 1.65753 2.0607
2.54545 -0.395442 1.11432
3.73856 -1.55687 0.0676724
1.55361 1.6865 2.35202
1.86057 1.59546 2.09759
1.60347 1.67027 2.35665
3.64169 -1.54576 0.315582
3.67967 -1.54883 0.310754
1.24871 -0.628065 -3.71954
-0.134328 -0.225037 -2.36632
-0.43542 -0.138491 -2.15219
-0.723578 0.772206 -1.34669
-1.23042 0.821738 -1.03429
0.354151 -0.402706 -2.32852
-0.0413078 -0.279936 -2.00088
1.75436 -0.802415 -3.03945
1.28574 -0.677289 -2.74652
0.752671 -0.524376 -2.40508
-3.18958 0.684323 -0.0458007
0.151608 -0.343658 -1.98936
-1.66725 1.05869 -0.405801
1.23048 -0.664297 -2.56717
1.30522 -0.678587 -2.60042
-0.244638 -0.223909 -1.63127
-0.405087 -0.152788 -1.51284
0.400683 -0.425846 -1.9456
-2.78462 0.539532 0.0219306
1.83101 -0.851417 -2.54326
0.996689 -0.61771 -2.00366
-0.462465 0.531704 -0.713978
-1.17264 0.733953 -0.0560995
0.636299 -0.499825 -1.49969
-1.19805 0.710193 0.0386091
0.853775 -0.584632 -1.52878
1.09681 -0.658208 -1.64193
-0.75317 0.401038 -0.0560049
1.66335 -0.834655 -1.76635
-0.34633 0.255895 -0.0363748
0.837355 -0.581819 -1.03042
2.04336 -0.974056 -1.62248
-1.55727 0.440695 1.26356
0.440114 -0.00810389 0.411533
2.37401 -1.09561 -1.13547
2.22355 -1.04883 -0.997875
0.809813 -0.304215 0.220968
0.585495 -0.0688118 0.614027
0.168721 0.318525 1.06154
2.19911 -1.04333 -0.558383
2.90906 -1.25474 -1.03551
0.411502 0.187455 1.10006
1.96727 -0.986083 -0.166432
0.0512244 0.0810171 1.53187
3.09557 -1.31862 -0.772309
3.12753 -1.32192 -0.791178
2.57102 -1.198 -0.0140433
3.36169 -1.41248 -0.526057
1.4423 -0.0625329 1.21158
2.62632 -1.19969 0.20429
3.46047 -1.44824 -0.37245
2.7527 -0.446995 0.937683
3.437 -1.46513 0.328791
3.08567 -1.36885 0.651367
1.59424 1.67222 2.37715
3.24673 -1.42269 0.69766
3.17364 -1.38668 0.77651
3.8775 -1.60793 0.173518
2.50856 1.47232 2.13779
1.11523 -0.605422 -2.99338
-0.664694 0.800033 -1.36723
-1.02161 0.753883 -1.20251
-1.70109 1.06281 -0.601664
-3.01126 0.607742 -0.196029
-3.05519 0.618533 -0.151962
1.72143 -0.821709 -2.92855
0.9433 -0.56989 -2.31142
0.185072 -0.355475 -1.77173
-2.74049 0.523696 0.0252873
0.400671 -0.426032 -1.77516
-1.57802 0.756863 0.0937349
-0.312038 0.478213 -0.647596
-0.362366 0.48968 -0.606789
-0.27087 0.434169 -0.653972
1.94528 -0.901926 -2.3508
-2.76051 0.508153 0.702854
1.64461 -0.816865 -1.93282
2.83149 -1.18422 -1.98537
0.742728 -0.305269 -0.0247166
0.00370483 0.145719 1.02534
2.92047 -1.25117 -0.75883
3.37881 -1.40311 -0.966817
1.19736 -0.137756 1.10533
0.913208 0.0938749 1.43132
2.63242 -1.21509 -0.0300056
0.877125 0.0976278 1.68489
1.03495 0.058528 1.56322
3.23554 -1.42527 -0.0736591
2.87968 -1.32315 0.361986
3.04414 -1.35171 0.576749
3.53703 -1.4987 0.476558
2.49191 1.40757 2.03063
-0.114213 -0.249628 -1.88389
-1.67259 1.07155 -0.41851
0.374852 -0.434949 -1.7212
-1.19793 0.756855 -0.166793
-1.12976 0.689466 0.0923019
-0.899378 0.4207 0.0934367
0.554526 -0.0666033 1.08383
1.86806 -0.472882 0.223808
3.00379 -1.33522 -0.198279
1.50734 -0.0873918 1.1749
1.38204 -0.0538528 1.29691
3.41988 -1.45917 0.0145287
3.85228 -1.58867 0.243014
4.51344 -1.65307 0.247155
-0.822567 0.415327 -0.110028
0.757031 -0.314767 0.527921
0.596465 -0.0642499 0.777421
1.16659 -0.000862942 1.30778
3.08622 -1.38478 -0.0519696
3.28453 -1.41567 0.169478
2.47966 1.40017 2.00898
4.61736 -1.71346 0.143228
0.28554 0.0633505 0.324635
1.71626 -0.132479 0.868795
2.30298 1.24964 1.51574
3.51736 -1.48901 0.253061
2.43286 1.44128 2.04495
-0.394854 0.450232 -0.409336
-0.457437 0.210919 0.217831
1.95058 -0.95283 -1.60503
0.238786 0.0393679 0.496472
1.07654 -0.416425 0.385376
-0.182689 0.134237 1.6445
3.25526 -1.41693 -0.200126
0.944023 -0.286502 0.21956
2.80378 -1.23181 -0.348817
-1.23923 0.6286 0.359484
-0.682813 0.327002 -0.00682124
-0.892026 0.386985 0.554749
4.14427 -1.61486 0.125568
0.116653 0.121809 1.03542
2.61758 1.30043 2.02499
0.0797306 0.0468964 0.525579
-1.45875 0.885726 -0.857868
-2.76491 0.508145 0.659769
-1.07942 0.785807 -1.15725
-1.07776 0.779915 -1.14377
-2.30356 0.383847 0.238452
-1.36943 0.81235 0.10232
-1.2917 0.803351 -0.0383799
-1.26888 0.803747 -0.024445
-1.17526 0.771776 -0.206085
-1.17766 0.7522 -0.196473
-1.23571 0.747837 -0.0571093
-1.55359 0.421274 1.28618
-1.37213 0.370085 0.962754
-0.319186 -0.177334 -1.97691
-0.211583 -0.207592 -2.12745
-1.15452 0.261121 1.4003
-0.790766 0.360218 1.03065
0.198102 -0.351375 -2.20988
-0.525313 0.248745 0.500991
-0.0341649 0.0384273 -0.755386
0.596563 -0.460018 -2.90197
-0.896396 0.277129 1.714
0.617658 -0.462889 -2.88267
0.216137 -0.363979 -1.75875
0.450694 -0.432055 -2.37453
-0.494656 0.265776 1.0973
-0.447643 0.247058 1.07852
0.412948 -0.426875 -1.97233
0.694933 -0.490213 -2.61681
0.378956 -0.41847 -1.75843
0.191337 -0.0424254 -0.390176
0.295105 -0.421954 -1.02643
0.12056 0.095248 0.344979
1.07512 -0.60395 -2.70645
1.47676 -0.695172 -3.61538
1.12747 -0.626545 -2.51448
0.346411 0.0314355 0.447242
0.357591 0.0260208 0.428804
0.44721 -0.0203921 0.425304
0.492068 -0.0305381 0.393286
0.0563718 0.347745 2.11938
0.451867 0.0990426 0.990523
0.136246 0.309613 2.12516
0.660154 -0.273763 0.104141
1.39105 -0.716992 -2.33575
1.17924 -0.692741 -1.69039
0.612468 -0.105869 0.946233
0.412916 0.240021 2.02437
1.27488 -0.725177 -1.51535
0.735953 -0.129588 0.807024
0.731755 -0.325374 0.528166
0.74877 -0.133956 0.810043
0.748321 -0.142789 1.01268
1.19053 -0.399773 -0.0927751
1.71621 1.63768 2.30443
1.35545 -0.0500337 1.31825
1.96843 -0.939622 -1.4857
2.23579 1.48402 1.84309
2.2631 1.47623 1.86741
1.97121 -1.00348 -0.151175
2.18015 -0.277768 0.52379
2.45628 1.14212 1.69211
2.26316 -1.0769 -0.613338
2.29567 -1.08048 -0.563489
2.33882 -1.10432 -0.432208
2.36802 -1.11304 -0.483646
2.4342 -0.359393 0.466371
2.6679 -1.20642 -0.364838
3.14837 -1.31475 -1.38161
2.61095 -1.21777 0.31225
2.81341 -1.28787 0.216743
2.85674 -1.2891 0.246512
-3.24032 0.690173 0.438045
-2.76841 0.562728 -0.581267
-2.80709 0.557788 0.132739
-1.46248 0.898498 -0.86767
-2.52752 0.468224 0.136903
-1.41257 0.869179 -0.875255
-1.46316 0.827971 0.047746
-1.23255 0.738556 -0.0380388
-1.19894 0.745018 -0.0636138
-1.56514 0.464133 0.510407
-0.483917 -0.11897 -2.22109
-0.449144 -0.133245 -2.20279
-1.5554 0.441974 1.2611
-0.359342 0.532209 -0.730043
-0.905032 0.435689 0.24628
-0.607131 0.361372 -0.269611
-0.283201 0.468507 -0.655222
-0.173819 -0.22327 -2.08085
-0.115803 -0.250665 -1.81423
0.156538 -0.345772 -2.21961
0.276992 0.302076 -1.18511
-1.05892 0.238508 1.63702
-0.580221 0.301779 0.862665
-0.631073 0.30278 1.20255
0.494024 -0.456563 -2.43692
0.399394 -0.432019 -1.95169
-0.523426 0.25524 1.46598
0.257531 -0.0706352 -0.609265
-0.339859 0.194866 1.34433
0.134048 0.135001 0.250511
1.21828 -0.620555 -3.39313
0.26734 -0.137991 -0.333497
-0.338878 0.186993 1.6251
0.256949 0.0901582 0.184033
-0.270506 0.179612 1.53879
0.376354 -0.118279 -0.442546
0.474313 -0.470301 -1.16799
-0.202798 0.146956 1.51942
-0.150487 0.130549 1.47905
0.180148 0.297834 1.01575
1.21267 -0.657381 -2.79617
0.699632 -0.545545 -1.30968
1.11348 -0.650176 -2.36129
0.996912 -0.622064 -2.00841
1.54301 -0.720805 -3.33366
0.248229 0.187063 1.2656
0.418341 -0.00912675 0.58308
0.411249 -0.0115684 0.612993
1.12678 -0.648543 -2.12082
1.15001 -0.647275 -2.16149
1.12218 -0.654533 -2.03813
1.46497 -0.728017 -2.79015
0.493292 0.0900742 1.04062
0.571077 -0.0728094 0.65542
1.06706 -0.22241 -0.37929
0.725569 -0.311197 0.499792
0.581829 0.197393 1.70768
0.686547 -0.117084 1.02103
1.54293 -0.811945 -1.96327
1.67005 1.65893 2.0545
1.87267 -0.850362 -2.20981
1.98041 -0.912066 -2.39688
1.40107 -0.0538248 1.27595
2.05325 -0.966841 -1.59435
1.96052 -0.967479 -0.793247
1.89963 -0.203914 0.901446
2.36502 -1.11012 -0.448666
2.73494 -1.19266 -1.42084
2.59095 -1.17539 -0.847958
2.67569 -1.18807 -0.723872
2.60253 -1.22276 0.0183496
2.55323 -0.402892 1.22275
3.21329 -1.3428 -1.14681
2.7925 -1.29887 0.491434
3.45296 -1.44229 -0.583784
3.17024 -1.39545 0.706336
3.33095 -1.42804 0.246252
-2.96001 0.585184 0.212271
-2.71226 0.49242 0.000296107
-1.4568 0.903857 -0.912812
-1.38211 0.888329 -1.02954
-1.45025 0.82005 0.0830412
-1.33712 0.795183 -0.0230758
-0.507579 0.581853 -0.68788
-0.412331 -0.155073 -2.14326
-0.27153 0.477794 -0.754879
-0.760825 0.383298 0.344175
-0.0222483 -0.269826 -2.38262
-0.160958 -0.239488 -1.86356
-1.25403 0.287478 1.53922
-0.455677 0.298992 -0.038004
-1.0051 0.213542 1.39658
0.146108 -0.341089 -1.98873
0.554653 -0.443893 -2.91232
-0.410203 0.234961 0.59185
-0.0833371 0.309943 0.154274
0.234496 -0.365568 -1.76484
0.366661 -0.411495 -2.10057
-0.477072 0.252478 1.13665
1.19658 -0.643972 -2.94719
0.915537 -0.612836 -1.91779
0.192019 0.206844 1.30924
0.78991 -0.559893 -1.37418
1.35516 -0.7033 -2.64437
0.163856 0.31582 2.04014
0.631656 -0.0841913 0.567169
1.43306 -0.724118 -2.33494
1.05405 -0.653105 -1.21964
0.806587 -0.297161 0.292356
0.898608 -0.321799 0.17444
0.92645 -0.0333475 1.29565
1.14417 0.0314613 1.32639
1.36407 -0.52567 0.417563
1.94245 -0.942834 -1.52489
1.47237 -0.0759517 1.22484
1.85961 -0.925365 -1.03385
1.57442 -0.10014 0.948597
2.06799 -0.252 0.721163
2.19454 -1.06956 -0.25763
2.29453 -0.316934 0.44833
2.53936 0.959549 1.64497
2.55026 -1.20657 0.0136941
2.6866 -1.20032 -0.379563
2.82796 -1.28929 0.250052
2.88003 -1.29818 0.264666
3.14819 -1.36934 -0.0935632
-1.41941 0.833838 0.0394644
-1.37736 0.803931 -0.0152545
-1.35876 0.79063 0.0340573
-1.26389 0.738409 0.0606776
-1.58807 0.62631 0.89963
-0.533242 0.583125 -0.643681
-0.312389 0.270257 -0.184773
0.445421 -0.402588 -2.55778
-0.245822 0.129044 0.0518049
0.340206 -0.409668 -1.56337
0.162849 0.0897795 0.308899
0.0236407 0.127218 1.55685
1.62682 -0.757019 -3.27171
1.43826 -0.0618177 1.20655
2.57116 -1.13376 -0.567012
2.92016 -1.25695 -0.754451
3.13165 -1.39019 -0.0494026
2.99562 -1.35184 0.708815
3.45088 -1.47139 -0.0189751
3.94944 -1.63526 0.069652
-2.77906 0.5585 0.719341
-1.08223 0.751493 -1.14336
-1.83903 0.78194 0.491338
-1.68801 0.697651 0.179755
-1.26482 0.778464 -0.142931
-1.1833 0.763028 -0.169787
-1.24125 0.716707 0.115707
-1.07269 0.718606 0.125159
-0.58969 0.369462 -0.296363
-0.308837 0.443006 -0.585034
-0.539505 0.163355 0.219084
-0.533719 0.274614 0.465549
0.203879 -0.119007 -0.366922
-0.274356 0.176892 1.61881
0.71433 -0.536456 -1.76075
-0.280497 0.163299 1.90998
-0.0401015 0.111776 1.55297
0.767668 -0.132693 0.825563
0.816864 -0.161297 0.962945
1.44043 -0.0595719 1.01638
2.44349 0.957563 1.48641
2.28419 -1.09282 -0.0393742
2.32028 -1.10776 -0.0739665
-3.11745 0.650496 0.338118
-1.63032 0.519309 0.56239
-0.430691 0.548325 -0.761838
-0.344236 0.247113 0.367996
0.221101 0.0814819 0.335988
-0.213633 0.149964 1.65231
0.417184 0.244722 2.03332
0.824824 0.113708 1.71183
0.938274 -0.395591 0.664261
1.28853 -0.0184116 1.17785
1.43838 -0.0546653 1.25428
1.52067 -0.092918 1.14171
2.41647 0.981445 1.39182
2.35993 -1.09617 -0.771495
2.59482 -1.15922 -0.793744
-1.51214 0.813246 0.0282589
-1.65334 0.692422 0.418302
-1.6477 0.569874 0.543293
-1.01093 0.360532 0.8303
-0.0776923 0.190948 0.696363
0.681833 -0.117859 0.969425
1.93047 -0.931041 -1.58752
1.3868 -0.0428983 1.22687
1.92458 -0.206719 0.814893
2.32838 -0.319315 0.464262
4.27014 -1.58473 0.38895
0.520147 -0.429856 -2.83157
1.41704 -0.156478 0.997091
2.24533 -1.08602 -0.507856
-0.424322 0.542412 -0.760055
-0.285751 0.219855 0.647769
-0.715641 0.345138 0.023862
-0.103988 0.263276 -0.52517
0.0823957 0.133913 0.0568872
0.338928 -0.143449 -0.341434
-0.376489 0.411936 -1.48062
-2.87319 0.551941 0.170597
-2.84539 0.553859 0.172097
-1.45613 0.890314 -0.891148
-1.10503 0.787828 -1.1357
-0.692115 0.10025 1.62263
-1.08048 0.78417 -1.16637
1.50372 1.7053 2.3461
-0.333291 0.201349 1.34477
-0.429212 0.266447 0.742962
-0.154448 0.130187 1.50584
-0.797058 0.59775 -1.67421
-0.363826 0.532571 -0.70802
2.05627 1.53142 2.20612
0.444488 0.10105 1.01978
0.389767 -0.0126891 0.763459
0.295862 0.0361858 0.407248
0.431487 -0.0224802 0.762253
-0.0729216 0.0471846 -0.763164
0.427024 -0.0156268 0.611081
2.25791 1.47366 1.91863
0.600861 -0.0885771 0.914314
0.495969 -0.0289248 0.394827
0.652036 -0.103535 0.924813
-0.267599 -0.19757 -2.13035
-0.252902 -0.203243 -2.25654
0.949971 -0.242567 0.314855
1.5491 -0.108845 1.17239
1.66819 -0.127229 0.913501
1.18897 -0.402085 -0.0906097
1.49867 -0.562177 0.294395
1.54837 -0.157043 -0.514198
2.17925 -0.278088 0.526577
1.19156 -0.693559 -1.68418
1.2759 -0.726442 -1.51746
2.43146 -0.362537 0.48921
1.66633 -0.840588 -1.54186
2.60858 -1.2197 0.312345
2.85673 -1.28908 0.247313
-3.1824 0.650969 0.440016
-3.07404 0.657969 -0.246242
-2.85088 0.550108 0.205332
-1.06326 0.23852 1.63402
-1.16259 0.749804 -0.206885
-0.793911 0.3636 1.00987
