0.616858 0.302551 2.19835
0.100758 -0.0578491 1.45031
1.24096 0.107951 2.1988
0.831356 -0.0756494 1.63521
0.798558 -0.0638496 1.57647
0.713257 -0.0462496 1.47302
0.792557 -0.0664493 1.45566
0.829357 -0.067649 1.41022
0.995457 -0.144149 1.40496
0.824557 -0.0783493 1.10309
0.871157 -0.0766489 0.651726
-0.444144 -0.18525 -1.24922
1.91386 -0.417949 1.61375
1.97236 -0.444249 1.45832
1.77506 -0.370549 1.15608
2.06546 -0.461149 1.4595
1.83126 -0.388549 0.948137
1.91736 -0.41145 0.93643
1.96846 -0.445449 0.935616
1.47146 -0.250249 -0.413304
2.47866 -0.781049 0.780494
2.01706 -0.20985 -0.549114
-2.03484 0.331251 1.64736
1.58186 1.82255 2.94052
-0.198744 0.554951 2.13105
0.828158 -0.0843488 1.54134
1.38906 0.0491513 1.96935
-0.854843 -0.0614492 -0.712994
0.751957 -0.0587494 1.0306
0.883957 -0.0998489 1.17768
0.826657 -0.0762493 1.01544
1.95136 -0.429349 1.63063
1.91166 -0.417649 1.57008
2.01176 -0.43035 1.4327
2.00436 -0.446949 1.17989
1.94766 -0.424949 1.02105
-2.02834 0.333551 2.05217
-1.96414 0.310251 1.73799
1.43646 0.040551 2.0514
1.49076 0.0261505 2.07508
1.24166 -0.186949 -0.256384
2.39956 -0.768749 0.626647
-2.35764 0.41715 -0.805874
2.64496 -0.312849 -1.24051
1.88616 1.72745 2.88105
1.81346 -0.397949 1.16552
1.45506 -0.34405 0.718413
1.59456 -0.16205 -0.113754
-0.229443 0.56395 2.14638
1.01616 0.16995 2.14809
0.779557 -0.0609495 1.46217
0.150858 -0.0729496 0.82227
0.777857 -0.054249 0.934402
-1.45184 0.138051 -0.827064
-1.50504 0.145951 -0.873414
0.944958 -0.108149 0.930326
1.69636 -0.233249 1.43072
-1.59444 0.164751 -1.21261
1.74736 -0.244449 1.43044
2.02346 -0.441249 1.41606
1.77386 -0.368349 1.16621
1.98046 -0.44375 1.19145
-0.462643 -0.193249 -0.897503
2.02286 -0.435049 0.896086
1.03916 -0.128849 -0.0351337
-0.350042 -0.230049 -1.35509
2.90336 -1.22315 -0.232394
-2.21104 0.400951 1.94224
-2.08264 0.348651 1.70294
-2.03954 0.329151 1.73134
-2.06274 0.343251 1.68951
-2.22604 0.37295 0.98879
-2.42534 0.45015 0.146546
-0.490843 0.425251 0.762412
0.751158 -0.0589497 1.56857
0.720358 -0.0539496 1.48333
0.876158 -0.105849 1.4734
0.809057 -0.066249 1.33296
0.713858 -0.0420496 1.24988
0.288958 -0.123249 0.879561
0.824557 -0.0863496 1.14396
0.719757 -0.0411494 0.953985
0.750656 -0.0624496 0.787474
1.86916 -0.408449 1.56211
1.89946 -0.403849 1.46125
1.99606 -0.449849 1.4655
1.93476 -0.393549 1.33767
1.83356 -0.389949 1.24963
1.84786 -0.385649 1.21567
1.83676 -0.385649 0.741882
1.88116 -0.343049 0.605097
1.96836 -0.39875 0.575436
3.03786 -1.28405 -1.57258
-2.46924 0.489251 2.57481
-2.24674 0.41225 1.72978
-1.77904 0.239051 1.83585
1.41116 1.87875 2.59591
1.83246 1.7472 2.81939
-0.288843 0.574551 1.97492
2.03886 1.68092 2.71772
-1.82544 0.255451 1.13978
0.183157 0.434451 2.04225
2.35216 1.57921 2.7092
0.755858 -0.0628492 1.47617
0.753456 -0.0625488 1.30594
2.10806 -0.16705 2.07164
0.751757 -0.057749 0.947794
-1.49524 0.168251 -0.820104
1.88936 -0.395849 1.28027
1.80046 -0.37355 1.15701
1.87086 -0.401949 0.948533
1.87196 -0.406849 0.794228
1.93856 -0.393649 0.835111
-0.434843 -0.191749 -1.25673
2.40656 -0.771249 0.868423
2.23276 -0.664749 0.167286
1.47646 -0.118149 -0.848314
-2.40824 0.45165 2.59483
0.690558 0.29715 2.26199
1.31256 0.0988509 2.26397
1.22116 0.10835 2.18815
1.43136 0.0362509 2.04845
1.73116 -0.0422489 2.10053
0.848057 -0.0804493 1.38185
-2.62304 0.519951 2.46193
1.93256 1.7118 2.92135
0.273558 0.407251 2.08923
-0.532244 0.446551 0.693753
1.52406 0.0209511 2.0905
1.40286 -0.220649 0.346606
1.19906 -0.171049 -0.357574
2.50526 -0.77095 0.742249
1.40586 -0.277749 0.603586
1.54306 -0.280449 1.01253
1.11386 -0.18535 0.857456
1.20676 1.94425 2.72768
-1.82784 0.251851 1.15384
1.30046 -0.0285494 1.4726
-1.48584 0.125551 0.0254463
-1.40544 0.117851 0.0278362
-0.208943 0.192051 0.509786
-1.66754 0.223051 -0.445064
2.06536 -0.458349 1.4549
-0.647043 -0.115649 0.0712363
1.60066 -0.359749 1.18027
1.92096 -0.416649 1.31824
-2.11014 0.330751 -0.913164
-1.50164 0.153651 -0.869554
0.247757 -0.0592491 0.0210961
-0.672144 -0.10525 -0.460494
-0.832443 -0.0562489 -0.680314
1.04166 -0.130749 -0.0346738
1.11896 -0.154649 -0.269614
0.678356 0.170951 -0.623544
2.97946 -1.25195 -0.869694
-2.29034 0.41855 2.61737
-1.75824 0.23685 1.91934
0.0019569 0.496251 2.17457
0.137257 0.44395 2.00108
-2.58644 0.480251 0.0750262
0.197456 0.0227507 1.19908
-2.54914 0.499651 -0.222294
-1.17944 0.0567511 0.317126
0.712958 -0.0487492 0.954578
1.95146 -0.423949 1.09572
-0.749542 -0.106149 -0.829424
-0.731043 -0.103449 -1.2391
1.62756 -0.322349 -0.165934
1.99696 -0.235249 -0.499814
2.94486 -1.22025 -0.224154
2.74966 -1.17225 -1.20741
-2.19904 0.39335 1.94413
-2.06204 0.33935 1.88494
-1.91924 0.282751 1.31496
-1.89874 0.287551 0.339246
-0.207243 0.151551 0.824146
1.95586 -0.42685 1.61463
-2.02044 0.334851 -0.531344
1.97106 -0.419949 1.41842
1.52256 -0.393049 1.14823
1.91356 -0.416549 1.09872
-0.805844 -0.0758487 -0.822754
2.31646 -0.732249 0.833857
0.145058 0.19615 -0.654014
2.60006 -0.833349 0.473186
1.01706 0.0841511 -0.597034
1.02386 0.10185 -0.618514
2.68936 -0.659049 0.126166
2.06486 -0.312949 -1.00527
0.175158 0.452951 2.03708
0.489157 0.33935 2.11776
0.335056 -0.121249 0.934723
-2.01784 0.301151 -0.557194
0.873257 -0.0785495 0.664813
1.34856 -0.429549 0.186996
0.118057 -0.0428488 1.29261
-0.449143 0.413451 0.740097
0.786257 -0.0665494 1.38677
1.41146 -0.25065 -0.112954
1.66406 -0.369649 0.918249
2.49026 -0.385549 -1.22883
1.38366 -0.252449 1.04878
1.72266 -0.304449 0.0539361
1.56046 -0.367649 1.09697
0.940058 -0.373249 0.438266
-2.12774 0.369851 2.57633
-1.82724 0.256251 2.12639
-2.62324 0.537751 1.81565
-0.394342 0.615151 2.07889
-1.69164 0.201251 1.80332
-1.41834 0.117951 1.81943
1.46546 0.0186508 2.07721
-1.80894 0.240451 1.35571
-0.516743 0.34905 1.58893
-1.85724 0.253751 1.16017
-2.10444 0.322651 1.03446
-2.16014 0.346751 1.0108
-2.11774 0.334751 1.00991
-2.37874 0.42985 0.685225
-2.67994 0.518951 0.569227
-1.81634 0.240451 0.79387
1.04896 -0.158949 1.48668
-2.16394 0.358151 0.663507
-2.13104 0.356651 0.657787
1.72476 -0.283449 1.49534
-1.46644 0.11665 0.631577
-0.035843 -0.0215494 0.891131
1.46576 0.000950661 1.26202
-2.05954 0.333251 0.323046
0.205856 -0.0832492 0.845799
-1.55104 0.167451 0.336556
0.107656 -0.0630495 0.704278
-2.60014 0.496351 -0.202054
-1.39444 0.10185 0.0570263
-1.36704 0.0780505 0.0494662
0.784058 -0.0376494 0.638336
-1.40684 0.117551 0.0318762
0.858156 -0.0658494 0.648647
2.06456 -0.45645 0.937068
2.54066 -0.80745 0.858796
-2.09094 0.344751 -0.488644
1.97866 -0.41075 0.651016
1.85246 -0.371749 0.613997
-1.88934 0.254751 -0.527484
-2.46214 0.451451 -0.861254
-2.03594 0.31255 -0.895784
-1.56444 0.159951 -0.821744
-2.19634 0.33995 -1.0638
-0.921944 -0.0509493 -0.724854
-1.08334 -0.00224892 -0.875723
0.754057 0.181851 -0.587754
-0.658543 -0.121749 -1.22019
-0.360542 -0.21135 -1.243
2.67916 -1.18855 -1.25162
-1.82184 0.249751 1.78379
1.18126 0.133151 2.16041
-1.22084 0.0757511 1.37252
-1.19904 0.0649508 1.1638
0.722258 -0.0672494 1.48787
-2.15924 0.354451 0.779342
0.278458 -0.0793487 1.26018
0.714256 -0.0645496 0.95659
-1.10614 0.0144509 -0.499904
-1.67164 0.200651 -0.776064
-0.654543 -0.12345 -0.487184
-1.45524 0.134451 -0.791094
-0.700144 -0.17475 -0.857524
0.640757 0.154351 -0.634074
0.883257 0.137251 -0.595244
1.02246 0.0964505 -0.611134
2.89486 -1.22335 -0.235714
-1.73514 0.235051 1.92812
-2.20994 0.394651 1.63355
0.571556 0.164851 1.94009
-1.58834 0.17085 0.997341
0.798958 -0.076749 1.10239
-0.0486432 -0.0139496 0.842778
-2.02044 0.344351 0.310056
1.91976 -0.41565 1.10454
3.14146 -1.30065 -1.58236
-2.11704 0.374951 1.89696
-1.38414 0.11045 1.3177
1.36386 0.0020512 1.4329
-1.84074 0.25705 0.640237
0.208757 0.00745091 1.11782
0.205458 -0.0499489 1.0678
0.762757 -0.016349 0.593557
1.35006 -0.243049 0.379856
-0.676743 -0.130749 -0.824424
1.79996 -0.203249 -0.205834
-2.42944 0.468251 2.58426
-2.57054 0.528451 2.55073
0.145657 -0.0654489 1.29067
-1.58084 0.15945 0.773734
-0.0447427 0.501751 2.1967
0.805657 -0.053549 1.39688
1.38836 -0.201649 0.361086
1.98526 -0.268749 -0.502074
1.67326 -0.410449 1.22327
1.35466 -0.244849 0.9542
1.38736 -0.341649 0.236446
1.42386 -0.166249 -0.384284
1.54546 -0.201549 1.49502
1.14416 -0.155549 -0.204074
1.51956 1.84188 2.72864
-2.56294 0.537151 2.56184
-0.156143 0.552951 2.15731
-0.00214396 0.492951 2.15859
0.472856 0.346451 2.15597
1.87586 -0.0975496 2.17062
-1.83484 0.25155 2.12626
-0.383444 0.623251 2.05944
-0.377743 0.621051 2.04214
0.231857 0.426651 2.02899
-2.15184 0.378951 1.97896
2.09676 -0.168149 2.04278
-0.350943 0.294851 1.85581
-1.76694 0.221051 1.82751
-1.32534 0.104551 1.73726
-0.251944 0.0539511 1.57294
-0.565243 0.345051 1.53928
-1.83324 0.256251 1.38885
-2.11094 0.336551 1.36198
-1.81144 0.240651 1.35667
-1.23244 0.0606507 1.3654
1.94056 -0.413149 1.30889
-1.89534 0.28665 1.13643
-1.30124 0.0745505 1.13724
1.45996 -0.00554957 1.21971
-2.60274 0.501651 0.581727
0.237858 -0.107549 0.70519
0.814757 -0.0597489 0.651237
0.739958 -0.0248491 0.618447
-2.45804 0.452651 0.0737063
-1.46984 0.12375 0.0307761
-1.60724 0.174551 -0.218484
-2.23204 0.38835 -0.525904
1.31866 -0.214949 -0.191704
-1.88064 0.268451 -0.558474
-1.17514 0.0295504 -0.513784
-2.25434 0.31615 -0.760224
-2.22394 0.38495 -0.752634
-0.761044 -0.101549 -0.718234
-1.13704 0.0324505 -0.749174
-2.25384 0.405751 -0.853384
-1.58544 0.152351 -0.880744
1.04116 0.0807513 -0.519474
-2.25874 0.444451 -1.00679
-2.30534 0.41575 -1.04979
1.89096 -0.171449 -0.580604
-1.57784 0.163951 -1.21005
-0.824944 -0.10105 -1.21611
2.95586 -1.24385 -0.885324
-0.823744 -0.0691492 -1.21744
2.86706 -1.23385 -0.905664
-0.572043 -0.143549 -1.21348
-0.500544 -0.168149 -1.21682
-0.733244 -0.0893489 -1.24869
-0.519444 -0.159849 -1.23335
-0.199043 -0.297149 -1.25881
1.76256 -0.202649 -0.903904
3.30466 -1.35355 -1.07281
0.784857 0.286151 -1.12041
1.15246 0.0498513 -1.33147
1.68466 -0.0870496 -1.31972
1.74666 -0.13755 -1.33349
-1.91094 0.279851 2.87136
0.093357 0.46575 2.21161
1.26026 0.0998504 2.23165
0.981957 0.178851 2.21391
-0.666743 0.709051 2.00494
-0.436444 0.644051 2.00776
1.46986 0.0273512 2.02848
-2.23114 0.388251 1.60911
-2.29204 0.385451 1.36395
1.71626 -0.21695 1.4704
1.49566 -0.00414957 1.43228
-0.112543 0.000950661 1.25
-1.90014 0.274951 1.15126
-1.45294 0.13785 0.929076
-0.550843 0.522751 0.870464
2.01986 -0.41985 0.621297
-0.853943 -0.0465491 0.328376
0.186357 -0.057749 0.418916
0.202356 -0.0723487 0.311446
2.45526 -0.77165 0.419966
0.155456 0.00905117 0.243106
2.38046 -0.726549 -0.145854
1.38506 -0.236349 -0.191774
1.08686 -0.15715 -0.278784
-2.04004 0.346751 -0.763124
-0.946842 -0.057749 -0.862054
-0.692843 -0.107549 -0.840414
-0.353443 -0.208949 -0.847154
0.623556 0.17715 -0.635284
2.08916 -0.196749 -0.521804
-2.26654 0.32315 -1.2698
-0.256542 -0.266649 -1.24399
1.79466 -0.0231497 -1.12767
-1.69124 0.347151 3.19839
-0.730244 0.740851 3.05148
-2.14074 0.36745 2.84927
1.75206 -0.080949 2.00961
1.03776 0.140151 1.97774
0.629957 0.150051 1.93594
-0.802843 0.49795 1.779
-1.75744 0.26125 1.65269
-2.41214 0.431051 1.597
-1.29224 0.0947511 1.55083
-1.73424 0.230151 1.40519
0.193457 -0.0398495 1.06211
2.41686 -0.74505 1.04654
-1.45484 0.143051 0.747575
0.617256 0.103151 0.321356
-0.774243 -0.0731489 0.0734161
-2.21234 0.329951 -0.556334
1.37996 -0.240449 -0.272234
-0.618044 -0.146949 -0.855154
-1.58734 0.187951 -0.951504
2.11446 -0.306449 -0.743173
3.07996 -1.28425 -1.24793
3.31906 -1.36175 -1.57376
2.78756 -1.21015 -1.63451
-0.727043 0.792131 3.0629
-1.81234 0.26125 2.58251
-0.602444 0.684751 2.28821
0.525257 0.31325 1.99229
-1.51934 0.161151 1.83011
-0.593443 0.36535 1.6547
-1.50334 0.160051 1.33422
-1.37074 0.18195 0.603407
2.45886 -0.792149 0.570997
0.562058 -0.0325491 0.266096
-2.05844 0.174651 -0.791694
-1.53814 0.21285 -0.828994
3.13286 -1.28245 -0.804754
3.29526 -1.36605 -1.05503
3.24676 -1.30885 -1.06302
0.411858 0.207851 -1.18984
2.14716 -0.112849 -1.29073
1.01826 2.0316 3.06495
2.26576 1.6069 2.80358
1.85666 1.71933 2.80304
-1.75484 0.246451 2.90963
-0.540343 0.741151 2.30817
-1.50884 0.176751 1.71205
0.553356 -0.0164492 1.6989
0.735358 -0.00174919 1.69988
-1.75994 0.222151 0.770837
-0.634342 0.42565 0.665241
0.299757 -0.0934488 0.199246
0.663958 0.175251 -0.652864
1.78516 -0.095749 -0.620034
2.83756 -1.21455 -1.07977
2.37876 -0.227649 -1.21317
-1.91624 0.321851 3.04788
0.755858 0.00165066 1.74071
-1.51664 0.17365 1.66653
0.828358 -0.0467493 1.25703
0.861258 0.070751 -0.509934
2.93286 -1.25455 -1.22089
1.67176 -0.332549 0.273166
-0.546044 0.352851 1.51769
0.442457 0.0235508 -0.691364
0.571358 0.94103 2.37929
1.81716 -0.435849 0.388076
-0.0059434 -0.324049 -1.11899
3.09996 -1.29395 -1.08564
-0.358442 -0.208249 -0.912694
-1.64594 0.171651 -0.900614
-1.45794 0.11805 -0.894414
-0.683844 -0.106549 -0.893044
-0.697043 -0.102849 -0.885714
-1.43174 0.10475 -0.883954
-0.979042 -0.0440495 -0.876504
-0.989643 -0.0365488 -0.867364
-0.226044 -0.257949 -0.865023
1.92466 -0.18255 -0.569744
-1.10404 0.0155505 -0.749853
-0.871042 -0.0623495 -0.626984
-1.26414 0.0734509 -0.617483
-0.835142 -0.0705492 -0.605444
-1.96004 0.301751 -0.583224
-2.12534 0.36175 -0.549024
-1.71904 0.22415 -0.507934
-1.00864 -0.0164492 -0.513854
-0.698143 -0.104249 -0.495254
-1.68954 0.221651 -0.385214
-0.982042 -0.012149 -0.340234
-0.686144 -0.100749 -0.259174
-0.975443 -0.0256493 -0.245834
-1.98674 0.306851 -0.222894
-1.97554 0.29425 -0.225834
-0.975542 -0.0231497 -0.231574
-1.14514 0.0178507 -0.224274
-0.883244 -0.0483496 -0.211974
-1.78414 0.22975 -0.202244
-1.80254 0.237951 -0.190894
-0.759144 -0.0894491 -0.162954
0.240557 -0.0488493 0.0363063
2.43396 -0.73235 0.0403963
2.41856 -0.735949 0.0405663
-2.32174 0.419851 0.00522628
2.42036 -0.737449 0.0726563
-1.58644 0.175251 0.0421063
-1.37724 0.105651 0.0427061
-1.29954 0.0739506 0.0415863
-1.31724 0.0917508 0.0460261
-2.46034 0.462651 0.0629362
2.41986 -0.737149 0.112656
-0.611744 -0.134249 0.159596
-0.629744 -0.127149 0.174956
-2.39254 0.44185 0.194886
-2.38044 0.432251 0.204726
2.41856 -0.739749 0.248846
2.47386 -0.74645 0.255456
2.49326 -0.75205 0.257636
0.180656 -0.0286495 0.280856
0.0298578 0.0171507 0.309456
1.34396 -0.213549 0.376436
2.70726 -0.823449 0.358906
-0.688843 -0.107849 0.330146
-1.34784 0.0974509 0.346676
-0.640444 -0.11785 0.356936
-0.580544 -0.138049 0.357386
-2.35104 0.420551 0.402036
-2.25564 0.390851 0.445406
-1.27874 0.0961511 0.476966
-2.38824 0.43615 0.495196
-2.56524 0.489751 0.569807
-2.56934 0.490051 0.583876
0.863056 -0.0909492 0.671458
1.30356 -0.0993492 0.726767
1.44386 -0.311449 0.736014
1.50256 -0.294949 0.819627
-0.154244 0.0678509 0.809223
-1.93854 0.280451 0.781779
-1.24284 0.0706509 0.796841
-1.29474 0.0818508 0.80475
1.35636 -0.086549 0.879786
-1.18994 0.044051 0.827118
0.310556 -0.118749 0.872765
1.40746 -0.121949 0.915645
1.38156 -0.108149 0.928633
-1.19974 0.0431507 0.994643
-1.83544 0.26135 0.9988
1.35336 -0.27245 1.08099
2.00346 -0.445949 1.11095
0.210756 0.0277508 1.16374
0.234657 0.0197504 1.16562
-1.76244 0.237351 1.1447
1.49506 -0.0150492 1.24663
0.158657 0.0242508 1.23972
-1.85224 0.262251 1.25968
-2.06324 0.330451 1.33432
-2.43834 0.43765 1.36995
1.18996 -0.0685493 1.46685
-2.54954 0.496251 1.50562
-2.53594 0.49165 1.53094
-0.247244 0.0541504 1.55564
-1.88464 0.306751 1.55684
-2.63514 0.520851 1.60244
-1.76784 0.246451 1.64644
-1.81964 0.266051 1.65284
-1.85834 0.278351 1.65466
-1.85614 0.277151 1.66617
-1.34114 0.10835 1.68392
-1.34054 0.108151 1.69757
-2.37064 0.440651 1.74268
-1.75704 0.230851 1.7843
-1.77894 0.22905 1.7889
-1.52034 0.16105 1.79156
-2.44774 0.447751 1.82716
-2.03614 0.341051 1.82892
-2.03364 0.338951 1.8658
-2.25074 0.412151 1.90476
-2.47434 0.47135 2.02095
-0.446343 0.634551 2.0188
-0.426243 0.626351 2.04341
-0.0848427 0.514051 2.07966
-2.43174 0.453851 2.14732
-2.14284 0.367651 2.14728
0.0481569 0.472951 2.17511
-2.45354 0.470151 2.40208
-2.46174 0.47765 2.40997
-2.33104 0.432351 2.4097
-2.54244 0.497051 2.41877
-2.04204 0.34135 2.44017
-2.38994 0.44605 2.44495
-2.53794 0.50775 2.56542
-1.74284 0.222351 2.73207
-0.432244 0.653451 2.80048
-0.419344 0.650651 2.8151
-1.87624 0.287851 3.06933
-2.00834 0.39545 3.10937
-1.34584 0.245751 3.18631
1.17206 2.04266 3.08893
1.55446 1.94406 3.32791
3.48536 -1.42185 -1.73787
3.12276 -1.29195 -1.38094
3.24756 -1.34605 -1.24816
2.71776 -1.17215 -1.2374
2.70496 -1.17315 -1.22806
2.77436 -1.19675 -1.21499
3.09906 -1.29245 -1.21277
-0.431442 -0.190749 -1.09547
3.06616 -1.28205 -1.1091
-0.549643 -0.160849 -0.893434
-0.571543 -0.154549 -0.879214
-0.551943 -0.158749 -0.875084
-1.00634 -0.0283491 -0.873724
-2.09304 0.342651 -0.833604
-1.56514 0.154151 -0.826254
2.22106 -0.279749 -0.622634
1.86606 -0.160849 -0.576624
-1.19754 0.051051 -0.723994
0.936558 0.085451 -0.532514
-2.27374 0.40045 -0.571884
-1.20204 0.0550507 -0.558454
-0.852343 -0.0793487 -0.548784
-0.930243 -0.0348494 -0.485054
0.441656 -0.115449 -0.309734
-1.71554 0.221451 -0.375954
-0.805243 -0.0653488 -0.372084
-0.872143 -0.0467493 -0.290364
-0.954443 -0.0370495 -0.247354
-1.24044 0.0624512 -0.237914
-0.995443 -0.012849 -0.230904
-1.31714 0.0874508 -0.224624
0.281357 -0.0698492 -0.155964
-1.58454 0.16995 -0.207074
2.91786 -1.23655 -0.218904
-1.45844 0.12855 -0.188474
-1.81694 0.242851 -0.185904
-1.57544 0.16025 -0.186644
-1.78184 0.243551 -0.133574
-0.783444 -0.0886489 -0.131634
-1.63694 0.19965 -0.0242537
-1.51274 0.143751 -0.0108837
2.43556 -0.73515 0.0926663
0.146458 0.111251 0.147026
-0.402743 -0.184149 0.0630363
0.123857 0.121951 0.155486
-1.11934 0.0158509 0.0679861
-2.26514 0.405751 0.105286
2.43696 -0.739949 0.264586
2.41856 -0.74215 0.265876
2.49236 -0.750849 0.273406
2.42546 -0.74775 0.286646
1.27566 -0.21135 0.369086
1.30466 -0.21065 0.372986
-1.63664 0.18905 0.333506
-0.656443 -0.122449 0.340636
-0.759043 -0.0924493 0.356736
-0.742043 -0.102249 0.360706
-2.62124 0.515951 0.382126
-2.50924 0.458851 0.388286
-0.851044 -0.0610497 0.382916
-1.39584 0.12095 0.416606
-2.28764 0.405151 0.452476
1.26186 -0.230649 0.546576
-1.94584 0.303751 0.590167
-1.42574 0.119151 0.602556
-1.88534 0.274851 0.613547
0.269857 -0.106149 0.675555
-1.39444 0.121751 0.731888
1.90776 -0.403149 0.791341
1.19036 -0.167449 0.837124
1.50326 -0.274749 0.849793
-0.144943 0.0608509 0.839448
0.870756 -0.0896493 0.922954
-1.13594 0.0249508 0.971432
-1.84264 0.258951 1.07426
-1.86424 0.267351 1.07832
2.07956 -0.468849 1.12987
2.21146 -0.715049 1.12087
-1.97634 0.308951 1.12486
0.225857 0.0210513 1.19451
-0.387243 0.133251 1.20693
0.409958 -0.155249 1.2685
-1.27734 0.0947511 1.32381
-1.31654 0.0977504 1.35195
-1.44224 0.144551 1.37322
-1.50934 0.164251 1.37916
1.73596 -0.217249 1.42173
-1.52244 0.172651 1.40923
1.16646 -0.0679494 1.45291
0.119858 -0.0596497 1.44337
0.771057 -0.0627491 1.45097
1.27106 -0.0392496 1.46531
1.16816 -0.0703489 1.46976
-0.508444 0.33155 1.54067
-0.273543 0.0585507 1.5448
-0.226942 0.0504511 1.56454
-0.505343 0.338151 1.58753
-1.13664 0.0535506 1.72524
-1.74184 0.21715 1.78292
-1.80234 0.23755 1.79778
-1.48204 0.140051 1.79736
-2.01454 0.323351 1.87352
-2.03554 0.335651 1.87867
-1.35524 0.125551 1.88991
0.648457 0.28445 1.98728
1.68776 -0.0446493 1.98959
-2.03444 0.34075 2.00436
1.40776 0.041251 2.02096
-2.51374 0.487051 2.03518
-0.345543 0.601851 2.02521
1.45326 0.0376509 2.03928
2.06356 -0.158949 2.04587
1.68516 -0.0340492 2.05274
-0.193443 0.557851 2.06438
-1.79574 0.25705 2.10252
-1.38514 0.101451 2.10668
-2.02544 0.30835 2.10784
-1.51404 0.162851 2.11369
-1.75574 0.233751 2.13035
-2.63994 0.529351 2.12833
-2.12334 0.361851 2.14147
-2.41194 0.444251 2.14836
-0.661143 0.708151 2.13853
0.684656 0.27395 2.14455
0.587658 0.310151 2.15592
-0.191044 0.557651 2.15747
1.04186 0.161251 2.17324
-0.580143 0.673751 2.16947
-2.27584 0.41095 2.20831
-2.09044 0.356551 2.30736
-1.64814 0.197651 2.32229
-1.77334 0.24375 2.36119
-1.43054 0.143051 2.42182
-1.44644 0.138251 2.4994
-1.68544 0.20175 2.56302
-2.37744 0.438751 2.56543
-1.67944 0.20385 2.57532
-1.94384 0.30635 2.57833
1.59846 1.81893 2.57399
1.52836 1.83708 2.61157
2.38416 1.57191 2.63369
0.708258 1.78617 2.70304
1.95096 1.70739 2.72658
1.93726 1.713 2.74011
1.94036 1.71445 2.75075
0.792258 1.83008 2.79225
1.95506 1.70613 2.79882
1.93596 1.71425 2.8187
1.95286 1.70987 2.835
1.61056 1.81322 2.94333
1.06176 2.06276 3.13772
0.487657 1.80032 3.32266
2.71436 -1.17865 -1.20276
1.43046 -0.0908491 -0.892763
-1.62994 0.152651 -0.922004
-1.60374 0.15605 -0.908414
-0.951343 -0.0426495 -0.898604
-1.63584 0.150551 -0.889603
2.94636 -1.25165 -0.885374
-1.61054 0.157951 -0.858353
-0.533543 -0.155949 -0.847904
-0.379543 -0.199549 -0.808493
-1.83144 0.248151 -0.630394
-1.48084 0.146451 -0.609134
-2.29514 0.413851 -0.576944
-2.30304 0.413851 -0.557764
-2.22444 0.382651 -0.544534
-1.23044 0.0470513 -0.550284
-2.26404 0.386451 -0.510984
-1.68194 0.223551 -0.359484
-1.51764 0.16155 -0.297344
-2.41854 0.44815 -0.245324
-0.769943 -0.0897495 -0.211804
1.48746 -0.275749 -0.0715338
-1.71984 0.22405 -0.0155438
-1.45254 0.127551 0.0107063
-1.81154 0.237751 0.0262562
-1.43654 0.12295 0.0334462
-1.05454 0.0144509 0.0781263
0.498358 -0.166249 0.142416
-1.08374 0.0192507 0.108156
0.234056 -0.0804493 0.309516
-0.583143 -0.132349 0.316386
-1.61154 0.18135 0.330656
-1.41664 0.11185 0.353016
-1.95514 0.287651 0.396826
-2.06314 0.336651 0.428606
-1.39184 0.11945 0.523836
0.739958 -0.0274489 0.614836
1.88446 -0.374849 0.615816
-2.54734 0.47825 0.580947
-1.94744 0.279451 0.635287
0.108356 -0.0618488 0.682024
-2.27174 0.393451 0.660331
2.43876 -0.770049 0.697199
1.20686 -0.167249 0.794618
-1.21094 0.0652512 0.79226
0.293556 -0.120449 0.878437
-1.44044 0.133951 0.852373
0.817356 -0.0659496 0.906925
1.93746 -0.410549 0.912055
1.87776 -0.395549 0.91676
0.794857 -0.0638496 0.917832
-0.169243 0.0629509 0.908904
-2.21464 0.372851 0.898846
-2.09954 0.343651 0.98596
1.35416 -0.26825 1.06769
1.38666 -0.28365 1.07866
0.196657 0.0361508 1.20476
1.36936 -0.019849 1.22669
-1.59374 0.19105 1.23172
-0.521843 0.189351 1.25269
-0.399742 0.0978505 1.33133
-1.22354 0.0642508 1.34689
-2.42084 0.444851 1.35582
1.20486 -0.0523493 1.44237
2.00376 -0.448549 1.46751
1.13626 -0.103349 1.48655
0.821257 -0.0793487 1.61298
-2.07544 0.346751 1.68178
-1.35314 0.118251 1.91732
-1.78224 0.23535 1.94934
-1.88764 0.285351 1.95348
-1.28044 0.0821513 1.96176
1.40126 0.0573509 1.9544
-2.02474 0.330651 1.98724
-0.573942 0.675251 1.98098
-0.721743 0.728151 2.00736
1.42126 0.0413512 2.03339
0.799856 0.235651 2.03303
-2.65904 0.532851 2.0827
0.205757 0.41715 2.06354
-2.20644 0.391551 2.11241
-2.39024 0.43485 2.14255
-2.49324 0.477851 2.1466
-0.216843 0.56745 2.14778
1.82216 -0.074649 2.16224
1.19976 0.122051 2.16395
-0.631243 0.696851 2.16134
-0.00894366 0.498251 2.16393
-0.0446435 0.510951 2.16409
-2.11174 0.366351 2.3105
-1.85174 0.266651 2.33038
-1.84514 0.273651 2.36413
0.911358 0.326351 2.32954
-2.17524 0.38765 2.53566
-2.01824 0.338851 2.55552
-2.04704 0.346451 2.55732
-1.65574 0.194251 2.57471
-1.91384 0.29015 2.59144
-2.35554 0.424651 2.6335
-2.08844 0.353751 2.72243
-0.368242 0.635851 2.7203
-1.49194 0.15455 2.9021
1.42556 1.87422 2.5882
1.51256 1.83912 2.60876
1.54436 1.83523 2.61472
2.02166 1.68359 2.70061
1.60136 1.82105 2.72971
1.17536 1.94463 2.74503
-1.38444 0.246951 3.1698
2.15186 1.64624 2.78949
1.53366 1.83817 2.80198
1.14046 1.96659 2.80618
1.94896 1.71036 2.81963
1.18296 1.95104 2.82792
1.95816 1.70985 2.91043
1.61626 1.81405 2.91593
1.62936 1.81027 2.93334
1.54996 1.83053 2.94945
1.58436 1.81659 2.95029
1.56956 1.8246 2.95349
1.06116 2.06264 3.12598
2.09416 1.75773 3.32049
2.01836 1.78577 3.31953
0.944157 0.0977504 -0.600674
2.00316 -0.20705 -0.556844
1.96396 -0.22315 -0.437704
1.94206 -0.22955 -0.415664
1.86636 -0.256549 -0.369624
1.12776 -0.167549 -0.182024
-2.00924 0.315151 -0.244324
1.45346 -0.256549 -0.0734838
-2.26294 0.40665 0.0951763
-0.653843 -0.110049 0.275956
-1.13694 0.0428503 0.326706
1.15656 -0.233249 0.411216
-1.43334 0.123151 0.369056
-1.99344 0.304751 0.377086
-0.829344 -0.0534489 0.408126
-1.95154 0.290251 0.423536
-0.209543 0.185651 0.511357
-2.46364 0.468851 0.630476
-1.52324 0.145651 0.635247
-1.97744 0.286851 0.644897
0.118557 -0.0665494 0.709801
-2.28464 0.399251 0.750848
-2.25194 0.392451 0.768278
-1.70424 0.19055 0.770572
-0.197043 0.117651 0.838303
-0.00324259 -0.024049 0.843698
-0.0131436 -0.0337488 0.878673
0.747057 -0.0659496 0.954981
2.45476 -0.766349 1.02566
-2.16894 0.360651 1.01044
0.865957 -0.0917493 1.05388
1.39306 -0.27805 1.05322
1.81846 -0.380449 1.17562
0.0416566 -0.0251496 1.1965
-0.0949421 -0.00654902 1.25008
-0.0668432 -0.00854888 1.2675
-1.57244 0.185851 1.27574
-2.37144 0.420151 1.39637
0.949356 -0.12215 1.43766
1.34216 -0.0625488 1.44093
0.820856 -0.0765487 1.46322
1.09166 -0.114249 1.48738
1.29326 -0.0658494 1.49987
-1.98154 0.309351 1.54237
-0.512644 0.335251 1.56123
2.07856 -0.473049 1.63652
-2.07094 0.343151 1.63437
-2.28554 0.401551 1.6647
-1.31314 0.0943505 1.71246
0.574158 0.0157507 1.75024
-0.723143 0.488751 1.76575
-1.36024 0.0985505 1.85653
-1.75284 0.22825 1.92711
-0.724043 0.728251 2.00788
-2.26044 0.423651 2.11062
-2.06344 0.33575 2.1332
1.16436 0.13295 2.14966
-2.15104 0.375651 2.3119
-2.00724 0.326951 2.32086
-2.13374 0.37435 2.37474
-2.48374 0.480751 2.58191
-2.20934 0.409351 2.57862
-1.75044 0.224551 2.60627
-1.96964 0.318051 2.73635
-2.12394 0.351751 2.84883
2.24816 1.6133 2.57985
1.40736 1.87514 2.59198
-0.414143 0.644451 2.95415
-0.329943 0.623051 2.95252
1.15806 1.95681 2.74994
-1.41354 0.256751 3.16652
1.83166 1.75045 2.79295
-1.58144 0.34205 3.2065
-1.67614 0.371251 3.21823
1.97246 1.70636 2.9289
-0.681744 0.829851 3.23714
1.95326 1.70939 2.93197
1.83186 1.84199 3.31726
2.76226 -1.19115 -1.19339
-1.46854 0.14195 -0.790403
-0.404642 -0.191849 -0.773864
1.90116 -0.168749 -0.574844
0.145657 0.227351 -0.491054
0.0948562 0.288351 -0.475084
-1.85484 0.263651 -0.593084
2.09256 -0.279949 -0.417324
-1.17554 0.037051 -0.537884
1.91406 -0.231249 -0.369284
0.0645562 0.161151 -0.290044
0.241957 -0.0192492 -0.196184
1.24746 -0.204649 -0.0280439
-1.61544 0.178151 0.0366563
-0.560642 -0.140149 0.329986
-1.95434 0.293051 0.386466
0.908857 -0.0944492 0.66731
0.741158 -0.0472491 0.691653
1.85756 -0.39035 0.695939
-2.17204 0.352251 0.775718
-2.21804 0.374651 0.78467
2.42146 -0.745849 1.04152
0.193457 -0.031049 1.058
1.94206 -0.418149 1.06812
0.243656 -0.0716487 1.06453
0.308657 -0.101849 1.09323
0.659557 -0.0276491 1.18724
1.93326 -0.43525 1.19064
-1.28524 0.0802506 1.17962
2.35426 -0.752149 1.20688
0.701656 -0.0416491 1.23143
1.82396 -0.389749 1.23957
0.735358 -0.0523493 1.28063
1.50406 0.0348509 1.35084
-1.14634 0.0553511 1.31606
1.93866 -0.421649 1.34503
1.44766 -0.0741493 1.45412
-1.79914 0.247851 1.60641
-2.04014 0.332451 1.695
-1.38034 0.10695 1.8177
-1.76134 0.23245 2.11884
-1.87334 0.280551 2.14749
-2.30464 0.41515 2.1671
1.26896 0.102151 2.1755
-0.178343 0.555151 2.17495
-1.88604 0.294651 2.3239
-1.70884 0.230051 2.34867
-1.96564 0.31675 2.41747
-2.32994 0.430851 2.42632
-2.28184 0.419151 2.58016
-2.27304 0.406251 2.62016
-1.85364 0.281351 2.7704
1.57436 1.82134 2.61337
-1.40504 0.144351 3.06712
-0.480244 0.685351 3.04831
1.09706 2.0091 3.03749
1.14756 2.08046 3.11167
2.55676 -0.36655 -1.22723
2.01456 -0.27315 -0.873434
0.484957 0.0310505 -0.628474
-2.38874 0.430051 -0.743703
1.99456 -0.26255 -0.415714
1.68976 -0.327649 -0.263894
-0.348343 -0.215849 0.00142636
-1.54134 0.144951 0.0328063
1.20796 -0.22955 0.399886
-0.867542 -0.0423491 0.405646
1.28796 -0.23665 0.598976
1.98976 -0.408349 0.648057
1.78676 -0.364849 0.649987
-2.21204 0.37235 0.657883
0.215258 -0.0874492 0.849174
0.262857 -0.10315 0.863302
-1.17584 0.0511511 0.959649
0.667357 -0.0280497 1.15379
2.30506 -0.739949 1.19922
-1.60044 0.19405 1.4037
-1.91084 0.279451 1.46639
1.86326 -0.40025 1.60909
-0.144343 0.529651 1.99793
-0.225144 0.570451 2.03493
-0.250443 0.572451 2.1057
0.395456 0.36395 2.15843
-0.459744 0.661051 2.54427
-2.36534 0.43755 2.6204
-0.410744 0.653651 2.72755
-0.539944 0.686951 2.90691
2.99836 -1.26565 -1.21821
0.800858 0.0982511 -0.868034
1.83446 -0.140649 -0.632654
0.912657 0.0785511 -0.509884
1.97136 -0.214349 -0.495034
0.208357 0.0942504 -0.256244
1.64286 -0.339349 -0.157214
-0.348843 -0.215049 -0.209614
2.41216 -0.77175 0.638877
-1.36054 0.109951 0.920921
0.829956 -0.0729496 1.14863
2.02366 -0.452049 1.15469
1.36146 0.0565508 1.38308
0.939556 0.0778511 1.85785
-1.27954 0.0966508 1.91436
-0.681044 0.722551 2.23068
-2.29094 0.423351 2.34956
-1.54144 0.167651 2.56444
-0.461542 0.669451 2.5028
-0.634844 0.735651 2.87564
1.62726 1.80417 2.80494
3.43166 -1.43525 -1.61602
-1.45444 0.15595 0.841621
-0.348744 0.596551 2.07004
-1.94214 0.302551 2.37617
-0.383444 0.646651 2.67343
1.56666 1.82463 2.72364
1.31606 -0.230649 -0.387354
0.190058 0.0974509 -0.329574
1.38196 -0.233149 -0.291524
2.61746 -0.657149 0.111756
-1.43534 0.128851 2.03601
1.50526 1.84981 2.76274
0.996857 1.93879 2.89584
1.59456 1.82666 2.92519
1.66446 -0.308349 -0.0656038
0.130257 0.0980508 0.0862862
-1.19154 0.0771511 1.1211
-1.36094 0.10905 1.22545
-1.52034 0.168851 1.63621
-0.726544 0.790881 3.08137
1.15706 -0.0713493 -0.0814238
1.04286 -0.00474944 0.0634161
1.14986 -0.279749 1.03271
0.892758 1.87975 3.04427
1.43046 -0.176649 1.53223
-2.39824 0.444251 -0.482944
-2.55854 0.47065 0.401576
-1.97494 0.298351 -0.226614
-1.45584 0.121151 -0.894294
-1.80194 0.236951 -0.191004
-1.23454 0.0565508 -0.740664
-1.62114 0.184251 -0.208474
-2.19374 0.36315 0.657948
-1.93814 0.285751 0.367996
-2.53704 0.492451 1.53081
-0.871943 -0.061249 -0.612494
-0.867643 -0.0644495 -0.596753
-0.861643 -0.0728494 -0.569364
-0.593943 -0.148449 -0.887663
-2.58854 0.514351 1.96894
-2.28404 0.404051 1.70384
-1.41894 0.118251 0.588927
-2.26394 0.400751 1.7433
-1.85284 0.262551 1.25803
-0.0122434 -0.329849 -1.18863
0.00235744 -0.325149 -1.18025
-0.759144 -0.0903493 -0.163574
-0.748543 -0.0969488 -0.158514
-0.00994311 -0.323149 -1.11925
-1.97204 0.303651 2.09709
-0.642643 -0.121549 0.355606
-0.339144 -0.20785 0.0326563
-1.85534 0.27815 2.31401
-1.34114 0.107851 1.68358
0.304558 -0.0719491 -0.186664
-0.154343 0.0713509 0.808351
-1.64974 0.201951 2.55568
-0.235644 0.0994508 1.02317
0.233257 0.0205506 1.16452
0.219156 0.0249508 1.18523
2.05296 -0.24285 -0.527524
-0.419743 0.650551 2.8142
-0.317843 0.619451 2.73126
1.38556 -0.210949 0.361876
1.14836 -0.16845 0.660652
1.48246 -0.244649 0.280106
1.31786 -0.093649 0.760373
1.34576 -0.0931493 0.780683
1.33116 -0.083049 0.832252
1.34136 -0.0839492 0.83834
1.34846 -0.0861494 0.847204
1.34036 -0.0880491 0.87989
1.35476 -0.0870496 0.880877
1.44286 -0.311549 0.735362
1.48896 -0.307249 0.782852
-0.273943 0.809681 3.32704
1.46576 -0.159649 0.910987
1.50146 -0.27725 0.848056
1.53896 -0.276249 0.861521
1.39876 -0.0186493 1.18758
2.41266 -0.732549 -0.148574
2.41736 -0.736849 0.0399863
2.44846 -0.73305 0.0372862
2.41886 -0.737449 0.0720261
2.43576 -0.732049 0.0553862
2.43546 -0.734849 0.0730463
2.41866 -0.737749 0.111786
2.43466 -0.733849 0.111246
2.41736 -0.739049 0.248756
1.30646 0.0811509 2.14665
1.17156 2.04236 3.08833
2.21116 -0.716349 1.11952
2.39476 -0.77245 0.914942
-2.38114 0.424851 -0.669214
-2.14524 0.343351 -0.912584
-2.59164 0.496151 -0.191134
-1.71354 0.21845 -0.392774
-2.28784 0.402051 0.451236
-1.60004 0.17915 -0.218594
-1.71684 0.221851 0.161966
-1.92744 0.28665 0.454776
-1.08964 0.0182513 -0.494674
-2.60794 0.510951 1.60314
-1.13794 0.0282505 -0.369574
-0.546444 -0.157749 -1.16675
-1.11774 0.0218504 -0.391084
-1.61424 0.181851 0.329316
-0.872442 -0.0643493 -0.632634
-0.744642 -0.0911495 -0.765184
-0.951443 -0.0297491 -0.481404
-0.755043 -0.0946494 -0.738944
-2.37034 0.433951 1.45975
-0.835743 -0.070449 -0.605964
-0.769043 -0.0895492 -0.214174
-0.0345422 -0.306349 -1.09161
-0.0359422 -0.308849 -1.04659
-2.03754 0.336251 1.75896
-2.57014 0.512251 2.56022
-1.24044 0.0696505 0.784773
-2.27424 0.411951 2.20586
-2.07194 0.35745 1.96773
-0.612744 -0.13395 0.158056
-1.75914 0.22965 1.7834
-0.664244 -0.114149 0.353636
-0.604544 -0.13605 0.326096
-1.17474 0.0663508 1.3232
0.701058 0.169051 -0.568634
-2.06744 0.353651 2.55577
-1.88044 0.280651 2.35311
0.309957 -0.0780488 -0.171374
-1.94394 0.305951 2.57794
-2.15384 0.360751 2.87986
-0.00274287 0.014551 0.363996
0.0351564 0.0118511 0.320826
-1.63214 0.19605 2.32241
0.780358 0.143651 -0.320254
1.20306 -0.0204489 -0.897214
-1.40254 0.12015 2.10759
-1.38544 0.103551 2.10496
-1.50274 0.16855 2.41347
-0.622643 0.373251 1.59534
-0.394444 0.142251 1.19258
-0.364243 0.131251 1.17088
-0.390343 0.13345 1.20774
-1.73464 0.225751 2.77052
-0.695143 0.715451 1.98139
-0.327944 0.114151 1.16201
0.0824566 -0.0506489 0.667184
-1.44484 0.143751 2.49661
-0.240744 0.0506504 1.575
0.223658 0.0389508 1.14283
0.230158 0.0244511 1.12962
0.221157 -0.095049 1.45799
0.262157 -0.112049 1.42908
0.810257 -0.0636493 0.889465
-0.429543 0.657451 2.73511
1.87226 -0.211649 -0.250884
1.32576 -0.211449 0.374466
2.17826 -0.267349 -0.601914
1.46766 -0.23875 0.279236
2.09686 -0.285349 -0.435324
-0.325644 0.619551 2.79978
-0.342743 0.629851 2.82852
-0.312643 0.611551 2.7961
0.171658 0.43615 2.19893
-0.333544 0.625651 2.92537
-0.313744 0.617751 2.90645
0.959557 -0.120649 1.12339
0.614857 0.0621508 1.75241
0.570057 0.16085 1.87382
0.487158 0.34415 2.15833
0.490156 0.33925 2.1721
1.09406 -0.116049 1.46088
0.801857 0.23955 2.00696
1.24666 -0.0234492 1.40536
3.06336 -1.28405 -1.24927
0.762057 1.81427 2.82678
1.26656 -0.0428488 1.463
0.916157 0.199051 2.01782
2.43526 -0.731449 -0.129694
3.09866 -1.29775 -1.08988
1.42616 0.0402506 1.42789
1.39136 -0.0878488 1.46132
1.82886 -0.387749 0.865686
2.41736 -0.73805 0.0911661
2.41846 -0.74145 0.266446
2.43616 -0.739949 0.263626
1.52876 1.83894 2.61078
1.53376 1.84361 2.71001
1.40376 1.87557 2.95592
1.59956 1.81941 2.72956
1.83366 1.74953 2.79185
2.35156 1.58112 2.59629
-2.39064 0.426551 -0.861484
-2.27574 0.404151 -0.550264
-1.97534 0.306751 -0.435824
-2.07534 0.33645 -0.183934
-2.59224 0.49725 0.607677
-1.22224 0.0557507 -0.717264
-1.51384 0.14555 -0.0420739
-1.52894 0.144551 0.0400063
-1.12294 0.0230511 -0.349834
-0.819643 -0.077449 -0.713254
-0.538843 -0.151449 -1.06894
-2.35954 0.423251 1.41749
-1.73634 0.223151 0.677469
-0.810944 -0.0671493 -0.519114
-2.69924 0.54645 2.11714
-2.26444 0.398751 1.77445
-0.0079423 -0.323549 -1.20541
-1.62464 0.197851 1.24302
-0.642643 -0.125449 0.0692762
-1.52324 0.168151 1.31844
-0.615643 -0.140749 0.121266
-1.59104 0.17575 1.57837
-1.13584 0.0219506 0.967909
-1.13284 0.021551 0.986448
-1.14894 0.0553511 1.19808
-1.34454 0.114151 1.509
0.736857 0.179451 -0.610803
-1.38364 0.123151 1.74203
-1.79744 0.25015 2.34861
0.811358 0.149151 -0.310174
-1.28884 0.0966508 2.07077
-1.73094 0.221651 2.67094
0.367857 -0.126649 0.298196
1.83316 -0.026849 -1.15049
-1.82554 0.405151 3.18763
0.230658 -0.0998489 0.861737
-0.317043 0.598151 2.01828
1.06106 -0.140049 0.151656
1.84756 -0.168149 -0.566514
0.474157 -0.175349 1.03829
0.790056 -0.0710489 0.831267
0.686457 -0.0323488 1.16295
2.07216 -0.26755 -0.504644
-0.376143 0.634651 2.76091
-0.409643 0.650051 2.95229
-0.320543 0.621051 2.92789
1.20456 -0.17905 0.790771
2.66506 -1.15695 -1.21617
2.87576 -1.21905 -1.37671
3.16786 -1.31615 -1.52755
1.36436 -0.271549 1.09387
3.24886 -1.32995 -1.52143
3.12376 -1.29255 -1.21977
1.29956 -0.0524494 1.47841
3.26476 -1.34065 -1.23917
1.76406 -0.260349 1.39154
1.44266 1.87197 2.59508
1.54556 1.83395 2.61178
1.57776 1.8176 2.58663
1.54986 1.83657 2.71926
1.54646 1.83865 2.80902
1.94956 1.70813 2.62067
1.96366 1.70672 2.78794
2.25876 1.62185 2.59347
-2.00754 0.312951 -0.246514
-0.602843 -0.14665 -0.953704
-0.815943 -0.0798494 -0.611074
-0.0434438 -0.305049 -1.19907
-2.01664 0.323951 1.67109
-0.0325433 -0.32085 -0.917474
-1.45754 0.137451 1.01324
0.0840569 -0.36165 -0.883304
-2.06164 0.35265 2.01681
-0.634844 -0.125749 0.219286
-2.35934 0.425351 2.63505
-1.30504 0.10615 1.28801
-0.547543 0.505951 0.828447
-1.17084 0.040551 1.33888
-1.65684 0.209951 2.22345
0.841757 0.122051 -0.514404
0.942658 0.0968511 -0.599624
-1.32354 0.0967509 1.86476
0.770258 0.115451 -0.382174
0.794457 0.169551 -0.296804
-0.642544 0.38275 1.61737
-1.40504 0.144451 2.54334
0.677656 0.153551 0.337156
1.14126 -0.166849 -0.241334
-1.61854 0.341051 3.18464
-1.58794 0.338751 3.20685
-1.38964 0.12785 2.96183
-0.226942 0.56325 2.09887
0.316757 -0.100149 1.12347
1.75186 -0.347149 -0.370424
1.93666 -0.22325 -0.413254
2.02456 -0.215649 -0.514974
0.391657 -0.14735 1.50759
-0.481844 0.680451 3.04612
0.475157 1.66109 2.8803
1.01606 -0.137149 1.50261
1.86276 -0.35805 0.595387
0.899258 1.88016 2.85505
1.98556 -0.430749 1.08067
1.66206 -0.0372488 2.17575
-2.43504 0.44605 -0.225734
-1.81704 0.249751 0.0056661
-1.77584 0.249551 -0.00268373
-2.17784 0.352351 0.77619
-2.37934 0.43685 1.78077
-1.39614 0.11325 0.565646
-2.30414 0.41515 2.17772
-1.22044 0.0684508 0.850396
-1.52184 0.17085 1.33806
-2.38074 0.43615 2.59886
-1.75484 0.220751 1.92355
-1.96884 0.315951 2.73468
-1.46404 0.144251 2.49748
-1.47644 0.152651 2.53982
-1.43114 0.138951 2.50297
0.639757 0.132451 0.334026
1.66696 -0.177949 -0.869864
1.23296 -0.203049 -0.00625382
2.36366 -0.304449 -1.16832
1.90546 -0.201249 -0.483634
-0.543944 0.690751 2.90603
2.04666 -0.263349 -0.413624
2.09776 -0.289449 -0.428634
1.76226 -0.22035 0.366086
0.825857 -0.0855495 1.6224
1.18116 -0.058449 1.44983
1.41636 -0.012149 1.20007
0.944656 1.90187 2.85052
1.86086 -0.397049 1.36424
1.94786 -0.435149 1.61647
-1.39944 0.118651 0.608106
0.110456 0.16785 -0.462384
-0.628643 -0.120249 0.314456
0.957758 0.0638512 -0.439584
-1.45364 0.15325 2.26961
-1.52544 0.16575 2.60099
0.463257 -0.144449 0.732542
0.792057 -0.0495493 0.673508
0.228657 -0.0652496 1.3045
-0.453944 0.660551 2.54295
-0.750643 0.771971 3.00514
-0.568943 0.698951 2.86628
2.55296 -0.365249 -1.22346
-0.576544 0.697651 2.90964
-0.410744 0.652651 2.72082
0.663857 -0.0251496 1.1573
1.05406 -0.085149 1.55475
1.78436 -0.365449 0.653126
3.10856 -1.29865 -1.24383
0.999457 -0.0467493 1.74608
2.68976 -0.574749 -0.422644
1.42006 0.0245512 1.39153
2.02246 -0.43395 0.703228
1.78376 -0.37075 1.15985
-2.34094 0.422451 -0.262694
-1.49034 0.148051 1.04171
0.160957 0.11815 -0.258814
0.486656 0.0280512 -0.622364
-0.572844 0.293351 0.992856
-1.72244 0.221851 2.60678
1.90836 -0.210449 -0.489204
1.36016 -0.227249 0.331146
1.40486 -0.245249 0.275736
0.585558 0.159251 1.9383
1.38666 0.0139511 1.29443
-2.14664 0.370451 -0.609024
-2.46474 0.436751 0.354886
-1.43444 0.13205 2.04001
-0.599043 0.362051 1.6032
2.41256 -0.271149 -1.20441
1.96906 -0.20995 -0.519304
1.26056 -0.364849 0.211826
-0.389843 0.647551 2.6729
1.39246 -0.250449 0.586117
1.70556 -0.351349 0.210646
1.51506 1.8382 2.75994
-1.32684 0.0997502 1.21815
-0.0291425 0.158351 0.233216
-0.345343 0.586451 2.08102
-0.700144 0.743351 2.82287
2.37356 -0.748249 0.396246
-1.21374 0.0825508 1.24553
-0.407343 0.308751 0.994321
-0.611744 0.394351 1.50196
-0.654444 0.38985 1.62707
2.15966 1.86702 3.3003
0.134857 -0.0235493 1.28385
-0.710842 0.766481 2.92538
0.865057 -0.0206492 0.168726
2.02956 -0.248649 -0.268914
1.99946 -0.27735 0.0296162
1.13756 1.97244 2.60424
0.988756 1.99022 3.03276
1.38836 -0.118949 1.54488
-2.00324 0.476651 3.29903
-2.57204 0.489351 0.583657
-2.28524 0.402951 1.70216
-2.26254 0.402851 1.74517
-2.04824 0.34835 1.90983
-1.85434 0.276451 1.66661
-1.76984 0.246751 1.64514
-2.10714 0.35465 -0.188364
-2.10744 0.35395 -0.203294
-1.93834 0.289951 0.367526
-1.98634 0.305651 -0.224414
-1.97424 0.299151 -0.226834
-1.80474 0.23825 -0.190124
-1.37304 0.122051 1.74983
-1.57144 0.17225 0.0399061
-1.60364 0.179651 -0.219904
-1.59414 0.159051 -0.932094
-1.52044 0.157251 -0.941913
-1.44714 0.112651 -0.901324
-0.831543 -0.0654489 0.377416
-0.958544 -0.0266497 -0.431124
-0.951143 -0.0304491 -0.463604
0.0641576 0.472451 2.14702
1.17086 2.04266 3.088
-0.827143 -0.0548489 -0.395074
-0.779944 -0.083749 -0.152874
-0.970943 -0.0256493 -1.08712
-0.873142 -0.0614492 -0.612864
-0.864443 -0.0757495 -0.570444
-0.774344 -0.0722496 -1.06435
-0.202442 0.0877512 0.958576
-0.689244 -0.111049 -0.742144
-0.157143 0.0680512 0.806428
-0.150244 0.0709504 0.752244
-0.150044 0.0688504 0.735002
1.54196 1.94825 3.32961
0.146557 0.0367506 1.20368
0.200756 0.0306509 1.14035
0.00915726 0.0126503 0.351266
-0.387342 -0.198849 -1.01296
0.231558 0.0213507 1.16355
0.175756 -0.0783493 0.761806
0.178457 -0.0274489 0.280026
0.241457 -0.0464489 0.103036
-0.0156423 -0.330149 -0.923684
-0.0415422 -0.335049 -1.22098
0.00155636 -0.325449 -1.17741
2.06956 2.12914 3.33321
0.772457 0.152651 -0.567924
1.37156 -0.0106489 1.21638
1.34416 -0.0846492 0.863925
1.35326 -0.0880491 0.881627
1.32856 -0.0905496 0.780842
1.34686 -0.0834495 0.848009
1.35566 -0.0876495 0.867213
1.43246 -0.138349 0.929724
1.35696 -0.214249 0.380096
1.42536 -0.307249 0.745485
1.47896 -0.291849 0.816281
1.20156 -0.018449 -0.898154
1.71136 -0.208949 1.44652
2.04006 -0.151149 2.19551
1.90896 -0.18455 -0.516414
2.41626 -0.738549 1.04915
2.24656 -0.655349 0.133996
2.41546 -0.74085 0.246076
2.41646 -0.738149 0.109916
2.41706 -0.73795 0.0703763
2.41526 -0.736849 0.0378162
2.43346 -0.734249 0.110916
2.43516 -0.733349 0.0554062
2.63816 -1.14695 -1.25632
2.92486 -1.23485 -1.2397
2.90276 -1.21805 -1.47199
3.09786 -1.28295 -1.47458
-2.67854 0.537051 2.51255
-2.56144 0.477951 0.582657
-2.08244 0.35195 2.67934
-2.36304 0.422451 1.41672
-1.94364 0.30915 2.5771
-2.04874 0.350051 1.88243
-2.00904 0.298351 2.10755
-2.40404 0.447651 0.195696
-2.43354 0.464151 -0.269694
-2.38094 0.428351 -0.669044
-1.85624 0.286051 1.64944
-1.64924 0.198351 2.3198
-2.04354 0.330651 0.424006
-1.82484 0.257551 1.25831
-1.84634 0.26125 1.0479
-2.09324 0.349551 -0.182904
-1.50244 0.16925 2.41362
-1.58584 0.178751 1.48327
-1.64014 0.200551 0.974321
-1.38574 0.10695 2.10378
-1.29704 0.0958507 2.07488
-1.82194 0.24805 -0.548314
-1.71234 0.22405 -0.398374
-1.25734 0.0774506 1.34608
-1.24204 0.0734509 0.784943
-0.334143 0.626451 2.9226
-0.341543 0.630651 2.82648
-0.314343 0.612951 2.79748
-0.317543 0.620251 2.7321
-1.13534 0.0260504 0.968661
-0.434544 0.631151 2.034
-1.02654 -0.00364889 0.332926
-0.496544 0.33505 1.60094
-1.12354 0.0237511 -0.348424
0.707857 1.78579 2.70291
-1.11574 0.0228508 -0.441614
-0.991543 -0.012149 -0.232264
1.11966 2.06457 3.32039
1.08386 2.0739 3.13701
-0.956043 -0.031049 -0.450074
-0.961042 -0.0416491 -0.904334
-0.859444 -0.0715496 -0.629593
-0.669743 -0.113949 0.0629562
-0.602343 -0.133049 0.324746
0.171257 0.439151 2.19645
1.18616 1.94671 2.79861
-0.741244 -0.0921489 -0.784104
-0.181044 0.0744503 0.949877
-0.160744 0.0651511 0.883696
-0.154244 0.0681504 0.78667
-0.177843 0.10535 0.560716
-0.485743 -0.178549 -0.206174
-0.372143 -0.203249 0.0695962
-0.574642 -0.158849 -1.03209
0.426157 0.359051 2.04005
1.54616 1.9583 3.33895
0.259857 -0.111149 1.43027
0.565058 0.153351 1.87491
1.51476 1.84294 2.61015
1.54196 1.83394 2.61271
1.61516 1.80829 2.93148
0.818857 0.231551 2.04669
0.692257 -0.0390494 0.909159
0.713057 -0.0490496 0.94426
0.441057 -0.110249 -0.309524
1.93236 1.71454 2.80355
0.705557 0.164051 -0.538104
1.30366 0.082651 2.14775
1.09566 -0.118349 1.46166
1.39126 -0.26825 1.05248
1.30706 -0.20985 0.373636
1.34156 -0.214349 0.360426
2.35016 1.58008 2.59604
1.43156 -0.308149 0.723745
2.04946 -0.151349 2.03489
2.07206 -0.155449 2.03534
1.83446 -0.382249 0.691614
1.84216 -0.167249 -0.594604
2.21046 -0.714449 1.11844
1.89226 -0.23585 -0.895484
2.42446 -0.713249 1.07072
2.16496 -0.253549 -0.589184
2.40106 -0.74505 0.297116
2.42006 -0.744849 0.284036
2.41716 -0.74085 0.264726
2.41626 -0.73795 0.0892762
2.45216 -0.740449 0.249076
2.43356 -0.733949 0.0918962
2.43376 -0.73025 -0.129284
2.62216 -0.634649 -0.270834
3.21356 -1.35705 -1.25798
-2.65494 0.529651 2.50267
-2.36534 0.434951 2.58615
-2.26314 0.41935 1.90464
-2.58394 0.494951 0.365786
-2.28274 0.40535 1.72145
-2.61294 0.511051 -0.696814
-2.22044 0.368251 0.923631
-1.75614 0.229351 2.57277
-2.01494 0.299551 1.39399
-2.13884 0.34485 0.734126
-2.14924 0.34695 0.688653
-1.35664 0.245351 3.18233
-1.95744 0.287651 0.422586
-1.63384 0.196551 0.306446
-1.83054 0.248351 -0.630134
-1.71254 0.225051 -0.371934
-0.406544 0.650751 2.95251
-0.347544 0.633151 2.9336
-1.11444 0.0200508 0.0770763
-0.209244 0.564051 2.13069
-0.110043 0.52885 2.16935
0.0149575 0.484451 2.22409
-0.887243 -0.0483496 -0.632124
-0.646143 -0.120249 0.230026
-0.626944 -0.135149 0.0904661
1.30556 1.91215 2.78232
-0.0912437 0.0336512 0.444216
0.484358 0.344451 2.15443
0.582457 0.31045 2.15027
1.42156 1.87627 2.58492
0.106157 -0.0543492 0.675773
1.52286 1.84441 2.69422
0.441557 -0.15795 1.23935
0.472757 -0.173949 0.724863
0.371456 -0.12555 -0.0648037
0.788258 -0.0743495 0.828209
1.95356 1.71157 2.90762
1.96506 1.71027 2.815
1.94936 1.70732 2.61955
1.09336 -0.13045 1.48523
0.811657 0.153051 -0.303204
1.13836 -0.0984489 1.48511
1.16626 -0.0670492 1.4468
0.869658 0.14195 -0.557034
1.26706 -0.035249 1.46037
1.32146 0.0132511 1.36915
1.20306 -0.174449 0.790754
1.66106 -0.0316488 2.04011
1.28946 -0.366149 0.217066
1.92496 -0.417249 1.48742
1.90026 -0.399749 0.788226
2.07836 -0.47325 1.36127
1.87176 -0.207949 -0.245954
1.93346 -0.204449 -0.328964
1.92696 -0.19865 -0.503034
2.24506 -0.716349 1.25432
2.04006 -0.22395 -0.537444
2.93926 -1.23565 -1.36743
3.16016 -1.31515 -1.54676
3.25176 -1.33455 -1.49059
-2.35894 0.42635 2.63415
-2.22824 0.396451 1.66899
-2.10904 0.35405 1.61455
-2.41124 0.452851 0.164476
-2.24294 0.372551 0.921154
-2.26584 0.403051 0.227126
-1.38634 0.13135 2.96253
-1.43614 0.140451 2.50191
-1.99494 0.318651 -0.245634
-0.757643 0.770431 3.03999
-1.52124 0.166151 1.33841
-1.35814 0.102951 1.85985
-1.66814 0.19965 0.164496
-1.67024 0.204251 0.0758761
-1.50514 0.14695 0.816697
-1.27454 0.074251 1.82692
-1.70944 0.223051 -0.302724
-1.71354 0.22335 -0.409944
-1.42134 0.124251 0.921373
-1.39334 0.12305 0.439636
-1.50094 0.13695 -0.171884
-1.15904 0.0610512 1.16522
-1.09754 0.0279511 -0.272114
-0.939842 -0.0280497 -0.952004
-0.590344 -0.132149 0.302176
0.134657 0.0458506 0.161786
1.54516 1.83604 2.74923
0.0907573 0.156551 -0.238124
0.230057 -0.0968496 0.710701
0.292856 -0.11515 0.839771
0.648157 0.138151 0.367786
0.791157 0.16245 -0.295964
1.31906 -0.059149 1.4709
1.36736 -0.0758487 1.46549
1.78346 -0.369549 0.682034
1.82796 -0.387249 0.728815
1.79396 -0.201149 0.362156
1.88606 -0.375249 0.616906
1.99196 -0.435449 0.905776
1.91096 -0.19445 -0.328354
1.95376 -0.231949 -0.503374
2.17036 -0.296649 -0.764134
3.46236 -1.40445 -1.84886
-2.37124 0.444251 2.42221
-2.69064 0.528451 0.534887
-2.19654 0.39265 2.26531
-1.61634 0.347551 3.21332
-2.37264 0.425451 -0.688064
-1.77014 0.249551 1.86948
-1.41594 0.255251 3.1675
-0.800143 0.867851 3.2337
-1.91544 0.28235 0.629847
-1.96254 0.292651 0.360866
-1.46404 0.142451 2.49171
-1.97644 0.316551 -0.478594
-1.52104 0.152751 1.03547
-0.607643 0.711351 2.85273
-1.29254 0.0878504 1.85555
-1.83134 0.250351 -0.727884
-0.582043 0.707951 2.63945
-1.27734 0.089051 1.30972
-1.28794 0.0968511 1.18429
-0.450043 0.666451 2.53992
-1.10604 0.0409506 1.50884
-0.621844 -0.124049 0.318356
-0.572344 -0.14465 -0.478864
0.0666562 0.15735 -0.297584
0.0824566 0.273851 -0.484804
1.57616 1.81957 2.58625
0.942757 -0.110749 0.935662
0.951058 -0.122249 0.902632
0.768057 0.109151 -0.387124
0.891657 0.110751 -0.504514
0.905857 0.12515 -0.595074
0.978058 0.0978505 -0.544114
1.82866 -0.39255 1.24352
1.81326 -0.372449 0.659023
1.81976 -0.366949 0.607267
1.66876 -0.168849 -0.864884
1.75226 -0.345649 -0.367444
2.06566 -0.45855 0.942899
1.89516 -0.189049 -0.242924
2.09196 -0.465349 0.935685
1.85346 -0.0320494 -1.13664
1.98256 -0.227749 -0.498464
2.73366 -0.533549 -0.489764
-1.84424 0.26345 1.18195
-1.29274 0.13495 3.1082
-1.41804 0.119651 1.79915
-0.654143 0.742151 2.71947
-1.27324 0.090451 1.90893
-0.578142 0.694351 2.91353
-0.546643 0.688051 2.9109
-1.02234 0.00195106 1.5027
0.452856 -0.167349 1.53052
0.946457 -0.123649 1.42922
1.44096 -0.313949 0.685784
1.33986 -0.412249 0.187826
1.57946 -0.299549 -0.227944
1.95616 -0.409749 1.45283
1.89656 -0.415249 0.818869
2.20606 -0.699849 1.48418
1.95166 -0.256649 -0.873004
3.48076 -1.41615 -1.80887
-1.54574 0.161451 2.55572
1.52006 1.84187 2.71886
0.154858 0.10185 0.126506
