-0.278556 0.485475 2.63193
0.0941436 -0.102325 0.323598
0.750144 -0.170326 0.745244
1.24424 -0.293325 -0.585972
1.70544 -0.457626 0.691707
-0.865657 0.688324 2.66337
0.587742 -0.101026 -0.0754624
0.988543 -0.199225 1.26634
0.633442 -0.071126 -0.0567124
1.19514 -0.260226 0.647415
1.00044 1.89775 2.77542
1.80844 -0.458526 -0.599172
2.29694 -0.802626 0.947257
1.60284 -0.420126 -0.472832
2.50204 -0.701226 -0.644802
-2.07906 0.219874 1.65584
-1.92336 0.169974 0.773109
-2.18646 0.258074 -0.247822
-1.42306 0.0175744 1.43973
-1.41516 0.0163747 1.42787
-1.37236 -0.000925963 1.0496
-1.29996 -0.0225258 0.528987
-1.19826 -0.0631256 0.608149
-1.20976 -0.0574255 0.557707
-1.05176 -0.104726 -0.507042
-0.950557 -0.151126 -0.981392
-0.784856 -0.192026 -1.14004
-0.448756 -0.290126 -1.00013
0.718543 0.148074 1.92428
1.03834 -0.251126 -0.0957824
0.711543 0.0176745 -1.18715
1.30024 -0.402726 -0.323452
1.83654 -0.268226 -0.535122
2.56204 -0.719026 -0.162502
-2.32166 0.319974 1.62555
-1.81116 0.125474 1.34681
-2.04136 0.202574 0.121478
-1.88526 0.152174 -0.799952
-1.87876 0.146474 -0.816702
-1.18556 -0.0694256 -0.186062
-1.29566 -0.0363255 -0.931742
-0.717357 -0.217525 -0.00144243
0.0661437 -0.162626 0.633019
0.208644 -0.069726 -0.565092
0.631743 -0.136626 0.63282
1.22964 -0.280526 1.37994
1.25324 -0.0938263 1.03426
1.47184 1.73709 2.32783
1.51944 -0.392526 -0.576702
-1.94046 0.172774 0.827865
-1.93886 0.176174 0.78311
-1.77076 0.118474 0.438984
-1.35676 0.00357442 1.02611
-1.50056 0.0309745 0.0752377
-1.15816 -0.0783262 -0.219212
-1.26736 -0.0308256 -0.961302
-1.28656 -0.0379258 -1.01746
-1.19856 -0.0749254 -0.785652
-0.542957 -0.268526 -1.16501
0.659943 -0.142226 0.691779
0.842043 -0.203226 1.1589
0.786442 -0.190326 0.924844
0.614842 -0.0903263 0.279988
0.840844 -0.200625 0.63076
0.686843 0.0620739 -0.783412
1.78334 -0.482126 0.594016
1.94294 -0.534626 0.652824
1.96014 -0.539825 0.63728
1.68574 -0.453126 -0.290122
1.66584 -0.275026 -1.1531
2.36324 -0.831026 0.229908
-2.31426 0.291074 0.597393
-2.22736 0.255775 0.496256
-1.94946 0.179374 0.866571
-2.01286 0.196274 0.416196
-1.32956 -0.029026 -0.963922
0.753743 -0.164926 0.71744
0.660742 -0.119225 0.359298
0.836543 -0.197426 0.422037
0.335643 -0.029726 -1.18288
1.28624 -0.0420256 1.05545
1.97934 -0.555726 1.36901
1.85524 -0.510926 0.787125
2.25704 1.49426 2.41438
2.56114 -0.667726 -0.817462
-2.37696 0.315274 1.43718
-2.00706 0.216374 2.13463
-2.31316 0.303974 -0.0357524
-1.89976 0.152774 -0.828832
0.383343 -0.258126 0.998109
0.904442 -0.216026 0.656788
1.71264 -0.464626 0.640304
1.67264 -0.385426 0.0235675
-0.106057 0.105475 -0.715052
0.592143 -0.123926 1.15983
2.61124 -0.777426 -0.119912
-0.813657 0.372874 0.635932
1.10094 -0.246626 0.46239
-0.803657 0.664154 2.42161
1.13134 -0.244426 1.03315
0.679944 -0.0596257 -0.346402
-1.78976 0.126274 1.34594
-1.41296 0.017974 1.43073
-2.35076 0.313574 -0.310712
-1.38056 0.0013743 1.00768
-2.09416 0.232274 -0.662842
-1.23336 -0.0524264 0.540081
-1.49546 0.0241739 0.0958076
-1.09646 -0.100326 0.369538
0.713143 1.73724 2.45989
-1.20616 -0.0671263 -0.227412
-1.17106 -0.0686255 -0.196702
-1.21396 -0.0701256 -0.766292
1.23124 -0.278426 1.39115
1.27924 -0.099926 0.993076
-1.54636 0.0458738 0.543396
-0.0908577 0.412074 1.89349
-1.77036 0.122174 -0.464582
-1.41836 0.0129739 -0.100992
-0.807857 -0.192526 0.0715976
-0.0210565 -0.117626 0.845876
1.15004 0.0234739 1.89326
0.870143 -0.205126 0.664199
-2.39536 0.331474 2.19993
-1.49056 0.163374 2.89474
-2.13746 0.261574 1.63583
-2.16026 0.258474 1.45848
-0.671657 0.592974 1.94877
-1.34786 0.00717454 1.02631
-1.42216 0.0258743 0.308148
-1.18376 -0.0625258 0.368938
-1.15466 -0.0808258 0.0245475
0.875742 1.81113 2.65526
0.844542 1.80566 2.5888
0.189343 -0.216326 0.599909
-0.905757 -0.160126 -0.940382
0.641842 -0.131726 0.466212
1.31404 -0.0738258 1.009
1.87344 -0.529026 0.873365
2.35404 -0.793426 0.841774
-2.38556 0.321674 1.96499
-2.39666 0.318774 1.18367
-1.84596 0.139974 1.64889
-1.53556 0.0407745 -0.244742
0.562842 0.192174 1.92232
0.955844 0.0808746 1.84558
0.0589434 -0.160326 0.497369
0.833443 -0.195626 1.15269
1.82534 -0.204225 1.92523
1.89014 -0.514026 0.611333
1.92584 -0.338026 -1.14135
-1.78746 0.129375 2.5423
-2.17016 0.267574 1.57871
-2.01976 0.197674 0.0817676
0.668442 -0.146026 1.02947
0.609143 -0.122426 0.606404
1.58924 -0.123526 1.85247
0.782344 -0.180026 0.742092
1.62494 -0.271426 -1.16829
-2.34856 0.313574 1.54656
1.53244 -0.108926 1.79532
1.72274 -0.463526 0.367648
1.12194 -0.260626 -0.510092
0.0279433 -0.163425 0.349108
1.43374 -0.0637255 1.81675
-2.41796 0.293274 1.28928
-2.08136 0.207174 1.83506
-2.04266 0.220474 1.81991
-2.45886 0.328574 1.12826
-1.87526 0.143374 1.52726
-1.85476 0.152575 1.35083
-1.35216 -0.0120258 1.44505
-1.96606 0.189775 0.811697
-1.76766 0.132074 0.831431
-2.45326 0.338974 0.275638
-2.45836 0.337474 0.225948
-0.0744564 0.394974 1.93117
-2.45866 0.340974 0.171188
-1.91686 0.167874 0.530163
-2.02526 0.190674 0.365448
-2.40156 0.327174 0.00852766
-1.44126 0.0104743 0.713298
-2.44406 0.344474 -0.0919924
-1.54796 0.0534746 0.544779
-2.39846 0.323875 -0.151462
-2.36956 0.322374 -0.133762
-2.39396 0.325474 -0.261662
-1.27736 -0.0280256 0.552483
-2.30346 0.300574 -0.253792
-2.35616 0.312274 -0.315672
-1.18706 -0.0601263 0.346038
-1.05646 -0.105825 0.387187
-0.628658 0.445474 0.57725
-1.25216 -0.0433255 0.0536976
-1.89716 0.147675 -0.462152
-1.48836 0.0259744 -0.235912
-1.33346 -0.0223255 -0.213542
-1.99076 0.182775 -0.793002
-1.76036 0.130674 -0.636822
-0.517957 -0.274226 0.0716177
-1.20116 -0.0610256 -0.564232
2.05544 -0.252826 1.73145
-1.09586 -0.0898256 -0.505222
-1.08556 -0.0852261 -0.516482
-1.35106 -0.0146255 -1.01984
0.728642 0.0267745 -0.696112
-1.43776 0.00687413 1.56167
0.920342 1.84914 2.44552
-2.48716 0.350974 -0.0901724
-1.16706 -0.0769262 0.713928
-2.14826 0.260774 -0.0808025
-2.33916 0.304774 -0.327442
-1.92726 0.178575 -0.214812
-1.43826 0.0117741 -0.239742
-1.65666 0.0706741 -0.479352
-1.13706 -0.0790262 -0.191522
0.958743 -0.233126 1.21096
-0.905856 -0.154526 -0.232262
2.08354 -0.276126 1.76537
1.27164 -0.0974254 1.02875
-1.02566 -0.117926 -0.612822
1.33284 -0.0996256 0.960292
0.514943 0.0290739 0.0957977
2.34514 -0.789926 0.835759
0.698243 0.0245744 -0.716072
1.11094 -0.112826 -1.18017
-1.93186 0.190174 2.49484
-2.37426 0.301374 1.35523
-0.702956 0.626274 2.31964
0.625443 1.68492 2.67514
0.592944 1.67509 2.62414
-2.35036 0.301074 0.515024
-1.67826 0.097274 1.00447
-2.28306 0.278474 0.508808
-1.51186 0.0146743 0.704071
-2.21806 0.266375 -0.289292
0.986043 0.0706741 1.90256
0.0672424 -0.132626 0.76321
0.979844 -0.226625 1.16574
0.785344 -0.196626 0.915593
-1.23616 -0.0726261 -0.779302
-1.48206 0.161874 2.89529
-1.83486 0.136774 2.33537
-2.30226 0.300674 1.86675
-2.05666 0.199074 0.0834376
-1.24266 -0.0478259 0.575609
-0.583356 -0.254926 -1.32647
0.738244 0.0182744 -0.727812
1.32194 -0.190926 -1.15343
-2.31386 0.316974 1.68349
-2.30936 0.313774 1.54121
-1.90656 0.166774 1.58105
1.18404 1.84331 2.48996
-2.02356 0.207174 0.0778677
-0.435857 0.000674303 1.19508
0.600543 -0.135926 0.990395
-0.0936577 0.0876743 -0.602622
1.10064 -0.102926 -1.14594
-0.0596574 0.655375 2.85761
-2.23916 0.268274 0.506058
1.13024 -0.206626 1.08363
-0.191457 -0.0993261 0.908519
-0.133157 -0.116026 0.875854
0.249842 -0.201626 0.574089
-0.422757 0.538874 2.43234
0.412843 1.58937 2.44661
-2.04726 0.213574 1.83754
-2.05296 0.216874 1.8261
-1.77036 0.124374 1.84558
-2.09046 0.222874 1.55343
-1.81176 0.110774 1.55751
-2.12506 0.245374 1.43233
-1.32186 -0.0164261 1.67926
-1.56086 0.0666744 1.50969
-0.696157 0.281974 1.32188
-1.73486 0.115774 0.963567
-2.27966 0.286574 0.760915
-2.10366 0.223074 0.752763
-2.14356 0.241874 0.735066
-2.28116 0.274174 0.681529
-1.79996 0.143974 0.828795
-2.00916 0.182574 0.751971
-1.55916 0.0497743 0.769535
-2.32166 0.293574 0.494593
-2.14076 0.234074 0.502549
-1.98786 0.192874 0.506799
-1.90166 0.169074 0.51169
-1.85136 0.149174 0.522008
-2.30246 0.291074 0.371188
-2.49786 0.358774 0.230988
-2.48156 0.345675 0.226598
-2.02116 0.197674 0.344538
-2.51456 0.354874 0.177898
-2.63156 0.385774 0.128108
-1.32306 -0.0169258 0.516158
1.15704 -0.131526 1.13284
-1.20816 -0.0564261 0.355388
-1.17996 -0.0735254 0.358058
1.29784 -0.0905256 0.967952
1.32054 -0.0967254 0.952336
-2.44116 0.334274 -0.200922
1.47584 -0.183626 0.949288
-2.03926 0.212275 -0.108562
-2.40656 0.329974 -0.216172
-1.30056 -0.0229263 0.0461177
-1.01686 -0.112326 0.106358
-2.43296 0.335374 -0.302492
-0.840057 -0.179726 0.0713877
-1.65016 0.0838739 -0.235392
-1.54576 0.0386745 -0.256342
-1.62616 0.0789739 -0.350582
-1.01566 -0.120326 -0.226542
-1.89586 0.159474 -0.461022
-1.91206 0.165175 -0.472032
-0.747457 -0.193126 -0.190962
-1.65576 0.0769741 -0.478302
-1.65846 0.0780746 -0.495342
-1.56326 0.0592739 -0.649102
-2.00446 0.191474 -0.829412
-0.621957 -0.244626 -0.525552
-1.15796 -0.0710259 -0.766962
1.23734 -0.304526 -0.343732
-1.10706 -0.0892258 -1.11824
-0.358157 -0.324326 -1.00789
-0.378757 -0.309026 -1.01626
1.35404 -0.181725 -1.16327
0.998442 1.97272 3.05293
-0.517757 0.562474 2.62679
-2.26986 0.300474 1.99252
-2.07326 0.228274 1.8018
-2.37366 0.314474 1.51154
-1.93966 0.161074 1.55374
-2.31986 0.296674 1.37518
-1.43416 0.00957402 1.56231
-2.41066 0.321075 1.16899
0.606743 0.204274 1.97206
-1.64406 0.0906746 0.999826
-1.66126 0.0955745 0.979996
-1.90906 0.167975 0.866453
-0.286956 -0.0459262 1.32125
1.61734 -0.122826 1.78821
-2.20476 0.258174 0.48022
-1.92046 0.168675 0.527361
-2.46496 0.333374 0.272868
-1.25316 -0.0532256 0.566185
-1.19176 -0.0688258 0.525286
-1.12716 -0.0700255 0.417282
-1.20716 -0.0649262 0.177208
-1.12286 -0.0934257 0.0751577
-2.22526 0.257774 -0.286832
-1.29936 -0.0228262 -0.377082
-0.866956 -0.165126 -0.416562
1.82464 -0.468026 0.339588
-1.20306 -0.0663262 -0.565702
-1.18706 -0.0821256 -0.771682
-0.807758 -0.201126 -1.00531
-0.485757 -0.290226 -1.17199
-0.247857 -0.367026 -1.13669
1.67934 -0.284225 -1.17228
-2.21096 0.280474 2.2848
0.907443 1.8525 2.30933
-1.45226 0.0135737 1.68946
-2.30736 0.293675 1.31449
-2.37346 0.308874 1.20396
-2.19686 0.249274 0.737781
0.455643 -0.0575257 1.57445
0.375443 -0.205026 1.50288
-1.20716 -0.0692263 0.875409
-2.27016 0.298774 0.415101
-1.80276 0.134574 0.526965
-1.45146 0.017974 0.492056
-1.08706 -0.093626 0.400181
-1.07926 -0.0928259 0.359788
-1.20706 -0.0556259 0.0737776
0.0853431 -0.159526 0.439607
-1.27956 -0.0275259 -0.222542
-2.05196 0.207774 -0.502972
-0.857957 -0.173026 -0.436212
-1.99166 0.194474 -0.810302
0.834143 0.0139743 -0.775262
1.91374 -0.334026 -0.689282
1.86274 -0.342926 -1.1695
3.22424 -1.44643 -1.38389
-2.39966 0.327974 2.03126
0.827544 1.78491 2.4157
-1.84636 0.140474 1.66194
-2.12196 0.243175 1.38206
1.24114 -0.00162596 1.98132
-1.24176 -0.0399256 0.572981
1.58614 -0.296526 1.21604
-1.60306 0.0297739 -0.242422
-0.870958 -0.162526 -0.456632
-2.31946 0.283474 1.5545
-0.722057 0.298374 1.37796
-0.00455784 -0.101126 0.893932
-2.10526 0.225974 0.183198
-1.16396 -0.053526 0.430453
1.74584 -0.470226 0.625215
0.689242 0.057974 -0.754612
0.714444 0.074074 -0.936242
-0.844857 0.753214 2.13924
-1.78346 0.123775 1.43421
-2.27636 0.280375 1.04414
0.987942 0.024974 1.66618
-1.43156 0.00727372 0.351948
0.379243 -0.257226 -0.0316124
0.547244 -0.0289259 -0.902052
-1.27506 -0.00872611 1.59118
-1.31116 -0.0406256 0.312588
2.58334 -0.742426 -0.669102
1.28184 -0.346326 0.805023
1.55044 -0.358726 0.60533
0.909443 -0.181426 1.34629
1.51194 -0.436626 -0.460142
1.00554 -0.147926 -0.262122
0.470544 0.0103742 -0.822202
0.946543 0.0181743 -1.16098
-0.503858 0.687515 2.95287
0.874142 0.0162745 -0.884932
-0.731656 -0.209926 -0.765172
-2.31596 0.307174 -0.347872
-0.976256 -0.131726 -0.224122
0.307544 -0.206325 -0.157222
1.44594 -0.384026 -0.0112023
-1.53246 0.0432741 0.345088
-1.47406 0.0370743 0.460151
-2.01806 0.197074 0.739819
-1.31696 -0.0317259 0.71452
-1.86556 0.137874 0.740083
-1.92166 0.168174 0.754753
-2.23806 0.267675 1.07846
-1.80286 0.135574 1.08043
-1.59476 0.0753738 1.13437
-1.53486 0.0546743 1.19571
-1.83016 0.139474 1.49894
-1.78666 0.123874 1.55119
0.858542 -0.0261259 1.59826
-1.79896 0.140974 1.5958
-0.144357 0.420474 1.79728
1.82554 -0.199626 1.96268
-1.67046 0.115474 2.01257
-2.25346 0.292174 2.263
-2.07976 0.235074 2.29127
-1.92526 0.187574 2.50325
-1.62166 0.0836746 2.62727
-1.33986 0.0350744 2.81747
0.893843 0.006774 -0.782782
1.25034 -0.311826 -0.363162
-1.23476 -0.0552264 0.0545176
-0.933357 -0.144626 0.0958377
1.74384 -0.468926 0.6414
-1.13736 -0.0852261 0.712945
-2.02226 0.176574 0.762004
-1.45216 0.00697427 0.866384
-1.58376 0.0489742 0.889289
-1.52396 0.0180741 0.886056
0.177644 -0.0745258 0.871863
-1.40016 0.0136739 1.46508
0.875943 -0.0564261 1.57652
0.838942 0.111574 1.73679
-0.764858 0.620975 1.96784
1.44754 1.74666 2.45892
2.11914 1.54044 2.5286
-0.920757 -0.183825 -0.961842
1.37394 -0.330326 -0.727652
-1.15466 -0.064126 0.428233
-1.64526 0.0855743 0.468542
-1.84336 0.122375 0.516093
-1.10206 -0.106926 0.853658
-0.109758 -0.116326 0.973296
1.29434 -0.0446263 1.10389
-0.701457 0.269474 1.26715
-0.675456 0.587775 1.70587
-1.22596 -0.0659256 0.711698
-0.634958 0.272274 0.831028
0.332444 -0.191826 1.47745
0.471043 -0.0675259 1.55232
-1.38526 0.0318739 1.83051
-1.48926 0.0296747 1.83876
-1.24246 -0.0268259 1.84146
-2.27596 0.291974 1.89882
-1.53086 0.0126744 2.04997
-0.525857 0.632474 2.18535
-0.791957 0.663904 2.7767
-0.776557 -0.223926 -0.774102
-1.81226 0.173374 0.386772
1.25524 -0.138526 1.05088
-0.723157 0.296674 1.31133
-0.639158 0.584874 1.73415
-1.24306 -0.0385256 1.87212
1.75224 -0.197026 2.02164
-1.85016 0.107674 0.496094
-1.53956 0.087474 0.554248
0.391143 0.0652744 1.63918
-0.487157 0.445275 1.66814
-1.88346 0.164974 1.88317
-1.92206 0.186174 1.19535
0.613642 0.0390741 1.63283
1.08664 1.92622 2.10161
0.742142 -0.230026 1.34833
0.834544 1.95244 2.7847
-1.28936 -0.0237255 0.438602
-0.588357 0.120975 1.32768
0.103743 -0.032526 1.575
-1.88626 0.152174 -0.458372
-0.708158 -0.215826 0.0593176
0.301843 -0.192726 -0.139392
-1.15036 -0.0717259 0.50077
-1.97896 0.176274 0.748083
-2.14776 0.243574 0.816794
-1.53276 0.0528747 1.19615
-1.72596 0.104274 1.29828
-2.05446 0.217875 1.55317
-1.82786 0.121874 1.5139
-1.21206 -0.0577259 1.55551
-0.837257 0.390174 1.50188
-2.23306 0.282974 1.84575
-2.21976 0.265174 1.85476
-1.36746 -0.00832557 1.69405
-1.54766 0.0454742 1.84502
0.900242 -0.101625 1.52202
-0.248456 0.457174 1.77184
-2.08196 0.238674 2.30052
-0.150756 0.429175 1.8793
-1.99816 0.359675 3.0361
-0.735957 0.729244 2.87492
-1.59226 0.0685741 1.59513
1.16574 -0.0991258 1.13503
-1.76676 0.126274 1.84522
0.234242 0.305074 1.73404
-1.64136 0.0717747 2.28323
-0.463758 0.563574 2.43152
-0.680556 0.622975 2.58452
-0.161857 -0.395526 -1.16167
-0.365358 -0.294826 -1.02656
0.711142 0.0477745 -1.00035
-1.09336 -0.0973263 0.370208
-2.07546 0.228074 2.28237
0.947743 0.0889742 1.7342
-2.16606 0.279675 2.77466
-1.48436 0.0542747 2.79443
-0.671457 -0.216026 0.183268
-1.17206 -0.0361262 0.564364
-1.93686 0.177875 0.80551
-1.44796 0.00167375 1.5443
-1.23866 -0.027626 1.83911
0.00594209 0.364874 1.70751
-1.20916 -0.0677262 2.0412
-1.63526 0.0620739 2.30816
-1.20916 -0.0441256 1.56356
0.934043 -0.212625 1.14448
0.311343 -0.0880261 1.59076
0.975543 -0.0148258 1.63251
1.56784 -0.0949259 1.68214
-1.32726 0.0339739 2.83827
-0.389756 0.562174 2.79418
1.08774 -0.235626 -0.295502
-0.640357 0.234174 1.38881
-1.27836 0.0119744 1.66641
1.27734 -0.0932255 1.11466
-1.26136 -0.0194263 0.897293
0.722342 -0.204426 0.604124
-0.756557 0.417074 1.56557
0.266343 0.266774 1.71231
-0.804057 0.757494 2.85987
0.953642 0.0783741 1.7546
-1.14356 -0.0762262 0.496914
-2.31116 0.316774 1.73407
-2.17576 0.262974 2.02094
-1.37316 -0.00542543 1.69329
-1.86276 0.150374 2.07804
-1.76026 0.109775 2.30616
1.16364 -0.107826 1.13843
1.13084 -0.175126 1.19759
-1.97536 0.182874 0.108708
-1.07466 -0.090826 0.423852
-1.49796 0.0413744 1.68236
-0.740358 0.291074 1.37648
1.23654 -0.355726 0.823102
-1.26296 -0.0369263 2.29056
-0.160358 -0.392926 -1.15944
-1.11436 -0.104425 0.826634
1.93114 1.81915 3.06016
-0.798057 -0.197825 -0.421962
0.171143 -0.0439263 -0.551252
-1.12986 -0.0819263 0.510296
-1.33136 0.0567743 2.83765
-0.765657 0.387574 0.399386
-0.300357 0.636975 3.03007
0.758242 0.0821745 1.69158
-0.387757 0.581874 2.77945
-1.13626 -0.0792255 0.489303
-1.20636 -0.0602255 0.605144
-1.27596 -0.0338259 2.63146
1.20964 -0.0868263 1.11906
1.90114 -0.300326 -0.802922
1.25354 -0.115226 0.994481
1.17354 -0.124926 1.15854
1.24534 -0.0873261 1.11676
-1.53126 0.0455744 2.27726
-0.170957 -0.382226 -1.14776
1.82624 -0.489626 0.662734
1.34104 -0.324126 -0.375732
1.19474 -0.113526 1.16053
-0.121858 0.142174 -0.874142
1.21124 -0.0714255 1.11131
-1.17366 -0.0769262 0.522317
-1.07736 -0.099926 0.40255
-1.38016 -0.00292582 1.71531
1.90724 -0.521426 0.497499
-1.01726 -0.097126 0.365368
-1.06746 -0.0965261 0.474778
-1.38936 -0.0110254 1.67074
0.438143 -0.0504256 1.59485
-0.287357 0.171574 0.186218
1.22984 -0.377526 0.942803
-2.31766 0.306074 1.44834
-2.30886 0.317074 1.63974
-1.17256 -0.0621262 0.570479
0.803143 -0.189026 0.438246
0.691844 -0.149526 1.19041
1.25154 -0.114226 0.989797
2.33494 -0.815526 0.195178
-1.34796 -0.000625555 1.63869
0.878043 -0.209426 0.415441
-1.08256 -0.097126 0.402746
-0.688657 0.585374 1.74772
0.0390422 -0.162326 1.30754
0.0412432 -0.168126 0.612944
1.45784 -0.345826 0.646418
-0.981156 -0.123526 -0.714492
1.34744 -0.327826 0.0750777
-2.26676 0.277174 0.536218
0.473042 0.0675747 1.62657
1.17154 -0.269526 0.473994
2.00684 -0.562325 0.558741
-1.48976 0.0251743 0.272168
0.796242 -0.190226 0.99302
1.99764 -0.560826 0.950539
-2.30506 0.313375 1.68263
-1.29426 -0.0350256 -0.994602
-1.49876 0.0222741 0.340638
-1.21246 -0.0625258 -0.695902
-0.877258 -0.160426 -0.990682
0.0649421 -0.157426 1.14765
1.86514 -0.512626 1.36199
-0.0496571 -0.120326 0.266918
-0.0394567 -0.120026 0.867467
0.783843 -0.188326 0.84998
-1.02066 -0.128126 0.266218
-0.805156 0.628374 1.80799
0.966942 -0.156926 1.30306
-2.35756 0.315274 1.40869
-1.78696 0.129874 1.39189
-1.16366 -0.0773258 0.0130877
-0.717157 -0.217026 -0.00303244
-0.669057 -0.228025 -0.715782
-0.201658 0.467974 2.55311
0.0331427 -0.145526 1.19756
1.82374 -0.499526 0.554406
-2.32486 0.308374 1.4731
-1.90436 0.158774 -0.232162
-1.87566 0.158274 -0.233432
-1.74546 0.105574 -0.111172
-1.17836 -0.0698262 -0.211462
-1.16506 -0.0745258 -0.194222
-0.980056 -0.131026 0.257408
-0.947356 -0.153625 -0.789982
-0.288057 0.470174 1.83193
0.792344 -0.175326 0.816957
0.883044 -0.218626 0.948271
1.82174 -0.499426 0.757419
1.75214 1.65323 2.49776
-2.23286 0.254074 0.492034
-1.78946 0.130874 1.4461
-1.56946 0.0442745 -0.253652
-0.698556 -0.215026 0.0303475
0.705144 -0.154325 0.475313
0.885342 -0.217626 0.433336
1.79724 -0.297126 -0.493262
-2.32366 0.306974 -0.177862
-2.30996 0.313774 1.69516
-2.30106 0.313274 1.55276
-2.23306 0.254774 0.494426
-2.18856 0.262374 0.474005
-2.14936 0.252174 -0.467832
-1.91916 0.168474 0.942368
-1.91716 0.169674 0.83955
-1.89566 0.164374 0.865469
-1.58116 0.0524742 -0.380162
-1.54186 0.036874 0.688635
-1.51966 0.0322744 0.658524
-1.46826 0.026374 0.309418
-1.25206 -0.0266256 0.981814
-0.0788567 0.173874 -0.788722
-0.0498574 -0.122126 0.290748
0.0555426 -0.164426 1.1474
1.01574 -0.247226 -0.101162
2.00394 -0.559026 0.478999
-2.32236 0.304374 0.0565776
-1.93656 0.179374 0.780035
-1.90976 0.165574 -0.228252
1.23744 -0.303826 -0.710152
2.38274 -0.891726 0.307708
0.793942 -0.187126 1.02665
0.836943 -0.208526 0.510973
0.836243 -0.196026 0.703167
0.998942 1.87684 2.65444
1.95524 -0.550425 0.513514
0.590043 -0.106226 -0.101962
1.14584 -0.287326 0.689606
1.19934 -0.274426 0.441076
0.0257423 -0.148326 0.668659
1.29614 -0.306025 0.379478
0.503543 -0.192925 0.645817
-2.38766 0.327574 1.95946
-2.12486 0.260174 1.61647
-2.02326 0.200374 0.303048
-1.78986 0.114675 0.429101
-1.89186 0.158774 -0.290992
-1.87386 0.157674 -0.282992
-1.57066 0.0563747 -0.298712
-1.29456 -0.0343256 -0.928272
-0.301957 0.471574 1.87378
-0.307058 0.478074 1.83322
-0.891357 -0.158426 -0.879992
0.0540435 -0.158525 0.571645
0.0637423 -0.161126 0.502932
0.632844 -0.139326 1.1538
1.75124 -0.478526 0.626107
-2.35656 0.322274 1.67637
-2.32556 0.318674 1.56548
-1.44326 0.0309745 0.278938
-0.679958 0.613075 2.62718
-1.18316 -0.0700255 -0.167772
-1.19646 -0.0745258 -0.782732
-1.04336 -0.120026 -1.1904
-0.450458 0.00797372 1.13513
-0.907358 -0.161126 -0.994752
0.700843 -0.161826 1.14294
0.633643 -0.138825 0.67319
0.701743 -0.161426 0.616122
0.905543 -0.215626 1.24542
1.50744 -0.386326 -0.542072
1.82304 -0.500126 0.678045
1.73934 -0.440626 0.264478
1.88954 -0.511426 0.66981
1.43594 -0.204225 -1.15818
2.00524 -0.564026 0.548201
1.78614 -0.256726 -0.861672
-2.37336 0.311774 1.50412
-2.04786 0.216574 0.261338
-1.74006 0.108574 -0.0905924
-1.78726 0.130274 -0.530712
-1.76516 0.130374 -0.611952
-1.32786 -0.0214262 -0.951982
-0.0371564 0.157174 -0.749522
0.744544 -0.171326 1.36918
0.728543 -0.162826 1.30116
0.819043 -0.189326 1.31312
0.879942 -0.218925 1.21417
0.877343 -0.219726 1.1461
0.875943 -0.212926 0.68493
1.99924 -0.560126 0.964887
2.36874 -0.864626 0.445155
2.59104 -0.658525 -0.763392
-2.37916 0.317274 1.42612
-1.89076 0.166674 0.859981
-1.51716 0.0359747 0.670194
-1.43116 0.0279743 0.343808
-0.486158 0.0231744 1.039
0.780944 -0.184026 0.920896
1.23304 -0.302626 -0.524602
-2.02216 0.188774 0.0983277
-0.666356 0.617875 2.32653
-0.114457 0.0901739 -0.738042
0.00474237 -0.401526 -1.42924
2.49664 -0.687526 -0.461392
-2.41126 0.321874 1.47665
-1.91816 0.174275 1.00999
-1.51326 0.0386745 0.605918
-2.05356 0.217474 -0.687392
-1.72296 0.108975 0.0526576
-1.56646 0.0564739 -0.294212
-0.478656 0.00487428 1.09359
-1.21196 -0.0719261 -0.761362
-0.289956 0.0129739 1.12623
-0.697156 -0.220626 0.0015476
-1.03296 -0.119626 -0.758312
-0.0222562 -0.121126 0.329288
-0.390157 -0.314526 -0.968172
0.878542 -0.212026 0.842411
1.25134 -0.0916262 1.03385
1.79344 -0.298126 -0.509712
2.54374 -0.724726 -0.534352
-1.92006 0.166374 0.904468
-2.46166 0.348475 -0.543892
-0.604356 0.594775 2.50683
-1.89056 0.156274 -0.406372
-1.43526 0.0366747 0.296538
-1.56106 0.0420744 -0.253122
-0.938157 -0.143125 0.0898277
-1.20256 -0.0742254 -0.786922
-0.917756 -0.162126 -0.927442
0.785943 -0.191026 0.921016
0.610842 -0.0891256 0.280228
0.835743 -0.199126 0.623306
1.82314 -0.498326 0.674233
1.95544 -0.547526 0.693639
-2.43056 0.322974 1.28761
-1.79326 0.126274 2.53437
-2.08486 0.230674 1.75189
-2.09586 0.236974 1.66507
-1.92426 0.168074 -0.425842
-1.93266 0.167074 -0.487472
-1.46996 0.022174 0.148698
-0.151656 0.420174 1.83142
-0.105956 0.417874 1.8696
-1.29366 -0.0324259 -1.0223
0.837643 -0.200526 1.154
0.618542 -0.122526 0.389055
0.645444 -0.0920257 0.304788
1.41084 1.75813 2.41004
1.38564 -0.038826 1.78775
1.56064 -0.114826 1.87641
1.60484 -0.277526 -1.13346
-1.91446 0.162874 1.0977
-0.328857 0.0185738 1.05724
-0.0730564 0.166874 -0.738922
-2.21566 0.258274 0.450565
-2.02386 0.199575 0.200178
-1.45416 0.0304739 1.51389
-0.153858 0.120574 -0.666832
1.32414 -0.332226 0.141938
-0.328258 0.478975 1.83315
-0.512657 0.0329744 1.05373
2.44044 -0.648326 -0.588312
0.0133426 -0.121226 0.96463
1.76064 -0.366326 -0.569602
-1.46376 0.0307743 0.295318
-1.86676 0.144875 -0.443712
-1.59166 0.0566742 -0.323072
0.0872428 -0.172826 0.477578
-2.40776 0.324174 -0.254482
-1.45846 0.0300743 0.652268
-1.65346 0.0905744 -0.241262
-1.17946 -0.0660258 0.371138
-1.43226 0.0161744 -0.118312
0.488744 0.0787746 1.6758
-0.507957 -0.263526 -0.492402
-0.889657 -0.153126 -1.00647
1.46714 -0.220926 -1.15472
-1.88386 0.175075 1.01359
-1.67676 0.106374 1.01358
0.158944 0.328875 1.81002
-1.22756 -0.0610256 -0.769692
0.919543 -0.217326 1.13359
1.17374 -0.193426 1.07741
1.34574 -0.0758257 0.99765
1.85204 -0.323525 -1.11116
-2.36086 0.322074 1.67161
-1.78556 0.124074 2.54284
-1.96526 0.177074 -0.412802
1.21604 0.017274 1.99582
1.48954 1.74017 2.4888
0.236542 -0.210026 0.636438
1.78984 -0.325926 -1.18559
-2.41346 0.317074 1.16127
-0.309556 0.475174 1.86914
-0.326557 0.473475 1.79152
1.71744 -0.169825 1.8312
-1.98306 0.186174 0.323988
0.588242 1.65907 2.62891
0.180444 0.321574 1.81541
-0.226556 -0.0867262 0.904673
0.273944 -0.226426 0.592283
0.958943 -0.202426 0.389623
-1.52996 0.0523741 1.67998
-2.45526 0.341475 0.208918
-2.02556 0.190074 0.364658
-2.47126 0.353375 -0.120512
-2.38586 0.324575 -0.0520624
-2.45956 0.349574 -0.169882
-2.03666 0.201675 0.117158
-1.22466 -0.0509263 0.568539
-0.0181573 -0.111826 0.848518
0.140744 -0.0661259 0.878153
-1.41976 0.0110741 -0.742052
1.27014 -0.102826 1.02952
-1.93356 0.191074 2.49299
-2.07936 0.224674 1.4351
-2.31336 0.291774 0.538319
0.841544 1.80542 2.58721
0.102443 -0.147726 0.747417
1.33584 -0.0419255 1.74209
0.189242 -0.205625 0.764399
1.84934 -0.203525 1.96152
0.929043 -0.231826 1.1438
-0.427056 -0.303226 -0.220062
1.30454 -0.103326 0.961543
2.67314 -0.614226 -0.775482
-1.83556 0.136375 2.33862
-2.32186 0.304574 1.45887
-2.17906 0.265374 1.39332
-1.41186 0.00997456 1.59182
-2.41546 0.339074 -0.252992
1.53514 -0.248326 -1.16027
-1.83466 0.147174 0.7248
-2.11366 0.239074 0.0706176
0.478244 0.232974 1.91922
1.03594 0.060074 1.83533
0.966143 -0.0628262 -1.15508
1.94784 -0.552026 0.41833
-0.0241578 -0.198426 -1.0937
-0.647956 0.610774 2.47078
-0.581157 0.303374 0.370548
-0.569457 0.573474 2.58685
-0.760557 0.315174 0.85394
0.229844 -0.225726 1.15654
-0.0772564 0.133374 -0.666302
-2.42406 0.336774 2.34491
-0.523958 0.565974 2.62163
-2.07396 0.224074 1.79912
-1.53176 0.0521747 1.68072
-1.54826 0.060774 1.19636
0.763043 0.125074 1.79837
-1.47556 0.0313741 0.458311
-2.19546 0.262874 0.0625976
-2.38036 0.326974 -0.127552
-1.13046 -0.0720263 0.334508
0.138444 -0.0682259 0.876631
0.962843 -0.232626 1.21081
1.03514 -0.215526 1.18786
0.989142 -0.231726 1.14653
1.93744 -0.534225 1.17763
-2.08416 0.225374 -0.788692
-0.573158 -0.267226 -0.476712
-1.06956 -0.111426 -0.787752
1.22264 -0.319626 0.159198
1.67244 -0.279826 -1.17449
0.837643 1.79595 2.58692
-0.629657 0.588874 1.97176
-1.80216 0.142775 0.994397
-2.45196 0.343074 0.330958
-2.19066 0.269474 0.0321075
-1.39556 0.0275747 0.322788
-1.17376 -0.066226 0.376558
-1.83916 0.149374 -0.771892
-1.44756 0.0201741 -0.748062
-0.551057 -0.269126 -0.503152
1.63564 -0.320926 0.0952577
-1.66556 0.0901739 1.9283
-2.32316 0.296574 0.738115
-2.27426 0.278874 0.422043
0.405043 0.251575 1.80142
-2.21186 0.267675 0.382268
-1.27246 -0.0316257 0.528344
-1.34056 0.00457387 0.330368
0.719542 -0.170525 1.3481
-1.09756 -0.0808258 0.394713
-1.14136 -0.0728254 0.359628
-0.745357 -0.212926 -0.0523724
-1.95286 0.171074 -0.795342
-0.528457 -0.260126 -1.00698
0.777743 0.023574 -0.686982
1.84384 -0.339226 -1.13942
0.501042 0.0702745 1.67855
1.02424 0.0559742 1.84137
-1.17686 -0.0678263 0.395107
2.00424 -0.254826 1.76387
-1.63036 0.0707743 -0.264942
0.333342 -0.226226 0.0380976
-0.474757 -0.295425 -0.489792
-0.791757 -0.182425 -1.01763
-0.437757 -0.287826 -1.03432
-1.78686 0.140974 1.42774
-1.89786 0.174074 1.3609
0.458844 0.208974 1.91513
-2.02726 0.202474 0.0700777
1.69684 -0.167526 1.91171
-1.27866 -0.00512597 1.58913
-0.779758 0.314974 0.795937
-2.20656 0.267274 2.56566
-2.02606 0.224074 1.82644
-2.32446 0.316974 1.66601
-1.87196 0.144175 1.5265
-1.54546 0.0571739 1.1951
-2.00796 0.196374 1.06299
-1.97276 0.177374 0.752483
-2.35006 0.294574 0.47287
-2.52236 0.362374 0.309768
-2.10126 0.225074 0.381818
-1.47496 0.0342743 0.459948
-1.85406 0.138674 0.367638
-1.80686 0.123674 0.376778
-2.52846 0.367774 -0.152892
-1.92946 0.172875 -0.215562
-1.57876 0.0454742 -0.264262
-1.43386 0.0157739 -0.237052
-1.35596 -0.00782585 -0.245142
-1.75226 0.111374 -0.477142
-1.68676 0.103474 -0.484332
-1.00596 -0.132525 -0.495172
-1.26226 -0.0440255 -0.794982
-1.13656 -0.0888262 -0.788142
-0.693357 -0.215926 -0.771922
-0.845058 -0.174826 -1.00943
-0.894758 -0.154926 -1.02569
0.838044 -0.00902557 -0.703022
-0.254957 -0.365526 -1.12374
1.97474 -0.362426 -0.695202
2.01394 -0.365326 -0.694542
1.92484 -0.348426 -1.16518
3.10344 -1.41613 -1.5253
0.917443 1.94508 3.05415
-1.98256 0.193074 1.8469
-1.84976 0.153074 1.84708
-2.37216 0.302274 1.20532
-1.39536 0.00577455 1.46946
-1.97016 0.188474 1.10644
-2.27106 0.279874 0.480966
-2.20416 0.249574 0.478734
-1.23406 -0.0484257 0.52456
0.0815437 -0.163126 0.54294
-1.05776 -0.0897255 0.106288
-2.23296 0.272774 -0.283202
0.158143 -0.174526 0.0573776
-0.575857 -0.271826 -0.478722
-1.04596 -0.106926 -0.722722
-0.670057 -0.225826 -0.758362
1.37834 -0.349525 -0.364362
-0.462457 -0.283026 -0.964212
-0.415258 -0.298026 -1.01772
1.40384 -0.197226 -1.16889
-1.62286 0.0891744 2.03604
-1.42926 0.0084744 1.83758
-1.90256 0.148274 1.512
-1.62536 0.0808746 1.07564
-1.25216 -0.071826 0.877446
-1.75816 0.115774 0.736229
1.21594 -0.137226 1.10357
-1.29436 -0.0335255 0.363098
-1.12986 -0.0680256 0.362998
-2.44316 0.345474 -0.222482
-1.94686 0.198175 -0.230662
-0.775558 -0.193826 -0.781482
-0.996356 -0.142326 -0.837742
0.656542 0.010974 -0.649722
-0.385957 -0.308926 -1.00275
-1.27446 -0.0352259 1.84241
-0.0495561 0.420574 1.90463
-1.44456 0.0494739 0.744748
-0.623958 -0.227325 -0.444642
1.79334 -0.310526 0.0940676
-0.600356 -0.228826 -0.491232
-0.437757 -0.311726 -0.486122
0.371842 -0.0182257 -0.952812
1.46484 -0.198326 -1.12828
-1.35006 -0.00442595 1.65059
-1.38186 0.00417428 1.58927
-1.98316 0.204374 1.19633
0.994143 0.0243742 1.66798
0.787642 -0.156425 1.15243
-0.548957 -0.267926 -0.199552
-0.412156 -0.350326 -1.13271
-0.307657 -0.356726 -1.15064
-1.51546 0.038274 1.57207
-2.14466 0.239574 1.34919
-2.03966 0.198774 -0.173752
-0.443757 -0.271326 -1.03121
0.399043 0.00297456 -1.07153
-1.81976 0.140374 1.57633
-0.778056 0.569874 1.70535
0.639243 0.103174 1.6948
0.197944 -0.142926 -0.0857225
0.799243 0.0346739 -1.08656
1.42944 -0.248526 1.19585
-1.36156 -0.00952625 0.443237
0.914343 -0.177226 0.506334
1.80354 -0.352126 -0.961382
-2.25166 0.290274 2.55122
-1.73086 0.118075 2.50809
-2.55236 0.395274 2.30702
-2.07846 0.252674 2.30107
-2.41106 0.337474 2.05219
-1.68176 0.102675 2.0343
-1.66966 0.112674 2.01324
-0.615857 0.571174 1.9674
-2.51486 0.373675 1.88445
-2.52856 0.365474 1.87663
-2.23506 0.292174 1.84578
-1.83936 0.155674 1.6083
-1.79996 0.148375 1.5955
-1.99076 0.183674 1.5255
-1.75706 0.116374 1.51811
-1.56116 0.0636741 1.51007
-1.83156 0.139074 1.49884
-1.86806 0.134374 1.31936
-1.77386 0.122774 1.2998
-2.05336 0.219975 1.27486
-2.36456 0.311574 1.21053
-1.53936 0.0556747 1.19526
-1.59756 0.0714743 1.13487
1.00864 -0.216825 1.18082
-2.53316 0.359775 1.09189
-2.23986 0.275874 1.07926
1.32714 -0.108025 0.973496
1.30304 -0.106826 0.953243
-0.697156 0.274374 0.860805
-2.15606 0.245975 0.814806
-1.86466 0.139274 0.740116
-2.27816 0.259574 0.740954
-1.82576 0.129774 0.733614
-2.24856 0.261375 0.50643
-2.27346 0.282874 0.480324
-1.53526 0.0397741 0.344588
-2.14166 0.251474 0.208168
-0.834457 -0.183125 0.0969077
-2.02116 0.197774 0.109868
-0.566957 -0.252926 -0.207962
-0.932758 -0.144326 -0.212792
-0.520658 -0.288626 -0.476572
-1.31676 -0.0401259 -0.500632
-1.60416 0.0581743 -0.478072
-1.67846 0.0904743 -0.486532
-1.87456 0.149374 -0.478942
-2.23956 0.283574 -0.488122
-2.42256 0.344474 -0.495072
-1.13256 -0.0859261 -0.784052
-0.463456 -0.286026 -0.963502
0.936143 -0.00442595 -0.887672
0.867943 0.015874 -0.884802
-1.20306 -0.0554257 -1.01179
-0.308658 -0.341326 -1.13426
-0.649457 -0.241326 -1.14583
-2.20946 0.264574 2.56525
-0.533357 0.551074 1.94169
-0.816957 0.643375 1.675
0.873843 -0.0591259 1.57643
-1.14046 -0.0798263 1.08531
1.24894 -0.100326 1.00334
0.170443 -0.0710259 0.871852
-1.07126 -0.108826 0.835131
-2.02206 0.184374 0.763059
-1.13826 -0.0856257 0.713271
1.74264 -0.469926 0.641369
-1.84326 0.111875 0.514929
-1.70526 0.105574 0.415743
-1.47406 -0.0159264 0.359418
-0.566358 -0.268426 -0.492902
1.36944 -0.328226 -0.725302
-0.663457 -0.229425 -0.764022
-1.37186 -0.0091257 -0.800582
-0.690557 -0.221725 -0.999642
-0.0290578 0.0880739 -0.926172
-0.803157 -0.217525 -1.12512
-1.33426 0.106474 2.92205
-0.500057 0.568074 2.68383
-1.93466 0.167774 2.5966
-1.61326 0.0797741 2.59475
-1.61216 0.0637743 2.04174
-1.66726 0.115474 1.93167
-1.33776 -0.00702569 1.69412
-2.06346 0.223674 1.63385
1.60404 -0.337526 1.2517
-0.112857 -0.116626 0.973254
-1.20166 -0.072526 0.868252
-1.94186 0.192374 0.810651
-1.58196 0.0647747 0.735464
-1.09746 -0.0729256 0.365878
0.0901439 -0.0247259 -0.142142
0.0601432 0.0574743 -0.536212
-0.414457 -0.304926 -0.977252
1.25314 -0.162226 -1.13921
-0.0886566 0.401474 1.93285
-1.36416 -0.00702569 1.86311
-1.24746 -0.0239258 1.84119
-1.56236 0.0523741 1.52419
0.468644 -0.0684262 1.55192
0.330743 -0.187626 1.47709
-1.20916 -0.0605259 0.363278
-1.20856 -0.0364256 -0.247072
-0.786456 -0.186526 -0.759452
0.635342 0.0494739 -0.946432
-0.810256 0.625175 2.01635
1.14084 -0.198126 1.1692
1.09394 -0.210525 1.13403
1.41274 -0.125426 1.0186
-1.47196 0.0268747 0.0926476
-1.27186 0.00797372 -0.218482
-1.05206 -0.113826 -0.817822
1.56324 -0.228426 -0.923392
0.380343 -0.0300255 -0.981552
1.69084 1.68549 2.53557
-0.270156 0.597974 2.10724
-0.283557 0.600174 2.06898
1.00064 -0.0191259 1.63288
-1.60776 0.074074 1.31467
1.82804 -0.511025 1.24508
0.647343 -0.036026 1.58469
-1.92536 0.183974 1.19535
1.03134 -0.210226 0.307678
0.0685432 0.603375 2.03493
-1.30396 -0.0184259 0.755496
-1.15296 -0.0415259 0.374418
1.37834 -0.00482554 1.99601
1.07974 -0.170326 -1.21744
-0.753757 -0.214526 -1.1364
-0.823257 -0.182425 -1.10654
-1.06466 -0.103025 -0.834432
-0.829356 -0.168826 -0.822232
-0.750457 -0.197326 -0.823102
-1.98076 0.188674 -0.557702
-2.21206 0.274674 -0.498222
-1.72376 0.112475 -0.574212
-1.81536 0.124374 -0.482972
-1.72446 0.104775 -0.469372
-0.609456 -0.241626 -0.604152
-1.00376 -0.134426 -0.502422
-1.58606 0.0547745 -0.362302
-1.55036 0.0447742 -0.269412
-0.868757 -0.169326 -0.317082
-1.20266 -0.0606261 -0.219862
-1.21666 -0.0563259 -0.208542
-1.04506 -0.106926 -0.231262
-2.26346 0.274974 0.111778
-2.27446 0.276374 0.114668
-2.45796 0.340574 0.172558
-2.13726 0.245975 0.196518
-2.42866 0.334874 0.279138
-0.637758 -0.237026 0.0766876
-2.19396 0.251575 0.379798
-1.47366 0.0195743 0.311088
-1.80416 0.136874 0.365678
-1.71276 0.111974 0.447441
-2.28836 0.283074 0.54225
-2.29856 0.284575 0.543915
-1.89516 0.160874 0.511785
-2.29536 0.284174 0.551617
1.21394 -0.176626 0.5201
1.21034 -0.181526 0.532413
-1.65056 0.0873739 0.685643
-1.71326 0.107774 0.699063
-1.99186 0.199174 0.877276
0.792143 -0.191926 0.855939
0.122243 -0.0616255 0.884464
-1.74996 0.125274 0.936552
-2.41396 0.328674 0.994713
1.17594 -0.215425 0.988491
1.31714 -0.0329256 1.02749
-1.97566 0.179574 1.07427
-2.18076 0.238275 1.0901
-2.23256 0.278474 1.13741
1.15944 -0.112925 1.13708
-1.64726 0.0844747 1.1981
-1.74276 0.108975 1.29697
0.618643 -0.132826 1.36985
-2.18986 0.269974 1.40004
-1.92556 0.183774 1.59821
-1.86016 0.152374 1.63575
-2.45096 0.352774 1.64247
-1.36786 0.00697427 1.78684
0.748044 0.137674 1.90457
-2.04856 0.213874 1.81094
-2.31306 0.314874 1.82832
-2.22186 0.275974 1.86934
-2.20236 0.268974 1.87424
-2.21596 0.272174 1.87671
-1.79946 0.122674 2.50707
-0.338456 0.723475 3.04834
1.22564 -0.142726 -1.17577
-1.38066 -0.0119257 -0.816142
-0.707357 -0.215726 -0.928882
-0.229957 -0.366926 -1.01002
-0.902156 -0.164825 -0.854662
1.97304 -0.374626 -1.17686
-1.18826 -0.0695258 -0.710692
-1.39666 0.00947388 -0.624852
-2.04896 0.208174 -0.496532
-1.17746 -0.0640259 -0.613202
-1.63446 0.0664741 -0.479942
-1.60216 0.057974 -0.479642
-1.41896 -0.000825827 -0.481532
-2.41776 0.332874 -0.130892
-1.56436 0.0458738 -0.272632
-1.56306 0.0426742 -0.259112
-1.13636 -0.0744257 -0.0712124
-2.31506 0.293174 0.123218
-2.41246 0.327274 0.163898
-2.25336 0.275475 0.147558
-1.23046 -0.0420256 0.0386175
-1.97096 0.190574 0.188778
-2.34056 0.308174 0.315138
-2.17736 0.253974 0.295998
-2.19146 0.258974 0.299128
-2.30946 0.281174 0.384538
-1.68236 0.0922739 0.347568
-1.01846 -0.115226 0.367498
-2.32466 0.293174 0.506166
-1.75866 0.112874 0.490512
-1.28476 -0.0221262 0.460222
-1.51876 0.033374 0.630974
-1.98256 0.195074 0.682057
-2.07726 0.213574 0.746712
-1.90956 0.168774 0.738575
-1.47746 0.0170747 0.715044
1.09074 -0.275326 0.610183
-1.27436 -0.0497256 0.723058
1.99724 -0.546526 0.644778
-1.99776 0.196374 0.871406
1.24244 -0.144726 0.939776
-1.57706 0.0704738 1.00228
1.32904 -0.0892258 0.966574
-1.56776 0.0680744 1.01426
1.28554 -0.0786257 1.02073
-1.25096 -0.0254259 1.0567
-1.43746 0.0279743 1.11214
1.24534 -0.0571261 1.13176
-1.63956 0.0728742 1.15646
1.07174 -0.174526 1.18008
-1.93336 0.181674 1.19923
1.13794 -0.150226 1.18671
1.06734 -0.178326 1.19358
-2.07046 0.220374 1.22468
-1.73326 0.112274 1.29448
-2.35276 0.307874 1.30338
-2.32406 0.302474 1.39473
-1.74526 0.112274 1.51756
-1.32426 -0.0260258 1.55014
-1.74476 0.120074 1.65946
-0.0911572 0.400674 1.77553
1.34584 -0.043026 1.94233
-2.16056 0.259674 1.85235
-1.65916 0.0896742 2.01373
-2.02756 0.213874 2.05367
-2.40456 0.340174 2.13837
-2.06076 0.228375 2.49522
0.636544 1.69416 2.55959
1.96554 -0.371325 -1.19143
-1.00386 -0.120026 -0.754242
-1.13276 -0.0694256 -0.0847924
-1.70566 0.114374 0.0435876
-2.34316 0.296475 0.183308
1.60714 -0.427126 -0.0998224
-0.520458 -0.274026 0.0710277
-1.33376 -0.0109262 0.251478
-1.78036 0.112374 0.477275
-2.01026 0.187874 0.510081
-1.16546 -0.0752258 0.520031
0.219943 -0.216426 0.473371
-1.16986 -0.0614262 0.571843
-1.43456 0.0192738 0.65551
0.0270431 -0.159726 0.65139
-1.92776 0.166274 0.744394
-1.21026 -0.0715256 0.69878
-2.01016 0.182775 0.750571
-1.94166 0.166074 0.764012
-1.56176 0.041774 0.75322
-1.53856 0.0454742 0.756357
0.707743 -0.166726 0.712248
-1.55296 0.0508739 0.845912
1.27554 -0.366026 0.85268
1.15444 -0.217026 0.985771
1.23404 -0.0598259 1.1117
1.15644 -0.127625 1.16214
0.332743 -0.238226 1.2267
-2.06626 0.218274 1.24105
0.709143 -0.170326 1.23735
-2.33546 0.309674 1.37573
0.931542 -0.0738258 1.47701
-1.81756 0.132374 1.49492
-2.45206 0.346174 1.51623
-1.30896 -0.0199261 1.56523
-2.02926 0.195375 1.55164
-2.06196 0.214274 1.55355
0.339244 0.265874 1.78497
-0.276456 0.472374 1.80637
-1.36756 -0.00252623 1.80408
-1.50766 0.0325739 1.85982
-2.46456 0.355475 2.17375
-2.39236 0.326274 2.20003
-2.19406 0.274174 2.29261
1.76494 1.64881 2.45284
0.607743 1.6748 2.52423
-2.22946 0.263274 2.59221
-1.27656 -0.0374261 -0.833902
1.80714 -0.321926 -1.16614
-0.908357 -0.156726 -0.766052
-2.04916 0.218674 -0.522952
-1.86906 0.151175 -0.465242
-2.33886 0.315874 -0.175272
-1.72796 0.107274 -0.281752
-2.02966 0.195974 0.124438
-1.16106 -0.0763254 0.0129576
-2.10576 0.228274 0.173448
-0.728156 -0.206126 0.00594762
-0.659257 -0.223226 0.0444376
-1.17286 -0.0705262 0.347228
-1.12996 -0.0955257 0.515616
-1.18086 -0.0765257 0.691103
-1.50786 0.0153743 0.713478
-1.92486 0.170775 0.967642
0.784443 -0.180026 0.974479
1.25954 -0.095026 1.02544
1.18354 -0.103926 1.1357
0.786442 -0.181126 1.15513
1.12994 -0.138726 1.17432
-2.08526 0.217274 1.23887
-2.08266 0.213074 1.26252
0.932143 -0.0596257 1.4986
0.893643 -0.170826 1.50393
0.921242 -0.0441256 1.52219
-1.89146 0.151674 1.51113
-1.42086 0.0187741 1.54015
-2.07826 0.214074 1.81959
-2.05166 0.212175 1.83921
-2.38196 0.323774 1.93115
-1.70536 0.103674 2.01395
-1.92416 0.182075 2.05824
-0.915958 0.756495 2.05191
-1.95396 0.188674 2.08179
-2.31926 0.309274 2.20933
-2.45586 0.347374 2.22586
-1.82746 0.138974 2.30658
-2.17126 0.263374 2.29299
-1.12436 -0.0670262 2.50297
0.905943 1.85028 2.44046
-0.501657 0.556275 2.65679
-2.43086 0.339674 2.55865
-2.31456 0.292774 -0.353502
0.666443 0.010974 -0.642842
1.84464 -0.319325 -0.722802
-1.59046 0.0583746 -0.312702
-1.62436 0.0693743 -0.261242
-1.76966 0.119674 -0.110782
0.363044 -0.242326 0.0109476
0.515544 0.0267745 0.0946377
1.73204 -0.293526 0.0933477
0.044543 -0.0933256 0.246578
-1.07466 -0.0925255 0.432203
-1.79706 0.116174 0.515018
-1.25056 -0.0473262 0.572757
-0.0858566 -0.116926 0.608126
-1.51936 0.0350744 0.675914
-1.25086 -0.045126 0.677563
-1.94456 0.172275 0.786179
0.0404422 -0.140426 0.768036
1.13844 -0.225225 1.05892
1.11704 -0.145126 1.10962
1.22104 -0.073926 1.1093
-2.42936 0.330875 1.147
0.979844 -0.186625 1.31682
-1.41436 0.00537401 1.3085
0.926444 -0.139326 1.47622
-1.75376 0.131074 1.44624
0.919842 -0.127526 1.50197
-1.43336 0.00447374 1.56386
-2.08996 0.232174 1.66597
-1.98716 0.191175 1.84722
-2.16436 0.264874 2.30657
-2.45386 0.333075 2.35303
-1.94746 0.194574 2.47105
0.405944 1.58929 2.44797
-2.16676 0.246574 2.57737
-2.13666 0.249074 2.57656
0.996644 1.90422 2.78949
0.322244 0.0216743 -1.03196
-1.08666 -0.104726 -0.544992
-1.15746 -0.076026 -0.223742
0.569543 0.0372745 0.0946377
1.68754 -0.305826 0.0945177
-0.711156 0.445174 0.520926
1.71274 -0.457726 0.343268
0.664942 -0.143026 0.827496
1.21294 -0.154325 1.05148
1.27304 -0.0896263 1.10896
0.956843 -0.208126 1.20878
1.24764 -0.148725 1.20488
-1.83146 0.140474 1.35177
-2.08306 0.230074 1.7753
-1.53766 0.0485746 2.22397
-1.75936 0.117674 2.51193
-2.19906 0.258674 2.57501
0.829543 1.79316 2.58546
0.767743 0.0295745 -0.777952
-1.21696 -0.062726 0.359848
-1.52056 0.0365745 0.652434
-1.91586 0.166974 0.844033
-1.95696 0.170274 0.853482
-0.0232575 -0.104425 0.890007
-1.38666 0.00107389 1.67136
-0.878658 0.801844 2.09943
-2.26676 0.299674 2.30715
0.666342 1.70182 2.6795
0.397942 -0.259726 0.0481576
-1.15706 -0.0587263 0.572168
1.10344 -0.241826 0.597511
1.17514 -0.181926 1.23025
-0.718356 0.472174 1.62465
-1.43456 0.00467401 1.69081
0.809342 0.118075 1.76552
-1.82896 0.143974 1.88023
0.684043 -0.0735254 -0.401182
-1.55966 0.0559742 0.505571
0.686143 -0.136626 1.36492
-1.27506 -0.0468264 0.767403
-1.84886 0.149075 -0.363842
-2.29846 0.284774 0.542978
-2.07216 0.225774 0.212158
-2.44286 0.339174 0.833009
-2.52216 0.352074 1.09121
-2.14596 0.232274 0.739137
-1.06616 -0.103526 -0.514532
-0.952756 -0.132926 -0.592392
-0.899957 -0.148025 -0.666482
-2.31456 0.302474 1.37036
-1.71436 0.107774 0.698593
-2.21536 0.268874 1.87635
-1.64746 0.0843746 1.19722
-1.01376 -0.115826 0.376828
-2.06086 0.227574 2.4946
-0.718557 0.603674 1.78271
0.700444 -0.155025 0.597376
-0.493257 0.532674 1.90373
1.30554 -0.315626 0.0939277
1.09884 -0.273726 0.337738
0.495743 0.061474 1.58917
1.05184 -0.189826 1.1887
1.28404 -0.0654259 1.03405
1.29754 -0.0582257 1.02633
1.19784 -0.151426 1.2106
0.748442 0.136874 1.90227
1.77664 -0.185026 1.77087
1.99384 -0.250626 1.89891
-2.18286 0.251374 -0.302102
-2.37076 0.315274 0.235468
-2.25216 0.275274 0.146488
-1.81446 0.137075 -0.339642
-2.11616 0.235475 0.158118
-1.56656 0.0432741 -0.259532
-1.74206 0.104075 0.0390475
-1.93686 0.172774 0.946197
-2.03126 0.188174 1.08753
-2.07036 0.220074 1.22417
-1.89336 0.163274 1.068
-1.73706 0.120674 0.955615
-1.24716 -0.0531264 0.548
-1.64186 0.0743744 1.15563
-2.01836 0.209574 1.69333
-1.01426 -0.122725 0.365508
-1.64606 0.0826742 1.20929
-2.39006 0.325574 2.57458
-1.91146 0.173774 2.05835
0.839243 -0.0274258 -1.21304
0.0484435 0.0303747 -0.127842
0.301043 -0.209825 -0.160832
0.953944 -0.000725691 -0.774822
0.378743 -0.262626 0.850465
0.854342 -0.204126 0.607085
0.858542 -0.196326 0.654575
-0.282157 0.473774 1.80718
-0.152957 0.424074 1.67417
1.10114 -0.262526 0.557419
0.709643 -0.165026 1.10515
1.22104 -0.365626 0.816458
0.941643 -0.223326 1.16401
1.24654 -0.353025 0.882629
-0.418857 0.534174 2.43376
1.05244 -0.184126 1.17416
1.06394 -0.179926 1.19311
1.17014 -0.127026 1.18382
1.23284 -0.0801258 1.1301
1.96994 -0.544526 0.61172
2.00444 -0.254426 1.7899
-1.74226 0.124674 -0.675162
-2.02886 0.199174 0.0959477
-1.17146 -0.0703259 -0.784112
-1.71056 0.0947744 0.0613476
-1.97096 0.193174 0.881222
-1.92306 0.162375 0.937719
-2.33556 0.314674 1.59315
-2.06616 0.217074 1.241
-0.973857 -0.116626 -0.222152
-0.206256 -0.368726 -1.06321
-1.56906 0.0553743 0.809528
-2.06546 0.218274 1.55441
-0.746957 -0.188326 -0.200482
-1.26796 -0.036726 0.571147
-2.46226 0.348774 2.56325
-0.478957 -0.283226 0.0717377
-2.37886 0.325674 2.56835
-2.09176 0.235475 2.30471
-1.58906 0.0682747 1.84151
0.159943 -0.156626 0.0214675
-0.469957 0.00767427 1.05868
0.0370433 -0.160026 0.630866
0.0265433 -0.159925 0.650121
1.57024 -0.246126 -1.16468
0.00754236 -0.0862255 0.868187
0.110244 -0.0547257 0.868342
0.131842 -0.0592261 0.872907
-0.664857 0.588774 1.96148
0.398444 -0.257326 0.972904
0.792542 -0.177926 0.65313
0.865243 -0.205826 0.865231
0.617243 -0.131926 1.1333
0.643344 -0.137026 1.16605
0.684743 -0.153526 1.13367
1.31994 -0.370926 0.778656
1.16014 -0.223426 0.98099
0.939642 -0.122326 1.24173
1.17844 -0.202226 1.02572
1.23234 -0.145925 0.952005
0.891743 -0.216125 1.37885
1.08934 -0.160826 1.19765
-0.312057 0.501974 2.56163
0.919543 -0.0707255 1.52275
0.608443 1.67847 2.46062
0.606843 1.6747 2.52248
1.31604 1.7715 2.69054
-2.18796 0.255974 -0.284082
-1.86996 0.149474 -0.466382
-2.46436 0.324274 1.10716
-0.889158 -0.159726 -0.880972
-2.35126 0.304474 1.51157
-0.676156 -0.217926 -0.778242
-2.08166 0.213174 1.26712
-0.349157 -0.328526 -0.986552
-0.953456 -0.137726 0.107288
-1.84916 0.163775 1.32612
-1.09236 -0.0997257 0.370168
-1.78436 0.126474 1.39806
-1.81976 0.138174 1.49253
-0.895356 0.230374 0.396431
-1.07396 -0.0935259 1.04961
-0.658057 0.459574 0.57125
-1.83496 0.135774 2.33501
-0.0920574 -0.112925 0.608625
0.651642 -0.140726 0.567001
0.770644 -0.168226 0.612743
0.300343 -0.246626 1.2227
-0.278358 0.472374 1.86215
1.15094 -0.282326 0.591051
0.528743 -0.0527259 1.47632
-0.874757 0.705485 2.79245
0.514043 0.0223743 1.57149
-0.478257 0.555074 2.55986
1.19174 -0.199826 0.995385
1.89424 -0.516826 0.472921
1.23754 -0.0556259 1.07344
1.23794 -0.0643263 1.11073
0.909243 -0.103226 1.52571
0.555743 0.200574 1.95294
1.34374 1.77876 2.66719
-2.19236 0.252975 -0.314462
-2.33776 0.302474 -0.0072624
-2.04506 0.206675 -0.311462
-1.87316 0.155074 -0.231752
-2.41626 0.324074 1.11538
-1.94756 0.175775 1.02269
-1.43506 0.0222741 0.311298
-0.294656 -0.346526 -1.14329
-0.178056 -0.395726 -1.14731
-1.99816 0.200674 1.54794
-1.21446 -0.0702258 0.666231
-2.43866 0.341574 2.31519
-0.00605702 0.157974 -0.851322
0.322043 0.00547414 -1.00149
-1.38486 0.00517373 1.55712
0.667243 0.0676739 -1.03729
0.643042 0.0512745 -1.00355
0.814543 0.0185738 -0.772872
-1.07096 -0.0741262 1.71972
0.673743 -0.143326 0.420536
0.778344 -0.180026 0.467868
1.83894 -0.319126 -0.723202
-0.440856 0.524675 1.7987
1.91234 -0.335426 -0.686312
1.67774 -0.445526 -0.301252
0.367642 -0.259326 1.25042
0.739142 -0.175226 0.93835
-0.151958 0.429875 1.88123
0.667042 -0.141926 1.16627
1.72024 -0.277626 0.0639377
0.491143 -0.206426 1.47497
0.478842 -0.192126 1.50511
1.74404 -0.444626 0.283018
1.25794 -0.114626 0.987874
0.883143 -0.0621262 1.5824
1.16974 0.006074 1.94717
0.156943 1.01304 2.67807
1.80804 -0.186026 1.97909
1.30244 1.78051 2.31257
-1.56656 0.0508739 -0.440642
-1.61996 0.064274 -0.241212
-0.967958 -0.141626 -0.975932
-0.634958 -0.237126 -0.713102
-2.42006 0.334274 1.96459
-0.981757 -0.128726 0.322498
-0.922157 -0.143026 0.283808
-1.49716 0.0427744 1.68492
-2.19866 0.260374 2.57883
0.777644 0.0188743 -0.782152
-1.70916 0.0935747 2.3283
0.944644 0.00617414 -0.827172
0.0265433 -0.135226 0.367208
-0.766057 0.324874 1.42117
1.68004 -0.294826 0.0616076
2.65404 -0.699126 -0.906602
2.61934 -0.662526 -0.851432
-0.860257 0.669634 2.74571
1.75524 -0.438326 0.234358
-0.314058 0.619475 3.0297
-2.46866 0.342974 -0.530272
-2.30186 0.298675 -0.163642
-2.37516 0.306574 0.0425776
-1.95436 0.166774 -0.485842
-2.40656 0.337874 2.19569
-0.102758 0.134674 -0.843182
-2.05026 0.209274 1.83589
-1.35156 -0.00162596 1.63648
0.151143 -0.177026 0.0372476
0.601143 -0.120226 0.559802
1.12764 -0.295826 0.353758
0.600243 -0.123626 1.076
1.13254 -0.238426 1.02725
2.54154 -0.772726 -0.108542
0.997143 1.87362 2.72585
-2.43126 0.321474 1.30054
-0.702357 0.322674 0.387079
0.446944 -0.281326 -0.0384524
-0.310558 0.0143739 1.04766
1.21124 -0.305026 0.383348
-1.89626 0.150974 1.08721
-1.03846 -0.128526 0.276728
1.23414 -0.345226 0.294578
1.16274 -0.162926 1.22509
-1.03916 -0.128526 0.274128
1.30814 -0.330226 0.110518
0.531342 -0.249326 -0.0620724
-0.540958 0.614974 2.2009
1.04914 -0.182126 1.24552
-0.733358 0.349274 0.682755
1.12594 -0.310326 0.231238
0.716344 -0.119526 1.33846
