-1.69982 0.0911878 1.93174
-1.44516 0.272466 1.55079
1.73852 0.0629277 1.36447
-1.61701 0.315176 1.48201
1.24384 0.134404 1.00967
-0.504294 0.147347 0.920867
-0.604658 0.177953 0.9111
0.135562 -0.14632 0.809243
0.493987 -0.209249 0.713075
-3.16483 0.14643 0.749771
-1.1837 0.272221 0.703378
-3.12417 0.147753 0.72671
-3.21002 0.154977 0.725988
0.139686 -0.108942 0.591116
-3.48309 0.215851 0.571515
1.04815 -0.0847239 0.394681
-2.71643 0.538178 0.512624
2.28004 -0.779724 0.256489
-0.835356 0.266958 0.391659
-2.9333 0.763285 0.370967
0.121886 -0.108453 0.168317
1.45866 -0.613898 0.0600773
-1.69317 0.419549 0.177402
1.95034 -0.660589 0.0126764
-1.85804 0.447036 0.0950275
-2.20132 0.686947 0.0626114
-2.29771 0.701818 0.0668252
-2.1525 0.678649 0.0282766
-2.23057 0.729456 -0.0547708
-3.78145 0.333879 -0.220674
-2.20652 0.752072 -0.156167
-2.46176 0.777808 -0.181843
-3.73185 0.317316 -0.332603
1.87484 -0.632247 -0.410657
-3.71185 0.310471 -0.367144
0.703518 0.195214 -0.303563
-1.36938 0.411237 -0.302982
1.21698 -0.536187 -0.553081
1.4782 -0.587792 -0.578975
-2.04186 0.706027 -0.574823
0.806442 -0.437912 -0.753996
1.33351 -0.52661 -0.786404
1.92144 -0.630024 -0.819915
-1.84918 0.680179 -0.732077
-1.22688 0.631982 -0.732683
1.42651 -0.529751 -0.983241
-1.47707 0.625149 -0.896386
1.29335 -0.452428 -1.51296
-0.407722 -0.158765 -1.61393
1.21986 -0.450935 -2.03298
0.463836 -0.28683 -2.16337
-0.564052 -0.119459 -2.22954
1.06406 -0.350605 -2.86286
-0.855708 0.423327 2.21165
-0.0652319 0.322215 1.69428
0.271869 0.26865 1.56498
-1.58418 0.318326 1.36619
-0.795056 0.495317 1.26389
2.29538 -0.818445 1.09708
2.66653 -0.860742 0.87224
-0.526816 0.157574 0.93922
3.70819 -0.859452 0.716011
-0.617089 0.183107 0.87908
2.69 -0.837857 0.663845
2.69488 -0.856506 0.541266
2.60792 -0.844889 0.543547
2.6672 -0.850341 0.513939
-0.111602 -0.0860413 0.604176
2.6257 -0.854566 0.408365
-2.67268 0.472007 0.478823
-2.93489 0.686558 0.425793
-0.367619 0.00239071 0.234522
2.46904 -0.76807 -0.187515
2.40409 -0.736903 -0.207053
-2.3755 0.769262 -0.0215397
-2.11 0.61306 -0.0770879
-3.69267 0.319704 -0.278477
-2.14728 0.739042 -0.229352
-1.16794 0.541724 -0.530269
-2.57848 0.971026 -0.542807
1.38615 -0.52206 -0.97145
-1.52304 0.863093 -1.34102
-0.748173 -0.0911619 -1.77878
-0.869491 0.493703 1.22279
2.69862 -0.892424 0.899612
-2.41464 0.30499 0.921823
3.26571 -0.947694 0.610952
-2.33991 0.294758 0.78074
-0.274375 -0.0184995 0.0250023
-0.376485 0.108313 -0.319641
-2.10771 0.676487 -0.250925
1.87192 -0.598765 -0.849395
-0.502686 0.411831 -1.09638
-1.90218 0.768918 -1.17409
0.0800488 -0.23536 -1.85078
-1.9953 0.192182 1.39861
0.847808 0.199496 1.19252
-1.53811 0.321994 1.24717
-1.17629 0.235332 0.571153
-3.75351 0.261073 0.250169
-0.678354 0.0855433 -0.228206
-1.68676 0.516685 -0.254751
1.98934 -0.655276 -0.433674
0.363985 -0.349114 -0.925957
-1.01824 0.623878 -1.56853
-0.256834 0.356642 1.77674
-0.120243 0.322306 1.7185
0.451879 0.255203 1.4036
1.41809 0.116095 0.847792
-2.39278 0.305822 0.712604
0.993099 -0.0746707 0.402205
1.07721 -0.0919124 0.377333
-2.74355 0.591693 0.443448
-1.80254 0.439668 0.172099
1.52995 -0.522697 -1.53982
-0.974668 0.405192 -0.947433
3.60137 -0.922438 0.58513
-2.41836 0.81472 -0.375622
-2.38252 0.359591 0.880654
-0.99118 0.36222 1.28751
-0.608299 0.165803 1.00992
-0.869092 0.266097 0.160531
-0.140483 0.131442 -0.353114
-1.87014 0.726306 0.132193
-0.683857 -0.0676657 -2.29359
-1.92121 0.785001 -1.16403
-0.876582 -0.0621352 -1.99644
-2.61373 0.972472 -0.508544
-3.76474 0.322024 -0.200771
-3.72951 0.314424 -0.200789
-0.444129 -0.149624 -1.8502
-0.536179 -0.131918 -1.72008
0.150749 -0.251582 -1.85699
-3.32777 0.235279 0.0321223
-3.57733 0.258235 0.175579
-3.6626 0.26111 0.225205
-3.67979 0.2622 0.240753
-3.70227 0.268788 0.260373
-1.30174 0.623256 -0.591392
0.374053 -0.291388 -1.76538
0.576656 -0.33304 -1.86676
0.35988 -0.331595 -1.71123
-0.116231 -0.235676 -1.27988
-0.842607 0.184394 -0.652396
0.611331 -0.353459 -1.46395
0.362695 -0.328015 -1.32265
-0.238956 -0.238785 -0.989309
-3.24573 0.158452 0.739255
0.66564 -0.37646 -1.28941
0.698647 -0.381314 -1.3
-0.515629 0.107703 -0.408404
0.253294 -0.331964 -0.914793
-0.434425 0.0758126 -0.261589
-2.43513 0.346211 0.811649
-2.56988 0.362078 1.02869
1.06476 -0.46103 -0.904175
-0.158797 -0.0327503 0.142714
-1.14023 0.413279 0.919857
-0.467709 0.187045 0.52786
-0.642628 0.209688 0.628516
-0.476451 0.187651 0.544543
-1.54874 0.327065 1.15251
-0.967115 0.139658 0.915238
1.70157 -0.599385 -0.63989
1.11421 -0.522785 -0.185016
-0.581523 0.173461 0.898883
-0.146963 -0.0780133 0.685892
-1.76623 0.135534 1.60256
-1.94943 0.258629 1.7299
-0.18305 -0.0799605 0.71827
-0.521063 0.261664 1.14794
-1.25132 0.238253 1.56871
-1.4021 0.261177 1.65742
-1.0496 0.315463 1.48601
-1.2366 0.238306 1.57316
1.38763 -0.586189 -0.00202527
2.45738 -0.739277 -0.531154
2.51895 -0.746224 -0.25103
2.20853 -0.71942 -0.00271776
0.092779 0.306264 1.52003
0.0474826 0.317651 1.56162
0.316955 0.265635 1.43001
-0.0532861 0.319042 1.73362
2.47903 -0.778115 0.188556
-0.826652 0.419591 2.21381
1.20852 0.142581 1.08358
2.9499 -0.863881 0.174216
2.15231 -0.771025 0.78861
2.23647 -0.796958 1.05403
2.31453 -0.828331 1.19996
0.911886 1.88741 2.23764
0.569891 1.92539 2.58024
0.580253 1.92342 2.58496
-1.25698 0.0204585 -2.07253
-0.743281 -0.0725666 -2.24765
1.22408 -0.319091 -3.18162
-1.89337 0.790107 -1.1753
-1.96864 0.784632 -1.14205
-0.508757 -0.127321 -1.95768
-0.778089 -0.0968784 -1.76383
-3.71373 0.318974 -0.241165
-3.82579 0.321475 -0.160102
-1.84709 0.687162 -0.808236
-3.5263 0.276904 -0.288356
-4.03581 0.349899 0.0562244
-3.83303 0.300161 -0.0371887
0.243312 -0.243156 -2.06987
0.582307 -0.301102 -2.23373
0.680263 -0.312375 -2.27038
-0.0962388 -0.20378 -1.75487
0.56619 -0.333776 -1.845
0.484935 -0.320264 -1.79331
0.652399 -0.363653 -1.58144
-3.50984 0.219529 0.608219
0.112419 -0.282983 -1.26567
0.851295 -0.38087 -1.61316
0.650382 -0.376929 -1.50754
-3.33327 0.181664 0.751119
-0.55595 0.116983 -0.470552
1.10411 -0.436638 -1.46407
1.53122 -0.486476 -1.62402
0.277238 -0.337427 -0.931805
-2.3694 0.296072 0.915751
0.814169 -0.433631 -0.816486
-0.8178 0.263101 0.443987
1.98774 -0.632543 -0.857138
-2.01056 0.27819 1.72313
0.295867 -0.153336 0.453339
1.96434 -0.643277 -0.511989
-0.427155 0.141841 0.973441
2.012 -0.658189 -0.490641
-0.608832 0.289772 1.16206
-1.37837 0.261362 1.61959
0.0946984 -0.125532 0.748533
-1.83344 0.12289 1.85914
-0.249874 0.105329 1.02583
-1.84547 0.114472 1.90611
2.4502 -0.71528 -0.560343
0.991614 -0.107726 0.360023
1.64259 -0.634969 -0.0995328
2.44341 -0.735716 -0.541505
1.6306 -0.630044 -0.0702643
1.94877 -0.693582 -0.252236
1.51746 -0.619892 0.00308492
-1.73633 0.098498 1.945
1.00431 -0.0885547 0.548719
1.56145 -0.634115 0.243401
1.53712 -0.644552 0.271705
-1.00426 0.456044 2.13986
0.674375 0.239037 1.18249
-0.450866 0.381066 1.8377
1.1503 0.169427 0.919176
-0.168627 0.340871 1.79612
-1.00326 0.441524 2.29205
-0.693272 0.407258 2.12676
2.09158 -0.730212 0.49908
2.39572 -0.783527 0.56807
2.82907 -0.8659 0.623325
2.79125 -0.873121 0.758603
0.600372 1.94544 2.15637
0.78062 1.92037 2.06592
0.437682 1.96713 2.30803
2.57919 -0.859193 0.977854
0.578283 1.92387 2.55553
0.555037 -0.248709 -2.95313
-0.796876 -0.0815118 -1.9001
0.42663 -0.25494 -2.44394
0.756058 -0.296898 -2.543
-3.71407 0.321989 -0.171269
-3.5337 0.276281 -0.257063
-1.52089 0.638277 -0.907272
-0.946663 -0.0815289 -1.52585
-2.39512 0.775442 -0.0672074
-1.19596 0.594655 -0.631324
-3.73615 0.263074 0.434125
1.21311 -0.407287 -2.10379
-2.26009 0.704239 0.0557156
0.210738 -0.272791 -1.41039
-2.75555 0.589243 0.459225
-1.64755 0.425669 0.0786288
0.156113 -0.319944 -0.899983
-0.477101 0.0930336 -0.333911
-0.375059 0.0657295 -0.261978
-1.44925 0.321256 0.512055
0.695983 0.189757 -0.26969
-1.58741 0.332193 1.18883
-1.73049 0.34769 1.27351
1.36084 -0.544666 -0.532888
-2.02275 0.203945 1.53499
-0.54459 0.188687 0.763978
1.34231 -0.573183 -0.164232
2.01309 -0.650607 -0.522301
1.86828 -0.655562 -0.352327
-0.262746 0.112521 1.00036
-0.887692 0.359001 1.40283
1.65038 -0.627298 -0.131234
1.67298 -0.62992 -0.119531
1.61069 -0.637342 -0.077157
1.96995 -0.671504 -0.278784
1.44749 -0.616557 0.100242
-0.298295 0.102002 1.2088
0.967334 -0.0799418 0.497089
1.83622 -0.652033 -0.00970145
1.94955 -0.65475 0.0033821
2.5019 -0.770711 -0.165621
1.03367 0.0486342 0.796036
1.83176 -0.686073 0.373207
-0.579618 0.39279 1.89701
1.17206 0.157399 0.94437
2.3512 -0.744882 0.201507
0.542206 0.229777 1.51578
1.11327 0.154497 1.19019
-0.805147 0.513456 2.37543
-0.841207 0.521612 2.39822
2.68407 -0.814857 0.248834
2.983 -0.884441 0.289721
2.95728 -0.871076 0.491703
2.48487 -0.812677 0.833173
0.302245 1.98765 2.34178
0.762655 1.91916 2.06489
2.77401 -0.874125 0.787966
2.66906 -0.874615 0.936689
1.84822 0.0261588 1.47434
2.56465 -0.853569 1.0903
0.513817 1.95015 2.45875
0.778047 1.90597 2.29736
0.895019 1.88476 2.26179
3.71608 -0.86153 0.683006
1.16963 1.9109 2.50705
0.998429 -0.310225 -3.23626
-0.895928 -0.0520956 -2.06499
-3.59147 0.266264 -0.260012
-0.372257 -0.157089 -1.85637
-1.22592 0.638654 -0.730559
0.275932 -0.29109 -1.71778
1.70619 -0.483869 -2.18275
-0.0734043 -0.269308 -1.07173
-0.676794 0.134452 -0.585535
-3.26432 0.15904 0.767081
-3.11094 0.160413 0.725858
0.176465 -0.331548 -0.888729
-2.41618 0.293416 1.06864
0.910145 -0.442959 -0.776235
-0.69376 0.269189 0.306029
1.3042 -0.503495 -0.897215
-1.63736 0.36649 0.912552
-0.767145 0.249165 0.446627
0.710828 0.183025 -0.204173
-2.21414 0.225119 1.38403
-0.010961 -0.0641561 0.388262
-0.0950319 -0.0466771 0.4889
-0.378804 0.147951 0.780747
-0.367223 0.144366 0.80225
-1.38097 0.278074 1.37585
1.91764 -0.647927 -0.486025
-0.81086 0.479484 1.32435
1.68659 -0.623031 -0.166387
-0.304501 0.364205 1.76007
0.638956 0.220235 1.27152
2.34465 -0.762985 0.287375
-0.610869 0.397928 2.14941
2.57235 -0.811544 0.355851
3.78657 -0.8844 0.821956
-0.571359 -0.0991667 -2.21236
-1.71519 0.836784 -1.01709
-0.791219 -0.0829498 -1.91921
-3.52864 0.287198 -0.29085
-0.28811 -0.184823 -1.57758
-3.79093 0.291525 0.325014
-2.27606 0.766653 -0.123668
-1.32512 0.630791 -0.591668
1.44821 -0.429473 -2.29809
0.936908 -0.358121 -1.99749
-1.41926 0.428547 -0.283176
0.468727 -0.322897 -1.44175
1.07463 -0.463282 -1.11707
1.15145 -0.516274 -0.806911
-2.25334 0.239608 1.27941
0.657402 0.178148 -0.140065
2.18937 -0.641557 -1.07359
2.1078 -0.635649 -1.02632
-0.821334 0.351363 1.39673
-0.248228 0.0931998 1.19347
1.54501 -0.610482 0.0977863
-1.29998 0.41118 2.1946
2.33166 -0.756848 0.143993
2.30659 -0.78748 0.203786
2.39862 -0.766179 0.242476
-0.0154419 0.301371 1.84105
3.19884 -0.934104 0.729081
-0.527165 -0.117624 -1.98337
0.352434 -0.326852 -1.35211
1.14803 -0.445189 -1.45353
-0.626892 0.221269 0.502567
-0.963024 0.278874 0.798416
0.984585 -0.0917872 0.513774
2.46374 -0.76153 -0.184782
0.883286 0.193756 1.20515
-0.293647 0.348034 1.89555
2.93394 -0.777102 1.07872
-1.2812 0.787067 -1.29685
-0.800316 -0.0889337 -1.83712
-2.42105 0.316343 0.933079
-1.32074 0.251718 1.65743
-0.228348 0.101742 1.02733
-1.66308 0.454379 -0.158504
-1.34247 0.344456 0.367907
-0.596469 0.180305 0.804998
0.0509 -0.118284 0.6874
0.310244 0.27988 1.30747
1.40518 0.122188 0.849155
0.318806 0.281055 1.47294
2.38597 -0.849979 1.04798
-0.439727 0.212183 1.0813
-0.906191 0.325898 1.13943
-1.73953 0.622059 -0.366809
-2.21286 0.725811 -0.0551457
-0.90755 0.409571 -0.404854
1.10062 1.8794 2.55974
-1.20714 0.303037 0.755127
-1.24643 0.236254 1.70296
-3.70993 0.322522 -0.241198
-3.66513 0.264621 0.227248
-3.762 0.266713 0.443644
-3.64556 0.26349 0.220266
-2.29159 0.836638 -0.951967
-3.06365 0.123913 0.956686
-2.48803 0.373884 0.734853
-1.26281 0.0148636 -2.05357
-2.35767 0.32002 0.698543
-1.11033 -0.0133812 -2.13357
-2.61342 0.343623 1.34707
-1.32936 0.644151 -0.63606
-1.28178 0.631389 -0.669823
-1.24869 0.641417 -0.717764
-0.861513 -0.0547705 -2.16186
-0.812828 -0.0571601 -2.06139
-0.841243 -0.0876197 -1.79478
-0.73239 -0.109386 -1.69944
-1.64805 0.35176 0.949604
-2.0134 0.285235 1.66857
-1.62335 0.339419 1.1879
-0.42084 -0.162285 -1.58897
-0.404792 -0.161721 -1.59226
-0.39731 -0.170082 -1.5817
-1.77335 0.129628 1.62758
-1.58467 0.312681 1.45417
-1.59364 0.30905 1.47483
-0.248358 -0.208278 -1.58234
-0.491226 0.140524 -0.478041
-1.37336 0.256785 1.64385
-1.24898 0.24519 1.57068
-1.23686 0.235413 1.5744
-0.491282 0.186769 0.543308
-0.843218 0.335749 1.41367
0.709586 -0.317674 -2.30356
-1.04653 0.457274 2.20526
0.801534 -0.335125 -2.12363
-0.841214 0.425092 2.21068
-0.392456 0.128728 1.08114
-0.196739 -0.0824225 0.734563
0.435303 -0.39028 -0.622231
-0.454183 0.380291 1.83963
0.111492 -0.131168 0.755448
1.33749 -0.460524 -1.94645
-0.186229 0.338091 1.83767
0.0265426 0.323283 1.55612
-0.0473256 0.318528 1.72835
1.30279 -0.500463 -0.986627
0.436019 1.96734 2.30733
0.565001 1.92959 2.56706
0.800423 1.91967 2.06788
1.50039 -0.591875 -0.254042
1.64506 -0.617322 -0.338563
1.68481 -0.608373 -0.386684
2.25785 -0.638528 -1.33399
2.14318 -0.672469 -0.411236
1.85501 -0.710277 0.427294
2.15126 -0.755472 0.68043
2.63437 -0.817125 0.341994
-3.81539 0.297903 -0.104149
-3.52214 0.278356 -0.287166
-3.50318 0.274739 -0.284867
-3.21157 0.225068 -0.212559
-2.18724 0.735367 -0.160261
-2.43785 0.33947 0.809581
-2.3646 0.293797 0.913494
-1.20318 0.613853 -0.637157
-1.4948 0.426099 -0.262562
-0.764662 -0.059144 -2.09926
-0.611185 -0.0880981 -2.27881
-2.0905 0.205459 1.35959
-0.480982 -0.13787 -2.01878
-0.488072 -0.129263 -1.98083
-0.480656 -0.141512 -1.88262
-0.0975041 -0.147745 -2.55861
-1.47917 0.31841 1.09647
-1.57977 0.316814 1.32457
-1.76517 0.134729 1.60315
-0.035548 -0.20504 -2.11892
-1.40056 0.260503 1.65798
-1.04202 0.222986 0.999891
-0.452499 0.0850415 -0.290565
-0.202934 -0.243208 -1.01211
-0.150695 -0.274444 -1.04308
0.854224 -0.281784 -3.0123
0.703097 -0.299052 -2.54355
-0.853679 0.390749 1.38683
0.455053 -0.298332 -1.7995
0.555713 -0.326389 -1.8341
0.140209 -0.316502 -0.819613
-0.141176 -0.044566 0.0636473
-0.406979 0.131893 0.986595
-0.355305 0.12788 0.910456
0.645862 -0.371404 -1.53343
-0.399911 0.124005 1.11204
-0.345208 0.11123 1.09733
-0.596772 0.385693 2.05026
0.233782 -0.0664521 0.0722967
-0.478713 0.363939 1.90598
-0.444874 0.365141 1.97229
1.46626 -0.446883 -2.14488
0.114112 0.291325 1.65262
1.24349 -0.526269 -0.509725
0.541913 1.94254 2.36383
1.29754 -0.573681 -0.17022
0.578052 1.92423 2.55427
1.70433 -0.596068 -0.780688
1.14751 0.169911 0.915179
1.733 -0.680489 0.322603
3.27574 -0.943614 0.555266
-3.72319 0.287541 0.1835
-2.87032 0.675836 0.419865
-2.22506 0.744846 -0.160247
-2.2588 0.724954 0.0332363
-1.83106 0.450955 0.240185
-1.10945 0.633845 -0.825276
-1.13801 0.613371 -0.766973
-1.64507 0.378066 0.170575
-2.34983 0.239708 1.48735
-2.13285 0.211438 1.38495
-2.12642 0.224908 1.56664
-1.15806 0.351696 0.0514305
-1.74303 0.127444 1.61541
-0.174521 -0.191104 -1.62347
-0.474323 0.0939833 -0.332929
0.637225 -0.26855 -2.7429
-0.13904 -0.258455 -1.08765
0.57773 -0.321081 -1.87218
-1.01007 0.462036 2.14411
0.182586 -0.319859 -0.945039
0.81517 -0.364814 -2.02569
0.830956 -0.356969 -2.00607
-0.286514 0.114212 1.03287
-0.0888442 -0.0718105 0.524564
1.20161 -0.402728 -2.18829
0.409039 -0.141884 0.482337
0.309906 0.269503 1.58245
0.393713 0.264557 1.49436
1.19205 -0.51522 -0.60391
0.933126 0.186252 1.10475
0.865278 0.193528 1.26949
2.05843 -0.624717 -1.11864
1.98387 -0.657057 -0.503095
1.82838 -0.668659 0.372338
2.23734 -0.81755 1.24331
2.74258 -0.858381 0.514814
3.02501 -0.910398 0.611767
-3.7836 0.336286 -0.308761
-3.72325 0.326362 -0.331262
-3.72406 0.322891 -0.218904
-2.24932 0.764085 -0.109994
-2.27656 0.698731 0.114785
-2.17137 0.678363 0.000233634
-1.2372 0.627731 -0.705648
-1.39 0.423057 -0.282932
-1.22019 0.582217 -0.430632
-1.76609 0.379549 1.02375
-2.09563 0.226862 1.58949
-1.02983 0.443575 0.244864
-1.32561 0.271883 1.31102
0.634044 -0.246974 -3.02197
-1.38895 0.263534 1.63486
-1.42677 0.257105 1.71467
-0.597156 0.205943 0.46601
-0.332592 0.0545732 -0.0951112
-0.947076 0.347602 1.45213
0.623489 -0.306478 -2.26604
-0.597322 0.176243 0.92344
-0.349726 0.137627 0.910157
-0.376703 0.129444 1.05071
-0.070656 -0.0512791 0.414383
-0.0235444 -0.0990583 0.882976
0.664491 0.200998 -0.232535
0.705916 0.211907 -0.285678
0.660666 -0.197186 0.350769
0.504366 0.249564 1.4596
0.6743 0.242789 1.18834
1.06854 0.166711 1.13485
1.24108 0.16658 0.864862
1.3149 1.39499 2.01869
2.50396 -0.825946 0.41499
2.27782 -0.825861 1.11986
2.8968 -0.89029 0.840221
-3.85926 0.314525 -0.068751
-2.87525 0.678522 0.298964
-2.44856 0.329369 0.49709
-1.07338 -0.00818354 -2.1729
-1.78976 0.447008 0.0161096
-1.51679 0.230678 0.316653
-1.73261 0.387302 0.975896
-1.38975 0.371359 0.393559
-1.04234 0.33705 0.111179
-1.692 0.0925357 1.91676
-1.38669 0.27528 1.52885
-0.605609 0.221014 0.358022
-1.1334 0.217058 1.59302
-1.04338 0.355511 2.01659
-0.479791 0.268669 1.11115
-0.363273 0.141202 0.803702
-0.0414566 -0.00150069 0.456222
-0.754765 0.512764 2.38221
-0.0433483 -0.106701 0.95082
0.173977 -0.091848 0.498791
-0.168279 0.344464 1.63212
1.92374 -0.671047 -0.25863
2.35915 -0.799019 0.404186
2.5821 -0.804142 0.366986
3.81193 -0.888755 0.850099
-3.68581 0.302633 -0.274863
-3.64216 0.313972 -0.202721
-2.91106 0.637988 0.351168
-2.27423 0.76369 -0.137924
-2.4219 0.302507 0.915654
0.260892 -0.254175 -1.99267
-0.878401 0.494903 1.22733
-1.02782 0.32064 1.46629
1.23689 -0.558042 -0.159054
2.58419 -0.840984 0.881249
-2.52791 0.701452 0.01141
-1.4472 0.673928 -0.573494
-1.40229 0.351654 0.445925
-0.642559 0.0771174 -0.235723
-0.179085 0.341533 1.84455
-0.412782 0.0331604 -0.129216
1.22318 1.53582 2.07372
2.37498 -0.814985 1.04745
-1.85976 0.161745 1.70479
-0.265269 -0.0335846 0.00954136
0.462962 -0.191885 0.56561
1.8168 -0.656741 -0.328962
-2.02658 0.349086 0.827637
-1.02419 0.438398 -0.822137
0.914613 -0.0423429 0.723709
-2.39375 0.330087 0.819411
-1.41833 0.3104 0.866684
-1.1641 0.303076 0.725672
-4.17135 0.357055 0.185852
-3.79332 0.301925 -0.00422328
-3.67704 0.262449 0.236736
-3.06168 0.134222 0.893261
-2.76656 0.587659 0.489618
-2.53032 0.382336 0.666236
-2.34647 0.839338 -0.929494
-1.55235 0.312124 1.33388
-1.74532 0.665697 -0.77912
-1.45824 0.309194 1.12612
-1.41686 0.333745 0.692826
-1.3532 0.388398 0.389788
-1.39803 0.653436 -0.627183
-0.823081 0.417467 2.21526
-1.36725 0.649159 -0.582161
-1.01379 0.224462 0.992834
0.310313 1.96875 2.58745
-0.679748 0.215817 0.646279
0.437258 1.96667 2.30629
-1.13094 -0.0107739 -2.13491
-0.719839 0.105784 -0.49716
-0.458175 0.180829 0.548233
-0.342009 0.122581 1.07473
-0.397544 0.0746622 -0.273212
0.0886376 0.308516 1.53059
-0.743239 -0.103392 -1.71106
-0.730167 -0.109573 -1.69633
0.751296 1.91528 2.25173
0.10787 0.307292 1.52226
-0.229917 -0.0420595 0.331276
-0.6916 -0.101061 -1.89562
0.868237 1.8857 2.25833
0.0887011 0.0258776 0.498599
0.10614 -0.133611 0.753803
-0.467348 -0.13031 -2.11181
-0.242221 -0.184135 -1.86579
-0.113271 -0.202062 -1.76457
-0.0974552 -0.205274 -1.75778
0.139293 -0.31747 -0.820788
0.434116 -0.39087 -0.621552
0.970185 -0.0107211 0.713582
0.971614 -0.0083887 0.664948
1.22181 0.161646 0.855218
1.57846 -0.621355 -0.0763201
-3.76745 0.266023 0.601485
-3.73882 0.28399 0.143106
-3.69776 0.305868 -0.339432
-3.64419 0.287569 -0.284184
-2.45979 0.758103 -0.157987
-2.45059 0.739815 -0.12682
-2.20236 0.721116 -0.108893
-2.18744 0.737627 -0.157135
-1.84576 0.117809 1.91138
-2.00713 0.801721 -1.13119
-1.39075 0.323946 0.642212
-1.40542 0.383062 0.428293
-1.39137 0.662347 -0.643851
-0.999003 0.371849 1.44328
-0.925714 0.445555 1.35781
-0.955937 0.451185 1.22147
-1.19755 0.594801 -0.436785
-1.09985 0.625746 -0.84508
0.292525 1.97715 2.61098
0.479178 1.93597 2.65814
-0.40587 0.129196 0.985385
-0.356519 0.128803 0.91472
-0.545846 0.465896 -1.01849
0.000800253 0.323215 1.54516
-0.115572 0.0689608 1.14558
-0.15438 -0.079058 0.678678
-0.731504 -0.065525 -2.26379
0.870474 1.90288 2.16238
-0.607764 -0.0905663 -2.28136
0.0207394 -0.059839 0.356546
0.0711837 0.0270451 0.4642
0.0940214 -0.0311156 -0.126237
-0.146408 -0.282023 -1.05308
1.13077 1.86739 2.41021
-0.182456 -0.219304 -1.56143
0.478566 -0.199304 0.67697
0.50647 -0.198726 0.683993
0.109385 -0.296424 -1.09682
0.23765 -0.342531 -0.656294
0.679951 -0.212099 0.346968
0.0518235 -0.178381 -2.69021
0.308749 -0.313929 -1.69037
0.45026 -0.3618 -0.997521
0.266861 -0.256392 -2.18253
0.980868 -0.00589461 0.685941
0.849711 -0.0216058 0.00318683
0.538896 -0.329137 -1.80598
0.807588 -0.330703 -2.30448
1.257 -0.555534 -0.195543
1.28152 -0.579086 -0.149855
1.53405 -0.610711 -0.222214
1.40361 -0.532578 -1.0287
1.57376 -0.568037 -1.0379
1.70564 -0.596428 -0.782008
2.29931 -0.830854 1.22245
-3.75607 0.261849 0.587083
-3.72166 0.280466 0.177906
-2.90523 0.745036 0.285454
-3.23355 0.196453 -0.0207339
-2.24153 0.763501 -0.0954128
-2.04278 0.597051 0.797629
-2.18481 0.689885 0.00791299
-2.11247 0.754149 -0.267369
-2.08886 0.699611 0.0566377
-1.85732 0.474 0.00737419
-1.38374 0.25579 1.66737
-1.36481 0.277444 1.35502
-1.40719 0.334645 0.831333
-1.35265 0.648057 -0.617252
-0.848528 0.480019 1.36506
-1.20418 0.346186 0.0501666
-0.862502 0.321715 1.44744
-1.19658 0.588659 -0.631259
-0.704241 0.416671 1.26378
0.627707 1.91498 2.5153
-0.538668 -0.124971 -1.97501
-0.139692 -0.261268 -1.08943
-0.225253 -0.197867 -1.80979
-0.0919772 -0.218093 -1.73142
1.02781 -0.0806117 0.335313
1.03789 -0.084673 0.388972
1.04636 -0.0754484 0.354712
0.797478 -0.337343 -2.44161
1.19393 -0.528364 -0.405165
1.34974 -0.598676 0.129992
1.19621 -0.4509 -1.46787
1.5685 -0.607931 -0.214218
1.4755 -0.523964 -1.28557
1.20563 -0.366459 -2.72421
1.25932 -0.371843 -2.67199
1.58457 -0.556544 -1.0563
1.94451 -0.667347 0.013555
1.99938 -0.621407 -1.18685
2.38187 -0.762397 0.305706
3.02055 -0.893689 0.325365
-4.17516 0.363555 0.133161
-3.78425 0.268509 0.341476
-3.71536 0.308999 -0.373729
-3.19338 0.209627 -0.0833312
-1.74306 0.391175 0.987036
-1.46336 0.26016 0.273747
-1.35736 0.401661 -0.235804
-1.28198 0.367873 -0.00340883
-1.11406 0.544225 -0.631519
-0.331541 0.362696 1.78703
-0.466336 0.172524 0.717132
0.180325 0.13427 1.2928
0.084888 -0.142393 0.899816
1.19264 1.44424 1.83675
0.437634 -0.362051 -0.89962
0.57951 -0.331228 -1.73243
1.74507 0.0617672 1.25923
1.80581 0.0479198 1.4651
1.71744 -0.673831 0.228531
2.27391 -0.824482 1.12493
1.80939 -0.548712 -1.52546
2.51146 -0.824818 0.416144
2.56537 -0.817138 0.369388
2.91844 -0.872286 0.170283
3.23435 -0.93529 0.632793
-3.72197 0.327901 -0.267556
-3.67903 0.316782 -0.266743
-1.82583 0.4644 -0.00121847
-1.62852 0.359731 0.918681
-1.38189 0.247617 1.93318
-1.21814 0.619297 -0.757725
-0.596126 0.214039 0.397402
0.275706 0.272511 1.56891
1.0149 1.76986 2.04462
0.178334 -0.317831 -0.893072
0.640885 0.204932 -0.29602
0.65186 0.198451 -0.259702
1.52161 -0.639654 0.325914
1.81379 -0.677142 0.35094
2.18366 -0.784317 1.0724
2.41727 -0.795979 0.396117
2.37098 -0.692124 -0.681359
2.96689 -0.869667 0.196251
3.70371 -0.859964 0.716065
-2.66525 0.633129 0.0317813
-0.316763 0.359729 1.74042
-0.606887 0.201917 0.646323
-0.392897 0.143506 0.912458
0.945146 1.87191 2.36584
1.04894 0.172353 1.09847
1.1429 -0.439769 -1.46899
1.57284 -0.617028 -0.190893
1.74478 -0.676825 0.160209
1.98291 -0.617039 -1.15538
3.48271 -0.859211 0.986442
-3.74544 0.283557 -0.0238076
-2.62543 0.534108 0.808083
-2.6111 0.57059 0.117677
-1.19047 0.307195 0.086863
-0.700092 0.213831 0.726216
-0.536829 0.276388 1.14735
1.93893 -0.644842 -0.512316
-1.40949 0.324193 0.602908
-1.31045 0.373014 0.578115
-1.17224 0.601204 -0.793883
3.74563 -0.862674 0.764308
-0.475926 0.199199 1.31317
3.86471 -0.935752 0.801384
-1.63658 0.35652 0.198455
-0.867288 0.39101 -0.0570655
-0.023356 0.336041 1.62169
-1.96879 0.604093 0.372204
-1.89213 0.520487 0.527449
-1.65007 0.434396 0.00664753
-1.73418 0.39 0.60244
-0.951603 0.462343 -0.416306
-0.61678 0.330649 -0.804851
0.200729 1.98413 2.6673
-3.74851 0.276339 0.405923
-3.75017 0.286868 0.11966
-2.93004 0.814007 0.33081
0.518942 1.94083 2.45843
0.391176 1.97326 2.29438
-3.69567 0.309722 -0.386897
-1.35404 0.272375 1.36261
-3.26852 0.232395 -0.272516
0.75102 1.91289 2.2514
-0.938343 0.439359 1.36901
-0.834776 0.486384 1.36708
-0.89978 0.507406 1.2482
0.898188 1.88882 2.22407
-0.932944 0.467357 1.19133
-0.0404411 0.31125 1.76363
-0.0364501 0.314205 1.74954
-0.569209 0.288031 1.19305
-1.38163 0.367515 0.442194
-0.226307 0.0887718 1.16731
0.426705 0.257021 1.47178
-0.513676 0.180991 0.590314
0.650983 0.221419 1.36395
-1.94542 0.791288 -1.1544
0.0522224 0.0314434 0.518939
0.804568 0.212781 1.1596
0.789536 0.211867 1.13807
0.872303 0.214574 1.01059
-0.528664 0.307632 -0.77777
-0.86675 -0.0832016 -1.60453
-0.886957 -0.0726408 -1.78941
2.20338 -0.79672 1.10563
-0.235929 -0.204342 -1.28747
-0.751048 -0.0726093 -2.02197
-0.601311 -0.104761 -1.94706
2.46154 -0.810699 0.821155
2.54008 -0.822859 0.783501
0.627788 -0.371647 -1.2932
-0.0922102 -0.183791 -2.18297
1.8194 -0.61307 -0.702918
0.131514 1.99663 2.66023
-2.03268 0.283603 1.72321
0.187993 1.99403 2.56444
-2.01319 0.276884 1.71966
0.312891 1.96967 2.58735
-2.29972 0.250441 1.31352
-1.02496 0.45579 2.18078
-3.73368 0.288273 0.145084
-2.15562 0.224247 1.37648
-2.13804 0.213535 1.39042
-3.79459 0.306192 -0.0270086
-1.44904 0.272054 1.67768
0.540968 1.94468 2.36404
-3.64519 0.287354 -0.287487
-1.2552 0.241304 1.56964
-2.67679 0.618526 0.0283047
-0.324824 0.365515 1.77765
0.897991 1.8886 2.23701
0.899454 1.89154 2.19213
-0.646773 0.209104 0.626384
-0.388378 0.149023 0.802515
-1.91626 0.68931 -0.676116
-1.22591 0.367633 -0.103559
-0.671285 0.268428 0.309767
-0.196078 -0.0804381 0.73635
0.635556 0.22097 1.40083
-0.566878 0.224414 0.306304
-0.153146 -0.0841014 0.699605
0.185117 -0.162574 0.875984
-1.31637 0.631915 -0.637758
-1.25636 0.647174 -0.687839
0.0206141 0.0324255 0.489783
-0.236316 -0.0332533 0.27043
0.0893887 0.025953 0.49845
-0.68114 0.141691 -0.258412
0.0841717 -0.0652393 0.361859
0.229955 -0.0683761 0.0705394
0.984265 -0.00334283 0.712677
0.849524 -0.0222813 0.00457278
-0.206731 -0.247293 -1.0068
-0.0912095 -0.267177 -1.03054
0.124535 -0.315274 -0.839364
-0.72581 -0.109411 -1.69093
2.31755 -0.825041 1.23783
-0.164055 -0.241326 -1.39897
1.695 -0.653209 0.324739
-0.184326 -0.203609 -1.62486
-0.513258 -0.128867 -1.99044
-0.541621 -0.10041 -2.30204
1.26448 -0.523335 -0.626183
1.97924 -0.659668 -0.292572
-0.0614693 -0.181205 -2.41259
2.35318 -0.739013 -0.0277176
0.80637 -0.386182 -1.60518
3.50436 -0.86403 0.969863
2.29793 -0.715788 -0.261767
0.514265 -0.302291 -2.06187
2.94436 -0.864648 0.162385
2.35876 -0.712393 -0.639033
0.775698 -0.319797 -2.47082
0.518038 -0.237631 -2.98998
0.960886 -0.299713 -2.95992
-2.12553 0.242414 1.57608
-3.71936 0.284306 0.183094
-2.0027 0.20164 1.53273
-3.88582 0.349185 -0.243279
-2.89591 0.738093 0.343745
-3.63589 0.284189 -0.263067
-3.60871 0.271701 -0.254175
-1.16765 0.226584 1.50637
-1.7053 0.404097 0.876361
-1.60532 0.364975 0.879536
-0.895564 0.355242 1.43288
0.919421 1.88573 2.24832
-2.33645 0.754802 -0.0313499
-2.19253 0.710799 -0.0860446
-1.72262 0.413966 0.284438
-1.68526 0.419684 0.172195
-1.47382 0.245701 0.277799
-0.405162 0.131208 1.1055
-0.282342 0.110403 1.0346
-1.07305 0.425254 0.26032
-1.36241 0.376737 -0.011988
-1.17076 0.348219 0.0232122
-0.543575 0.192807 0.559155
-1.20662 0.613778 -0.644767
-1.19407 0.611108 -0.688907
-0.0301141 -0.0362518 0.413345
-0.0529267 -0.0606465 0.386464
0.134684 -0.101086 0.173329
0.108296 -0.0853768 0.128516
-0.235931 -0.245759 -0.996277
0.261092 -0.35316 -0.629762
-0.791528 -0.0894226 -1.66837
-0.120796 -0.271296 -1.05616
-0.101432 -0.265265 -1.06811
-0.808116 -0.0784148 -1.90732
1.45977 -0.611865 0.203734
1.28832 -0.562307 -0.170347
0.206929 -0.295034 -1.31368
1.94638 -0.659862 0.12474
2.78277 -0.867186 0.752659
1.43312 -0.568452 -0.58019
2.70162 -0.847312 0.665417
1.04898 -0.460815 -1.16633
-0.0120235 -0.206535 -2.29081
0.550358 -0.32633 -1.77248
1.99204 -0.643027 -0.34508
-0.0879442 -0.182639 -2.40729
2.52765 -0.788169 0.157901
3.02454 -0.901793 0.327373
1.03898 -0.423609 -1.666
2.51411 -0.765808 -0.214299
1.43495 -0.513539 -1.29465
0.812522 -0.367409 -2.02826
1.0865 -0.418449 -1.78303
0.281249 -0.206144 -2.76425
0.29747 -0.209026 -2.7752
1.81402 -0.546764 -1.52222
1.18911 -0.359776 -2.75679
-4.23574 0.390333 0.152338
-4.1612 0.349419 0.181109
-2.30457 0.286737 1.03437
-1.01835 0.368334 1.99523
-1.4197 0.261234 1.67871
-1.37015 0.252299 1.67312
-3.67129 0.307483 -0.30936
-3.64187 0.299606 -0.341203
-1.64589 0.323538 1.2422
-1.41961 0.271863 1.39289
-1.64093 0.340122 1.14211
-3.1945 0.207738 -0.0863004
-0.565729 0.401465 1.89194
-0.876231 0.464363 1.17201
-1.46918 0.33652 0.492645
-1.71763 0.41398 0.240235
-1.87285 0.484205 -0.001525
-0.565025 0.175129 0.909894
-0.362492 0.122677 1.092
-0.767969 0.24069 0.494372
0.185335 0.148884 1.2984
-0.419375 0.159968 0.739175
0.487667 0.244072 1.4648
-2.15232 0.814516 -1.01675
-0.362848 -0.00675293 0.244679
-1.15916 0.585195 -0.665779
1.04401 0.0459034 0.815515
1.82401 0.0346338 1.50183
-0.72223 -0.102258 -1.73324
-0.227325 -0.215932 -1.57364
1.49698 -0.621609 -0.00631253
1.19489 -0.530941 -0.349318
1.60963 -0.620484 -0.114461
2.17509 -0.744596 0.250419
0.652867 -0.380882 -1.26664
2.64204 -0.838846 0.448836
1.95484 -0.665185 -0.284224
1.61178 -0.575756 -0.78739
1.45204 -0.543129 -0.959456
1.47726 -0.537597 -0.965123
2.45488 -0.744582 -0.282986
-2.26591 0.237173 1.3565
-2.29947 0.32342 1.08781
-0.643459 0.399634 2.13753
-3.68746 0.316514 -0.268261
-3.70933 0.310182 -0.374702
-2.32774 0.298378 0.709767
-0.340865 0.366722 1.78506
-1.64209 0.35859 0.173141
-0.42682 0.140001 0.975404
-0.313571 0.124235 1.05142
-0.636777 0.197707 0.667313
-0.291879 0.112578 0.941669
-0.781315 0.250245 0.440023
0.473959 0.244314 1.49624
-0.202299 -0.0429433 0.20467
1.84869 0.0324184 1.46457
0.667089 -0.206365 0.350284
1.34281 0.142309 0.821333
-0.762404 -0.0988416 -1.73185
1.55233 -0.647483 0.300934
0.377608 -0.350206 -0.993048
2.15663 -0.766654 0.679355
2.61238 -0.822499 0.315919
0.214542 -0.243308 -2.23017
-0.0547972 -0.160243 -2.59439
0.00456697 -0.173791 -2.55398
1.12398 -0.44303 -1.45641
2.91484 -0.863489 0.177327
3.07784 -0.88396 0.294669
2.4428 -0.715014 -0.484399
2.46059 -0.719294 -0.542901
2.4127 -0.700814 -0.594603
1.28902 -0.38811 -2.61507
-4.00132 0.338056 -0.012218
-2.75839 0.573801 0.475924
-1.40169 0.265506 1.60729
-1.72806 0.370948 1.03318
-1.71308 0.383748 0.957688
-0.503683 0.166328 0.827145
-0.700981 0.255719 0.382698
-1.34336 0.648047 -0.600604
-1.3813 0.604574 -1.13844
0.98923 -0.0776591 0.584342
0.782669 0.145829 -0.32383
1.79408 -0.675507 0.293656
1.70321 -0.641677 0.0952139
-0.409115 -0.156045 -2.08526
2.46946 -0.813321 0.378444
1.42973 -0.51011 -1.12449
1.12104 -0.435408 -1.54146
2.27795 -0.712779 -0.674913
-1.70176 0.369589 0.36807
-1.7126 0.450301 -0.092679
-1.15751 0.590876 -0.69985
2.36142 -0.714783 -0.621284
-1.10384 0.217212 1.04858
-1.69877 0.466397 -0.146562
-1.4508 0.668317 -0.65493
1.07836 -0.485614 -0.759318
-1.17829 0.276761 0.509988
-0.758953 0.228505 0.597181
0.335454 0.266814 1.3613
-0.141654 -0.079037 0.617217
-0.310346 -0.000227073 0.231817
0.889076 -0.145371 0.546571
0.147312 0.135938 -0.374569
-1.65116 0.439551 -0.090261
-1.47203 0.429059 -0.206633
0.671518 1.91123 2.5319
0.631966 1.91449 2.52478
0.467193 1.95509 2.39121
0.943223 1.872 2.35483
0.391762 1.97326 2.29359
0.595554 1.94726 2.15951
-1.05992 0.457871 2.21413
-0.526413 0.395475 1.89956
-0.498347 0.385792 1.89553
-0.539697 0.392343 1.88355
-2.01917 0.282012 1.70486
-1.02321 0.317946 1.49488
0.0180006 0.317674 1.57244
0.498161 0.245019 1.41273
-1.60311 0.349127 1.14712
-2.58474 0.363803 1.04409
-0.548955 0.286692 1.20417
-2.45274 0.348925 0.910644
-2.47201 0.395519 0.855943
-0.409261 0.129691 0.980993
-0.425401 0.138629 0.969947
1.07885 0.161309 1.12468
-4.02127 0.311349 0.404767
-1.11514 0.242959 0.686742
-2.58346 0.405293 0.464841
-0.676674 0.21606 0.653335
-1.50008 0.317846 0.543427
-1.41945 0.364105 0.45473
-1.4015 0.367054 0.447099
-1.39553 0.376396 0.431785
-4.00971 0.339642 0.0559555
2.15245 -0.770221 0.790449
-0.045823 -0.00260267 0.509879
0.954346 -0.0733738 0.481673
-3.76487 0.315507 -0.151688
3.03701 -0.911722 0.625897
-3.71124 0.321172 -0.240512
1.01203 -0.0802581 0.384083
-2.45738 0.788786 -0.0433945
-3.27995 0.242673 -0.325739
-3.30457 0.247485 -0.325816
0.069474 -0.0798056 0.135533
0.300063 -0.086556 0.127188
-2.10954 0.742714 -0.238123
1.63259 -0.628117 0.14979
-2.3193 0.74569 -0.45071
-0.4433 0.078016 -0.27415
-0.475967 0.0743007 -0.311996
1.55726 -0.611382 -0.219981
-1.40125 0.655082 -0.625254
-0.841767 0.184514 -0.651137
-0.86033 0.192073 -0.65641
1.68145 -0.613222 -0.399913
-2.34348 0.835753 -0.928705
-2.32193 0.833969 -0.935067
-0.252126 -0.247548 -0.975667
0.799557 -0.411254 -1.26285
-1.32843 0.0248194 -2.00859
-0.833974 -0.0654417 -1.96685
0.434328 -0.270716 -2.36722
0.984935 -0.29771 -2.96942
0.864275 1.94295 2.86644
0.216018 1.98122 2.62782
0.317224 1.97218 2.56894
0.139966 2.00153 2.55515
0.515013 1.94122 2.45877
0.440923 1.96531 2.30928
0.864793 1.89171 2.25683
0.913463 1.88604 2.2385
0.897868 1.88891 2.23459
0.929213 1.88559 2.23391
-0.99806 0.437558 2.29069
-0.74895 0.412399 2.16104
-0.661311 0.408285 2.12209
-0.865771 0.440462 2.10248
-0.542681 0.406367 1.79939
-1.23078 0.225252 1.72014
-0.0934448 0.32767 1.78728
-1.76747 0.13165 1.63138
-1.76687 0.135009 1.60345
-1.29151 0.245253 1.59413
-2.61161 0.338038 1.34226
-1.88001 0.167005 1.40202
-2.21518 0.224501 1.35084
-2.62611 0.332525 1.30068
-0.878402 0.33578 1.45237
-0.937833 0.377363 1.44299
-1.57871 0.336297 1.16304
-1.54871 0.333266 1.14086
-1.50986 0.324238 1.11555
1.73463 0.0439471 1.40703
-0.555688 0.284444 1.14286
0.661636 0.23199 1.23368
-2.40563 0.326265 0.900397
0.637743 0.23373 1.21509
-0.252183 0.105034 1.02765
-2.58062 0.44674 0.706232
0.872482 0.213221 1.0113
-3.77183 0.271638 0.445766
2.23304 -0.795703 1.05433
0.0767703 -0.12658 0.763305
-3.67361 0.267585 0.204057
-0.679587 0.228537 0.508662
-0.00176595 -0.0202486 0.581143
-2.50829 0.411721 0.274234
2.46718 -0.811127 0.820917
0.0699761 0.00390122 0.543599
-4.06821 0.371501 -0.037134
0.0688895 0.0346593 0.471464
-3.88947 0.313323 -0.0398297
2.55519 -0.824814 0.739437
-3.91013 0.343794 -0.100346
2.19781 -0.76501 0.629791
2.32269 -0.780745 0.607317
3.02552 -0.895219 0.652306
-3.59273 0.300923 -0.186601
-3.70184 0.30795 -0.20359
-3.79493 0.336202 -0.299943
-3.64065 0.286774 -0.287083
-1.37978 0.37982 0.033313
-2.36018 0.746254 -0.0791694
1.81847 -0.689096 0.382019
-3.29971 0.251186 -0.308518
1.63111 -0.638161 0.297363
2.43359 -0.775951 0.375416
2.43988 -0.774452 0.362543
-1.50142 0.423302 -0.242239
1.94743 -0.679623 0.0536822
1.57885 -0.633793 -0.077091
2.26822 -0.7252 -0.00377651
1.64137 -0.630776 -0.100147
1.66184 -0.62628 -0.111722
1.3203 -0.565563 -0.180791
1.27925 -0.54921 -0.256807
-1.29685 0.624912 -0.602571
1.97229 -0.662709 -0.274269
2.01037 -0.671508 -0.278618
-1.22562 0.63497 -0.670392
-0.850028 -0.0937136 -1.75787
1.10214 -0.43213 -1.47698
-0.53713 -0.123886 -1.94572
-1.02058 -0.0223734 -2.0908
-0.412468 -0.150111 -2.07156
-0.365607 -0.136388 -2.20227
-0.902859 0.441716 2.09834
-1.83457 0.116185 1.8874
1.26133 1.38256 1.88612
-0.589448 0.409191 1.86108
-0.546636 0.401346 1.86299
-0.179058 0.341646 1.83771
-2.02963 0.210501 1.53825
0.0686724 0.297918 1.59024
-2.35038 0.255399 1.30504
-0.873176 0.354162 1.40938
0.268909 0.278491 1.40491
-0.466504 0.167648 1.3278
-2.55272 0.353169 1.00889
-0.244915 0.0950193 1.14628
-0.320325 0.114719 1.09752
-3.09788 0.142491 0.740864
-0.00343953 -0.123091 0.913753
2.50254 -0.845132 1.12021
2.56193 -0.856428 1.08863
0.0803029 -0.127501 0.749185
0.2322 -0.154143 0.695237
-4.17102 0.355862 0.157909
-0.0910594 -0.0622549 0.522832
0.0960233 0.0168177 0.474419
-0.0341201 -0.0591243 0.402191
0.938249 -0.0609894 0.506337
2.21046 -0.762236 0.614564
0.928133 -0.0675465 0.485695
0.947146 -0.0812696 0.451904
-2.26471 0.702855 0.059874
-1.85553 0.476478 0.0733642
0.663112 -0.202339 0.346582
1.79118 -0.706408 0.410104
0.276403 -0.085338 0.11459
2.15134 -0.749794 0.311421
2.67117 -0.823236 0.329735
3.15642 -0.907039 0.383329
2.94025 -0.869999 0.303225
-1.488 0.430534 -0.26052
1.61751 -0.644944 -0.0788944
-2.09781 0.699493 -0.539852
-2.05736 0.70518 -0.618481
1.46356 -0.594773 -0.235618
2.90717 -0.840555 -0.0426142
-1.90616 0.678316 -0.64398
-1.13384 0.591496 -0.595732
2.53043 -0.747678 -0.232622
2.37128 -0.722263 -0.267129
1.85529 -0.645856 -0.366163
0.228043 -0.342086 -0.664663
2.00922 -0.65652 -0.494108
0.133429 -0.31384 -0.820053
-0.210231 -0.248928 -0.978458
0.759743 -0.437046 -0.890109
0.428274 -0.360278 -0.986141
1.7419 -0.596865 -0.794279
1.3062 -0.505546 -0.897288
-0.0989667 -0.25112 -1.12531
2.19216 -0.630307 -1.11112
-0.235774 -0.213431 -1.58247
-0.742071 -0.0969191 -1.66423
-0.0139034 -0.240439 -1.63121
-0.0420331 -0.217881 -1.72348
-0.202393 -0.203962 -1.78446
-0.660172 -0.103711 -1.87958
1.31032 -0.466031 -1.94432
-0.610099 -0.0788482 -2.29393
1.33584 -0.443712 -2.00006
0.779981 -0.323089 -2.32669
0.96748 -0.29646 -3.21587
-0.607027 0.390082 2.14716
-1.29536 0.231574 1.79576
-1.24756 0.218532 1.77812
-1.89567 0.177633 1.71371
-0.340742 0.371391 1.77894
0.319205 0.270501 1.56704
-1.38607 0.280516 1.38554
-1.49944 0.298835 1.3217
-1.5862 0.317972 1.31947
-0.741385 0.342667 1.12631
-0.272342 0.110372 1.0044
2.33576 -0.809994 1.07301
-2.63926 0.446018 0.485812
-0.613228 0.204003 0.640784
-2.90219 0.729918 0.339856
0.493301 -0.207628 0.712266
-0.066596 -0.0635448 0.563131
-0.848189 0.2561 0.462935
-0.0956422 -0.04256 0.49192
-0.0857308 -0.0536908 0.418562
-0.00230387 -0.0676601 0.383076
-1.62491 0.421339 0.0854819
-2.2101 0.703026 -0.0088959
-3.58677 0.270608 -0.262468
-3.79367 0.334572 -0.321956
-3.73011 0.315166 -0.333031
0.0345818 -0.072953 0.123096
-2.46761 0.770258 -0.185926
-2.20763 0.744521 -0.156988
2.58477 -0.820888 0.351847
-0.293468 0.0310805 0.00221202
2.98314 -0.886708 0.294999
3.09754 -0.8954 0.310444
3.02544 -0.895422 0.269446
1.73088 -0.629165 -0.0291955
1.51481 -0.591766 -0.217549
-0.876561 0.137073 -0.52077
-1.85091 0.684889 -0.730835
1.6627 -0.62571 -0.357346
-1.47124 0.625506 -0.89789
2.19415 -0.676003 -0.592493
0.267165 -0.331061 -0.931724
0.371194 -0.346038 -0.987321
0.409405 -0.356898 -1.00699
1.43052 -0.534427 -0.984105
-1.352 0.873211 -1.40707
0.112348 -0.248491 -1.6892
0.547585 -0.320423 -1.77226
-0.214561 -0.177381 -2.17056
0.69672 -0.318381 -2.25749
0.782113 -0.312558 -2.47022
-0.0101383 0.303731 1.83904
-1.40514 0.267193 1.53506
-1.53354 0.291149 1.51417
-1.47259 0.284518 1.4148
-1.41818 0.290298 1.35487
-1.5437 0.306336 1.34253
-1.39131 0.279715 1.32962
0.558489 0.230332 1.50602
-1.54586 0.310218 1.29868
-1.68394 0.335429 1.25976
-1.43123 0.297958 1.28406
-0.817554 0.487092 1.29819
1.26071 1.29911 1.41464
-1.50391 0.300877 1.14526
0.175739 0.150034 1.30204
-1.77713 0.371946 1.07098
0.217728 0.161945 1.28067
0.55616 0.246112 1.26132
-2.53072 0.424256 0.88041
-0.23999 0.0895985 1.02508
-0.449571 0.140347 0.968557
-3.80438 0.285729 0.470858
-0.401204 0.157062 0.781184
-0.532377 0.174055 0.766455
-0.572262 0.187378 0.745084
-0.531026 0.178952 0.723135
-0.490361 0.17013 0.570289
-0.764567 0.238439 0.497515
-3.79106 0.342113 -0.01083
3.11316 -0.932698 0.68941
2.74595 -0.85302 0.639169
0.465918 -0.182216 0.328032
-3.69826 0.318152 -0.281232
-3.78721 0.31643 -0.299414
-3.7074 0.310357 -0.364365
1.76977 -0.65709 0.204138
1.86389 -0.66899 0.0345684
0.631922 0.155418 -0.16267
1.81853 -0.652248 -0.124899
-1.21363 0.575438 -0.447988
-2.04616 0.70554 -0.579248
1.55799 -0.597779 -0.284817
-1.23301 0.593848 -0.610608
2.41334 -0.751114 -0.215615
2.51164 -0.767409 -0.211274
-1.26574 0.622274 -0.624993
1.2303 -0.515665 -0.660677
-1.85258 0.895894 -1.44071
1.61382 -0.47974 -2.06307
0.459074 1.95823 2.39652
0.410651 0.255849 1.46706
-2.57264 0.49631 0.878038
-3.16272 0.158964 0.71104
-0.614499 0.177853 0.871659
0.127612 -0.149439 0.815061
1.43872 0.118688 0.91628
-0.11285 -0.0825188 0.603044
2.60591 -0.840801 0.540318
-2.1648 0.686904 -0.0470817
2.75466 -0.860565 0.514511
-0.197049 -0.0359912 0.042314
-2.26844 0.728552 -0.177929
2.48891 -0.794872 0.135837
2.47275 -0.739172 -0.516064
0.25609 -0.252814 -1.9983
-0.660237 0.397361 2.13466
-0.253232 0.35533 1.76958
-0.0460967 0.31427 1.77613
-0.0994426 0.322146 1.68962
0.239473 0.286911 1.43026
-2.39419 0.310133 0.712841
-1.18128 0.358758 0.807994
3.52098 -0.862339 0.940895
0.483113 -0.25457 -2.55539
-0.00261474 0.299746 1.84813
-2.31528 0.293817 0.976124
-1.43357 0.352096 0.493553
0.393048 -0.176346 0.478888
-1.27164 0.517583 -0.3329
0.725411 -0.306964 -2.29846
-1.63843 0.334605 0.505194
-0.280813 0.0139115 0.226436
0.650716 0.0234163 -0.0564517
1.23388 -0.430982 -2.0751
-2.12976 0.707443 0.160211
-0.507477 0.0637137 -0.256611
0.921007 1.87516 2.36398
-1.22652 0.285036 0.208061
1.13673 1.90476 2.60414
-1.28404 0.204939 1.66507
-1.16742 0.334544 0.245294
1.29983 -0.536624 0.178693
-1.26322 0.0144427 -2.05352
0.425815 -0.251274 -2.53266
-0.387492 -0.15538 -2.07193
-0.750745 -0.102289 -1.87502
-2.08157 0.716169 -0.675936
-3.44282 0.266659 -0.298179
-2.11856 0.716881 -0.566667
0.616199 -0.294419 -2.26558
0.124214 -0.242113 -1.95067
-0.337839 -0.181055 -1.69587
0.432576 -0.293657 -2.03178
-3.67937 0.260722 0.240334
-3.61575 0.2747 0.223279
-2.22736 0.742399 -0.169018
0.852039 -0.359794 -2.04098
-2.25229 0.763359 -0.0743505
-2.18929 0.71091 -0.0030648
-0.186201 -0.237265 -1.16531
1.18107 -0.434636 -1.86114
0.694619 -0.376707 -1.55958
-3.33365 0.181517 0.750575
1.1065 -0.447015 -1.46969
-2.55362 0.411976 0.706092
0.61993 -0.376665 -0.985879
-2.5507 0.354243 1.00881
1.36473 -0.511411 -1.13838
1.90659 -0.575204 -1.36187
-2.21781 0.224959 1.35693
-2.36649 0.244113 1.53103
-0.608001 0.205472 0.613542
-1.62018 0.334715 1.187
1.1525 -0.51516 -0.396343
1.83595 -0.603601 -0.726487
-1.04459 0.220336 1.02788
0.0858905 0.0252073 0.46983
-2.02824 0.2882 1.66597
-0.930592 0.450051 1.20564
-1.76527 0.135284 1.60122
1.81063 -0.644233 -0.418701
1.53376 -0.616876 -0.231104
-0.833317 0.504861 1.30071
-1.46098 0.26823 1.69022
-0.884167 0.35826 1.40485
2.46215 -0.720816 -0.615393
0.223215 -0.163731 0.711471
1.39021 -0.589892 -0.00404402
-1.21583 0.229035 1.57935
-0.228074 0.0862429 1.02778
1.59725 -0.632531 -0.0907701
-0.488877 0.219042 1.20363
1.79195 -0.65422 -0.151057
-1.7389 0.0917543 1.94371
1.56112 -0.634409 0.229752
-0.52802 0.399797 1.87734
0.033874 0.314228 1.5567
0.0893501 0.307055 1.52243
1.21334 0.155744 0.882521
0.103188 0.297987 1.53335
2.07737 -0.714565 0.289311
-0.0969951 0.329492 1.66911
1.36122 0.132428 0.817119
-0.440084 0.364073 1.96948
0.524255 0.240009 1.41031
0.85377 0.186132 1.25524
3.04232 -0.856332 0.0368052
2.58079 -0.805567 0.313154
2.95168 -0.860774 0.172966
0.796886 1.92017 2.06821
1.8162 0.0401212 1.48613
0.144238 2.00104 2.55372
0.850976 1.90296 2.15787
0.13971 1.99741 2.61293
0.630021 1.91437 2.51392
-0.0488734 -0.178869 -2.42104
1.20807 -0.352809 -2.94857
1.10879 -0.359211 -2.8959
-0.0897241 -0.192071 -2.23682
-0.815899 -0.0901033 -1.80369
-3.79666 0.338401 -0.197266
-0.145391 -0.196481 -2.00312
-3.70076 0.303167 -0.208899
-0.443946 -0.155295 -1.84057
-1.55991 0.637726 -0.893787
-1.83189 0.673826 -0.740566
-0.523853 -0.16069 -1.58324
-4.0061 0.305099 0.398523
1.36508 -0.425411 -2.28458
-1.20798 0.615357 -0.635418
0.506769 -0.309406 -1.75609
-3.73878 0.257449 0.434079
1.36164 -0.46321 -1.9344
-3.50913 0.219271 0.607709
-2.75103 0.588278 0.457363
-0.104765 -0.282105 -1.03782
0.659622 -0.381915 -1.26244
1.14125 -0.446102 -1.48195
0.470211 -0.382618 -0.720455
-2.37402 0.298007 0.91841
-2.41633 0.300182 1.0596
-0.165582 -0.0372719 0.188928
-1.58566 0.334275 1.18655
1.61146 -0.620471 -0.612759
-1.54216 0.297127 1.46257
-0.889065 0.472511 1.17549
1.91854 -0.646574 -0.549743
1.96676 -0.640533 -0.512083
1.48143 -0.589799 -0.191499
-0.638047 0.278032 1.15263
-0.915273 0.366237 1.4236
-1.83324 0.115623 1.88201
-1.33543 0.254217 1.644
1.65294 -0.624285 -0.132413
-1.42709 0.260141 1.71332
2.46867 -0.720676 -0.553674
1.58313 -0.634481 -0.0496581
1.97937 -0.65983 -0.17296
-1.30684 0.237138 1.79178
1.83788 -0.649116 -0.00749168
1.73873 -0.691353 0.351883
-1.07514 0.456817 2.22713
0.0752464 0.306578 1.56508
0.632 0.232105 1.25041
0.92167 0.188932 1.09145
0.959483 0.184178 1.16759
1.4981 0.104966 0.871946
1.11463 0.155328 1.18796
2.08173 -0.754398 0.597792
2.98702 -0.880072 0.285953
2.69024 -0.858988 0.76179
1.74216 0.0594122 1.36655
1.15234 1.44671 1.76701
2.6346 -0.861146 0.920737
3.29606 -0.944899 0.536619
2.64418 -0.865953 0.93618
2.81028 -0.875088 0.838759
3.17094 -0.925871 0.628217
2.90505 -0.898607 0.844429
3.21557 -0.946173 0.658192
3.18361 -0.936678 0.690483
0.895175 1.88751 2.23837
3.63612 -0.85713 0.700344
-1.114 -0.0172093 -2.11846
-1.90416 0.784394 -1.17137
0.489931 -0.256252 -2.55725
-0.621254 -0.119637 -1.9426
0.737051 -0.31135 -2.5089
-0.250986 -0.218026 -1.76045
1.50165 -0.427673 -2.45643
-0.177886 -0.216727 -1.59772
-1.26496 0.62354 -0.66748
-1.17665 0.589024 -0.577228
-2.16645 0.689072 -0.00552067
0.217912 -0.290002 -1.42074
-1.61285 0.423664 0.0527726
1.75432 -0.539147 -1.48856
0.0396463 -0.0655917 0.123411
-2.052 0.210178 1.52806
-2.02077 0.197814 1.53471
-0.0435396 -0.0260882 0.442866
-2.15323 0.222638 1.61022
0.175607 -0.108094 0.531107
-0.452988 0.163689 1.23425
0.974644 -0.0801156 0.492739
1.6501 -0.660378 0.202347
1.9647 -0.708694 0.043492
-0.266046 0.352226 1.7632
2.67736 -0.787364 -0.0229727
2.37411 -0.78186 0.158272
0.945555 0.187809 1.15806
-0.232822 0.339932 1.87476
2.40372 -0.769571 0.298494
0.562387 0.224668 1.49114
2.69128 -0.843982 0.662112
2.60933 -0.861821 1.07173
0.305271 1.96914 2.56441
0.777889 1.90409 2.29778
3.72451 -0.896606 0.886898
-0.652515 -0.0912399 -2.30894
0.662218 -0.277877 -2.65268
-2.27727 0.764421 -0.125358
-0.128688 -0.215925 -1.40893
-3.26617 0.158671 0.766239
-1.84804 0.444675 0.976357
1.30531 -0.502658 -0.898493
2.19175 -0.637358 -1.0763
1.84239 -0.610981 -0.690917
-1.90024 0.187141 1.68426
-0.80153 0.489819 1.32356
2.30485 -0.706248 -0.60073
-0.890276 0.355361 1.43431
1.41319 -0.625286 0.0859814
2.38681 -0.790013 0.171691
2.40455 -0.761046 0.243165
2.79136 -0.863763 0.611149
3.20187 -0.933336 0.726749
3.65828 -0.862929 0.642855
-3.80795 0.303465 0.491417
0.350193 -0.331139 -1.35103
-1.67671 0.590307 0.595077
-0.276956 -0.0175381 0.0622676
2.08059 -0.639786 -1.13782
-2.1831 0.240428 1.42432
-2.11664 0.185518 1.54381
-1.06193 0.327734 1.41434
3.72864 -0.888586 0.630128
-2.53504 0.973127 -0.568464
-0.661368 -0.13238 -1.73303
0.0520343 -0.230099 -1.83663
0.679117 -0.340924 -1.93837
-1.32418 0.366657 0.0184044
-2.08052 0.483377 0.820004
-2.4315 0.295216 0.935658
-1.41198 0.311494 0.529592
1.49925 -0.535468 -1.02035
1.36242 -0.482828 -0.881696
-1.57421 0.306886 1.42725
-0.0732891 -0.0683731 0.676389
1.5265 -0.6312 0.0198872
2.81267 -0.87692 0.94591
3.5372 -0.873466 0.929613
-2.24189 0.677738 -0.011941
1.61016 -0.586154 -0.705816
0.882348 0.199601 1.23354
-1.7789 0.50666 -0.175798
-0.541442 0.270317 1.17202
-0.669418 0.20415 0.0368463
0.931779 -0.147116 0.511274
2.17091 -0.723027 0.352649
-2.21229 0.737597 -0.0623631
0.192266 0.309764 1.73185
-1.90551 0.563425 0.110315
1.32833 -0.473995 -1.38741
-0.571804 0.128299 -0.102378
-0.787404 0.228142 1.43701
0.628778 -0.127701 0.00300815
-3.78862 0.301905 -0.0642843
-0.725326 -0.0874826 -2.21777
-0.79948 -0.0616046 -1.98903
-2.54864 0.380486 0.597695
-2.50776 0.357708 0.689788
-1.20372 0.614003 -0.635936
-1.50299 0.425888 -0.24082
-2.62517 0.336957 1.19364
-1.17431 0.338369 0.0806452
0.468403 -0.270502 -2.21867
0.613398 -0.286602 -2.29088
-2.00983 0.279508 1.69801
-1.54836 0.325823 1.15393
-1.76465 0.133821 1.60024
0.232191 -0.314332 -1.26815
-0.588555 0.22524 0.315606
-1.31458 0.245873 1.61403
-1.28377 0.244594 1.58314
-0.944152 0.457367 1.31071
-0.566716 0.175417 0.874559
-0.343443 0.142776 0.754563
-0.0809064 -0.0529438 0.407992
-0.425167 0.142027 1.08949
-0.237583 0.0847542 1.19407
0.0792703 0.304423 1.56172
0.363127 0.257987 1.53484
0.871439 0.209649 1.01193
0.310162 1.97159 2.58561
2.02488 -0.697616 0.274109
