2.47924 -0.206686 -0.565725
0.826952 -0.477865 -2.48765
0.741394 -0.404104 -2.78472
2.02005 -0.864313 -1.55086
2.21842 -0.923809 -1.57301
1.64416 -0.729821 -2.61114
0.716947 0.179119 2.26263
-0.636868 0.533669 0.307995
-1.29215 0.115298 -0.575929
1.61828 -0.588877 2.53792
-0.419018 -0.139792 -0.946948
1.68658 -0.397531 1.09272
2.71711 -0.519334 0.983943
2.25319 -0.2963 -0.263811
1.51034 -0.710763 -1.77098
2.55092 -0.173729 -0.647908
2.52018 -0.140798 -0.710657
0.928851 -0.471272 -3.12934
1.46434 -0.666079 -2.8785
-2.92042 0.801714 -0.276709
-1.64262 0.986224 0.776969
0.395779 0.0334799 1.29025
1.29081 -0.0478985 1.3091
1.47344 -0.100112 0.630943
1.234 -0.369433 0.203468
0.72341 -0.500931 -0.659844
0.710043 -0.501929 -1.18361
3.58358 -0.656423 0.930361
0.78955 -0.459388 -2.21075
2.686 -0.21115 -0.476913
1.51689 -0.670325 -2.79641
-1.62101 1.04189 0.812383
0.204191 2.23435 1.65164
-0.404253 0.238501 0.331419
0.936891 -0.00505124 1.67827
0.815164 0.0890677 1.46058
2.28599 -0.765397 1.91689
1.70213 -0.354772 0.985131
2.04367 -0.537295 1.37662
1.36698 -0.62971 -2.50316
0.0456303 2.18514 1.52962
-0.548899 0.644913 0.801604
-0.577614 0.541115 0.343044
0.98396 0.00220169 1.65277
0.576536 -0.10482 1.20812
2.20226 -0.302452 -0.0283076
0.109851 -0.0499207 0.330785
1.13933 -0.532321 1.40896
1.68925 -0.51656 0.788896
1.89693 -0.423789 0.790016
2.98079 -0.472178 -0.119178
2.02608 -0.878539 -1.43355
1.42529 -0.660368 -2.12297
1.78385 -0.777178 -1.57583
1.84489 -0.828981 -1.17957
1.81387 -0.824599 -1.21413
0.730995 -0.434374 -2.53763
4.08618 -1.61162 1.64438
3.85538 -1.53835 1.39335
1.749 -0.803805 -1.1892
3.60232 -1.46051 1.16976
3.62962 -1.46679 1.21455
0.796497 -0.462497 -2.23001
3.46774 -1.40857 1.12247
3.44771 -1.40442 1.11685
3.69713 -1.49084 1.48098
3.86007 -1.54496 1.80306
3.58634 -1.45106 1.47779
0.421059 -0.325282 -2.40775
3.56759 -1.46914 1.66144
3.61947 -1.48774 1.74957
3.66222 -1.49487 1.84527
2.1148 -0.236386 0.0323706
2.15387 -0.241566 0.108571
0.753589 -0.507579 -1.6868
0.801375 -0.524808 -1.58001
1.04026 -0.580693 -1.04897
1.00357 -0.562185 -1.05935
1.64674 -0.460026 -0.149381
1.05732 -0.590933 -0.91179
1.61213 -0.445612 -0.167506
2.7211 -0.839269 1.28694
2.7175 -0.84075 1.30303
2.91213 -0.753546 1.63839
2.70061 -0.838799 1.36104
1.01358 -0.582579 -0.780595
2.15274 -0.475325 0.707217
1.04491 -0.608938 -0.705145
0.845505 -0.539412 -0.946547
0.832634 -0.529477 -0.948332
2.71308 -0.851397 1.5645
2.69957 -0.852843 1.56479
2.7032 -0.849392 1.58126
0.379562 -0.370406 -1.3544
3.04219 -1.33071 2.10789
3.01132 -1.31916 2.08261
0.155348 -0.304401 -1.43648
1.29239 -0.340549 0.110597
1.08516 -0.296587 0.0174822
-0.710014 0.0222591 -2.27444
2.40452 -0.769884 1.87963
1.71297 -0.330546 1.0124
1.71229 -0.336049 1.03058
-0.707094 0.0104385 -2.055
2.4505 -0.801808 2.09536
2.48 -0.798885 2.14276
2.45113 -0.801335 2.13523
0.677645 -0.164216 -0.132177
2.42589 -0.788794 2.30381
2.40208 -0.784359 2.33457
1.42826 -0.147784 1.33361
-0.388441 -0.131884 -0.90706
-1.26963 0.183876 -2.05576
1.00396 -0.150798 1.00727
0.263808 -0.0500763 0.0894587
0.23135 -0.0405344 0.0935562
1.08557 -0.29554 1.31904
0.474689 -0.138112 0.507682
1.10093 -0.286847 1.41853
0.397004 -0.00839391 0.536789
1.38029 -0.310001 1.93815
1.75489 -0.530959 2.47824
0.976417 -0.0423872 1.37351
1.67221 -0.5064 2.44614
-0.748382 -0.0414291 -0.762694
1.68844 -0.511949 2.49292
-0.806934 -0.0211992 -0.764879
-0.591623 -0.103927 -0.430612
0.775644 0.0426325 1.38048
0.807863 0.0293691 1.4265
-1.18277 0.121418 -1.09798
0.732891 0.0578695 1.4265
1.05761 -0.151553 1.90863
1.12824 -0.233146 2.03315
0.598918 -0.0413111 1.32686
-0.831176 -0.0258545 -0.315333
1.07045 -0.220498 2.19327
0.393708 0.0216216 1.26907
1.05728 -0.223256 2.20387
-1.11511 0.0468463 -0.346008
-1.11562 0.0600436 -0.213248
-0.363734 0.589264 0.679298
-1.64044 0.221145 -0.570428
-1.57405 0.192352 -0.46211
-0.335223 0.564588 1.12224
-2.26894 0.453176 -1.06645
-2.67266 0.551003 -0.606585
0.401419 2.10628 2.52655
1.14869 -0.541841 -2.91395
2.19297 -0.925768 -1.45459
0.867193 -0.443154 -3.01832
2.03352 -0.874977 -1.57274
1.82429 -0.800314 -1.81761
0.789334 -0.412571 -3.06288
1.80282 -0.785769 -1.82265
1.02136 -0.502401 -2.76414
0.754042 -0.406962 -3.00907
1.9958 -0.855466 -1.45047
1.45048 -0.675066 -2.11438
1.942 -0.844802 -1.49242
2.0133 -0.866403 -1.38525
1.41912 -0.670645 -2.10192
1.95008 -0.846952 -1.39391
1.83322 -0.806917 -1.46297
1.39285 -0.67134 -1.89319
1.05222 -0.539744 -2.30566
1.40146 -0.677642 -1.87245
1.66499 -0.762677 -1.5406
1.87557 -0.839227 -1.2599
0.808428 -0.45065 -2.55465
1.91484 -0.852867 -1.15127
3.49984 -0.717657 0.970145
1.00818 -0.545019 -2.26012
1.29672 -0.639424 -1.84812
0.796484 -0.450343 -2.42442
1.7633 -0.806238 -1.19482
1.58834 -0.738077 -1.2843
3.8157 -1.54355 1.52811
4.05039 -1.61939 1.83196
2.97912 -0.565643 0.617508
1.00616 -0.528003 -1.95029
0.619004 -0.421183 -2.43945
0.662106 -0.436148 -2.24222
1.66701 -0.788553 -0.972218
2.16118 -0.221641 -0.0490077
2.25412 -0.2522 0.0747618
2.14888 -0.214834 -0.0399236
2.06683 -0.201354 -0.115102
0.705571 -0.451218 -1.90697
2.97994 -0.557929 1.053
2.23487 -0.265152 0.116641
2.73947 -0.442927 0.758653
1.19215 -0.632298 -1.26257
2.07726 -0.223549 -0.0309326
2.81314 -0.482854 0.94278
1.06619 -0.58613 -1.32805
3.52967 -1.44554 1.7933
3.59859 -1.49716 1.98598
1.14875 -0.618264 -0.991756
-0.074373 -0.189734 -2.3996
3.31652 -1.3973 2.01213
1.4913 -0.403002 -0.191638
0.82305 -0.527102 -0.969148
1.40224 -0.388398 -0.203374
2.69107 -0.846594 1.52766
2.99504 -1.31429 2.04418
0.350621 -0.357384 -1.36558
0.365819 -0.380404 -0.924335
-0.378251 -0.128061 -1.64986
2.3066 -0.780835 1.86995
-0.366819 -0.128857 -1.63026
0.0923403 -0.298564 -0.994629
2.44973 -0.802146 2.11301
-0.328847 -0.139452 -1.49965
-0.368966 -0.130861 -1.4284
0.626048 -0.146446 -0.11277
-0.33475 -0.143172 -1.34464
-0.173064 -0.205144 -1.10648
-0.357665 -0.136466 -1.27413
2.37157 -0.783046 2.36422
-0.484163 -0.112766 -0.992168
0.323795 -0.0852481 0.080759
0.963399 -0.130494 0.927283
-0.494313 -0.116099 -0.897485
1.82232 -0.63303 2.35341
0.440481 -0.0794869 0.580203
1.75862 -0.524336 2.42932
1.49176 -0.335216 2.06985
-0.0111485 0.032456 0.0583925
1.43046 -0.329544 2.00238
0.756582 -0.079552 1.10226
1.1244 0.0546943 1.57188
1.07963 0.0809115 1.53791
0.42691 -0.162671 0.779395
1.49862 -0.548762 2.26279
0.441776 -0.175973 0.821564
-0.912815 0.00907671 -0.931347
0.994351 0.0964539 1.50381
-0.828978 -0.022445 -0.748361
-1.1415 0.100508 -1.16542
-0.832458 -0.0356068 -0.734395
1.04574 -0.0104379 1.79169
0.578628 -0.0282341 1.24716
0.557523 -0.0187582 1.22246
1.45393 -0.556239 2.52629
1.28252 -0.287796 2.22986
0.562557 -0.0223789 1.24105
1.22044 -0.262162 2.15254
1.45949 -0.558938 2.58283
1.4427 -0.560256 2.57309
-0.949233 -0.000183631 -0.618766
-0.992331 0.0239629 -0.664858
-1.52201 0.224324 -1.38659
-0.219973 0.047477 0.36382
-0.877065 -0.0336784 -0.379104
-1.37542 0.170982 -0.781512
-1.12565 0.0608726 -0.318742
-1.16246 0.0742773 -0.351647
-1.14765 0.0728415 -0.285511
-1.5253 0.207756 -0.800585
-1.23491 0.0752654 -0.334218
0.842587 0.149156 2.47792
0.0958253 0.418517 1.43906
0.902473 0.120811 2.58765
0.107063 0.408541 1.46605
0.530551 0.254354 2.07021
-0.230797 0.533696 1.01578
0.210264 0.371063 1.66164
-0.377857 0.588337 0.831113
-1.39627 0.122211 -0.266896
-0.0617453 0.460103 1.2938
-0.378173 0.587434 0.850206
0.728815 0.183711 2.43858
0.666097 0.202002 2.47034
-0.230762 0.522732 1.19919
0.291872 0.333856 1.95019
-0.077246 0.467486 1.43145
0.543891 0.251151 2.32134
-0.826631 0.742411 0.381658
-0.328794 0.556581 1.10533
-0.712898 0.691768 0.620993
0.217823 0.351202 1.96615
0.140069 0.387097 1.9047
-1.79096 0.257199 -0.0521433
-2.40715 0.450993 -0.844707
-2.07329 0.368798 -0.146204
-2.49621 0.508136 -0.50641
-2.6295 0.534401 -0.587537
-1.39153 0.928363 0.760184
-1.40227 0.935023 0.766369
-2.66406 0.561488 -0.553689
0.437235 2.0987 2.4598
-0.00399814 2.25466 1.83152
-0.00894249 2.25492 1.85496
-0.0487857 2.26466 1.90755
-0.0913383 2.28042 1.85961
-2.98303 0.809814 -0.78928
0.0993565 2.20761 2.30955
-0.173221 2.29924 1.9661
-0.369128 2.45116 1.98192
1.11539 -0.556921 -2.8278
1.336 -0.644948 -2.07156
1.3488 -0.669006 -1.99843
0.502568 -0.346615 -2.95304
1.9286 -0.857194 -1.19052
1.57325 -0.736248 -1.4348
1.04675 -0.566425 -2.03212
2.56325 -0.427671 0.0666426
0.600488 -0.389229 -2.37966
0.97477 -0.54335 -1.72707
3.44971 -1.41854 1.50492
0.706679 -0.437675 -1.93298
3.58959 -1.46204 1.79805
2.11234 -0.24999 0.0614203
3.57741 -1.48301 1.96762
1.15139 -0.620963 -1.01661
0.980022 -0.550732 -1.07062
0.0291528 -0.252209 -2.22615
2.3071 -0.526849 0.735539
0.469144 -0.397977 -1.6326
3.30604 -1.39962 2.0318
0.0468266 -0.238336 -2.11249
0.510113 -0.416473 -1.41839
0.743953 -0.495475 -1.11255
1.06238 -0.617562 -0.68816
0.905522 -0.555385 -0.856896
0.0163499 -0.236598 -1.74246
0.639438 -0.469252 -0.860297
1.14099 -0.314305 -0.0245003
-0.000479418 -0.249176 -1.48488
1.10218 -0.300334 0.00842067
-0.119243 -0.230441 -1.38075
2.35768 -0.774325 1.87253
0.273066 -0.378713 -0.842155
0.0743193 -0.297272 -0.993167
-0.162717 -0.204306 -1.13853
0.544387 -0.134 -0.0570628
0.19974 0.343708 -0.377204
0.180751 0.346998 -0.387938
-1.13481 0.142225 -2.03715
0.474763 -0.162582 0.203082
1.91021 -0.678972 2.20793
1.88325 -0.667555 2.16946
1.862 -0.668329 2.17119
1.67838 -0.600295 2.12338
-0.552887 -0.102268 -0.677995
0.386681 -0.00610587 0.5184
-1.01757 0.0653717 -1.21371
0.376593 -0.0611802 0.627859
0.318623 -0.0123867 0.549826
-0.878332 -0.00734069 -0.862221
-0.794784 -0.0356436 -0.741509
-0.666507 -0.0853978 -0.560043
0.65893 -0.0454313 1.13719
-1.1313 0.0838701 -1.14969
-0.808335 -0.0235305 -0.68758
0.795419 0.0344376 1.41106
1.23163 -0.264202 2.10497
0.0870118 -0.0619569 0.606418
1.07793 -0.196419 1.9324
0.548317 -0.0109256 1.19609
0.0812588 -0.0631183 0.633506
-1.18159 0.0938365 -0.942637
-1.21041 0.118516 -0.984411
-0.975598 0.0100002 -0.633551
-0.921508 -0.0062586 -0.518923
-1.00599 0.0291551 -0.636192
-0.440159 0.315599 0.0888912
1.11881 -0.173576 2.50348
-1.02925 0.024131 -0.294176
-1.0524 0.0340857 -0.317629
-1.51803 0.203505 -0.966392
-1.31636 0.134318 -0.643019
-1.14078 0.056896 -0.377499
-1.72641 0.27636 -1.1112
-1.41099 0.172623 -0.625557
-1.17004 0.0707621 -0.246516
-1.23831 0.0903447 -0.317795
0.853107 0.0232627 2.37656
-0.458094 0.616356 0.622747
-0.569997 0.649055 0.517647
-0.560792 0.644098 0.542324
-1.39466 0.138169 -0.252304
-1.66903 0.224467 -0.594491
0.234847 0.363961 1.82395
0.309906 0.331418 1.95155
0.566747 0.238508 2.33642
-0.121378 0.483405 1.37793
-0.144681 0.493712 1.3483
-0.176516 0.507468 1.30377
-0.649429 0.663691 0.761509
-2.06743 0.382379 -0.886842
0.487288 0.266212 2.44255
-1.6613 0.216577 -0.170211
-1.77409 0.267391 -0.263119
-2.28545 0.450616 -0.57577
-2.43879 0.48266 -0.661206
-2.2378 0.414088 -0.29852
-1.28985 0.906984 0.644251
-2.34127 0.446509 -0.334514
-2.50995 0.508532 -0.52752
-2.66671 0.543002 -0.61871
-2.45175 0.466307 -0.283539
-0.0130908 2.26101 1.81878
-2.85293 0.67201 -0.718071
-0.0367253 2.26108 1.84694
0.183788 2.18244 2.231
-0.0516592 2.26324 1.88273
-0.0791748 2.27653 1.89512
0.3148 2.13295 2.58474
0.0905592 2.20901 2.29649
-0.153771 2.29715 1.9676
0.968021 -0.474083 -3.09886
1.80214 -0.828722 -1.745
1.86546 -0.83153 -1.33567
1.04235 -0.533361 -2.30359
1.01961 -0.528963 -2.32964
1.57134 -0.738488 -1.43835
3.92715 -1.57186 1.58381
1.17928 -0.608122 -1.4911
2.23293 -0.250627 0.0562689
1.0028 -0.558 -1.5134
2.8337 -0.501784 1.00982
2.80175 -0.499695 0.964871
1.07202 -0.608473 -1.22417
3.591 -1.48317 2.0253
2.72611 -0.49698 1.05832
0.920935 -0.537292 -1.10276
2.09 -0.447701 0.451404
2.3134 -0.53129 0.756861
2.95526 -0.770877 1.68665
1.08144 -0.593942 -0.738718
0.947665 -0.579341 -0.842338
0.119218 -0.273767 -1.79638
2.1801 -0.502144 1.02354
1.87834 -0.397022 0.65165
2.54274 -0.837793 1.52512
2.8868 -1.25876 1.99216
1.76917 -0.367458 0.625143
2.21576 -0.369308 1.61958
0.427676 -0.40803 -0.647992
0.408401 -0.389885 -0.677104
0.00725681 -0.270291 -0.93128
-0.370847 -0.13233 -1.26317
1.09228 -0.160749 0.694497
1.41101 -0.297095 1.16875
-0.342329 -0.150032 -0.93734
1.53751 -0.334736 1.69592
1.59688 -0.356591 1.79233
1.84846 -0.643428 2.38313
1.53262 -0.338453 1.93108
1.76463 -0.613851 2.30451
1.45247 -0.321689 1.87201
0.826151 -0.103347 1.17697
1.47273 -0.333573 2.08564
-1.33174 0.179336 -1.5559
0.317105 -0.122081 0.665606
-1.08235 0.0651046 -1.13172
-1.12792 0.0911974 -1.17087
-1.14379 0.107304 -1.19787
-1.46179 0.208778 -1.39964
1.27799 -0.288912 2.27059
0.118921 -0.0905609 0.771403
-0.397025 0.294295 0.00287124
-1.00689 0.0331875 -0.69495
-0.902054 -0.0120023 -0.518833
-0.899437 -0.0211492 -0.401706
-0.371453 0.300308 0.179967
0.440235 0.00983083 1.3261
1.10698 -0.234176 2.26146
-1.08784 0.0759269 -0.633716
1.04798 -0.213942 2.18755
-1.04219 0.0412428 -0.446645
-1.32806 0.111575 -0.277796
-0.261307 0.540427 1.00612
0.221382 0.367719 1.83163
0.129025 0.390581 1.741
-0.514006 0.628931 0.835104
0.151874 0.381378 1.89884
-1.99177 0.327942 -0.197338
-2.49315 0.503864 -0.556453
-2.21082 0.399354 -0.0664043
-2.24225 0.398751 -0.0467395
0.086259 2.21103 2.25926
-0.344355 2.44075 2.0441
1.45152 -0.671152 -2.35035
1.47218 -0.701723 -1.82307
3.86618 -1.55201 1.21777
3.8772 -1.54574 1.3761
3.75271 -1.52999 1.28974
1.12509 -0.584126 -1.6734
3.73871 -1.52437 1.62304
2.77693 -0.457453 0.843174
3.02729 -0.756899 1.1485
2.02623 -0.200515 -0.0674252
0.606742 -0.42401 -1.747
2.66501 -0.475639 0.968601
2.7399 -0.518953 1.08468
0.111111 -0.24982 -2.2914
2.91706 -1.26145 1.98244
2.94396 -1.28339 2.02418
0.618248 -0.476652 -0.809435
0.458011 -0.408669 -1.01142
2.19729 -0.701643 2.11541
1.73208 -0.383341 1.60394
1.68421 -0.395804 1.9544
0.431487 -0.132349 0.450158
1.49642 -0.334283 1.89886
0.469076 -0.13821 0.577808
0.769752 -0.0854618 1.12512
1.44237 -0.333982 2.05333
0.212727 -0.0703357 0.578984
-1.41807 0.205503 -1.41917
-0.996262 0.0423268 -0.739716
1.0451 -0.210956 1.96825
0.970661 -0.0474716 1.85024
-0.793209 -0.0544444 -0.30701
-1.14888 0.100311 -0.802296
0.390417 0.0164797 1.28871
-1.06277 0.0536495 -0.405505
-0.53361 0.495394 0.442088
0.771174 0.177759 2.40011
0.638261 0.218089 2.45153
-0.520616 0.632822 0.802488
0.489887 0.267521 2.32517
-2.3144 0.449699 -0.737688
-2.05809 0.349838 -0.0811931
-2.04899 0.32163 0.223922
-2.46455 0.614242 0.0197506
-2.88118 0.773363 -0.469691
0.592412 -0.354535 -3.0085
2.3691 -0.347982 -0.173746
0.93728 -0.529658 -1.82403
1.15832 -0.594976 -1.53437
2.14235 -0.21622 -0.0402414
2.82988 -0.473339 0.897049
2.17912 -0.232066 0.0923891
2.14274 -0.224544 0.0548388
3.61844 -1.48071 2.07687
2.64732 -0.463854 0.930799
2.29435 -0.528458 0.479416
3.07569 -0.747455 1.58389
2.44447 -0.749246 1.84619
1.79652 -0.405216 1.16321
1.60492 -0.350468 1.20696
-0.420703 -0.125603 -1.36327
0.214037 0.315765 -0.407061
0.628371 -0.197333 0.420009
0.162128 0.256271 -0.221281
1.01673 -0.143569 1.02512
0.850246 -0.103662 1.15172
-1.22772 0.135125 -1.32028
0.78174 0.0828952 1.4949
0.724295 0.043604 1.5113
-1.09558 0.0447079 -0.303263
-0.466667 0.486452 0.441243
-0.0829189 0.481608 1.12616
-0.0711319 0.467268 1.17952
-0.87026 0.760062 0.256633
0.674303 0.1976 2.48187
0.263275 0.349648 1.93085
-1.91341 0.295079 -0.496822
-1.99873 0.34235 -0.617659
-2.07528 0.338444 -0.590927
-2.07434 0.381191 -0.287573
-0.214664 2.18096 1.67402
0.125925 2.19825 2.15458
2.04436 -0.41535 0.408958
2.19492 -0.480825 0.68422
-0.0114324 -0.231044 -1.71203
2.35181 -0.78577 1.90084
2.19502 -0.497961 1.67442
-0.239773 -0.184371 -1.13156
1.4398 -0.196299 1.41103
1.29097 -0.179895 1.26636
0.505138 0.278521 2.01329
-0.753917 0.723419 0.222882
-0.541969 0.633471 0.58971
-0.279754 0.55324 0.973175
-0.465664 0.611909 0.865253
-3.13229 0.860469 -0.631401
-2.98527 0.799734 -0.394076
2.51263 -0.206948 -0.477536
2.35487 -0.431707 -0.437597
3.02799 -0.591611 0.810213
0.585491 -0.366143 -2.30442
3.65219 -1.50492 1.80632
1.40212 -0.22629 -0.426378
1.6102 -0.307419 0.579439
1.06327 -0.145158 0.781732
1.46647 -0.327844 1.92002
1.00174 0.131072 1.65131
-1.14784 0.131186 -1.0988
-0.100221 0.028493 0.337718
-0.109334 0.48279 1.26636
1.64214 -0.456709 1.13671
1.0554 -0.154817 0.960401
0.836903 -0.084218 1.12138
0.241166 -0.111005 0.702372
0.163989 -0.0650902 0.675567
1.11327 -0.230981 2.17706
2.23257 -0.710507 1.64384
2.11268 -0.55196 1.66404
2.00418 -0.444446 1.50862
1.59665 -0.333185 1.09268
-2.94171 0.746449 -0.795187
1.66613 -0.207914 0.115254
1.45573 -0.285535 0.443032
-0.105215 2.28915 1.99676
3.85496 -1.56189 1.52147
3.85843 -1.54538 1.39394
3.56771 -1.46707 1.6616
3.6047 -1.45609 1.17036
3.54976 -1.39175 1.11588
3.46875 -1.40953 1.1231
3.47017 -1.41103 1.09973
3.13919 -0.53467 0.0985531
2.70356 -0.850005 1.58091
2.69636 -0.843112 1.54513
2.98195 -0.472155 -0.119704
2.70275 -0.835489 1.36055
2.42881 -0.788038 2.30337
2.40465 -0.788149 2.33565
2.50931 -0.79406 1.75673
2.37426 -0.782249 2.36679
2.40605 -0.768973 1.87578
2.03478 -0.708095 2.06772
1.74614 -0.52014 2.44331
2.21018 -0.248078 0.117491
2.07027 -0.205159 -0.111782
1.72176 -0.347694 1.05346
1.71255 -0.336186 1.02962
1.61206 -0.342317 1.40714
1.50695 -0.334115 1.70985
1.26722 -0.291321 2.25709
1.47388 -0.16096 1.3425
2.02766 -0.88257 -1.43619
1.99555 -0.865977 -1.40238
1.95639 -0.845502 -1.42319
1.64944 -0.45066 -0.164913
1.10271 -0.234968 2.25258
1.61285 -0.440995 -0.16728
1.05874 -0.221949 2.20567
1.87567 -0.81752 -1.51688
1.83384 -0.807196 -1.46207
1.15955 -0.00174888 1.59179
1.14766 0.0330764 1.58068
1.05733 -0.161664 1.90856
1.1295 0.0445105 1.58883
1.05792 0.0490515 1.73758
1.24939 -0.338511 -0.107333
1.65825 -0.72811 -2.21477
1.08727 -0.296328 0.0172271
0.739959 0.0520018 1.44085
0.739325 0.0627013 1.40876
0.50756 0.255912 2.25041
0.602006 -0.0409728 1.31265
0.465809 0.275352 1.99687
0.996015 -0.573447 -0.998232
0.453064 0.0149214 1.08115
0.394725 0.0208928 1.27051
0.679566 -0.17707 -0.120279
0.904358 -0.526805 -1.29751
0.678141 -0.166185 -0.133346
0.966114 -0.532346 -1.58893
0.662825 -0.158094 -0.127687
1.16163 -0.564217 -2.49292
0.401993 2.10583 2.52638
0.279163 0.332153 1.64909
0.748404 -0.501367 -0.956878
0.850073 -0.496381 -2.11971
0.106306 0.408612 1.46267
0.231867 -0.0415657 0.0929333
0.738666 -0.400064 -3.03612
0.0572429 2.23023 1.94915
-0.219959 0.520217 1.22159
0.0849639 2.22855 1.75956
-0.260523 0.542995 0.952837
-0.0665164 2.27118 1.8763
-0.362824 0.590303 0.680752
-0.43846 0.343834 0.301865
-0.330964 -0.163303 -1.04321
-0.595379 0.657326 0.699884
-0.648754 0.683298 0.446263
-1.124 0.0612313 -0.318989
-1.58193 0.197041 -0.485678
4.06052 -1.62976 1.90873
3.71552 -1.51379 1.6831
3.6134 -1.48713 1.7878
3.50165 -0.717114 0.971242
3.33027 -1.38868 1.99754
3.47983 -1.41507 1.10867
3.2002 -0.563009 0.173503
2.93488 -0.561518 1.05834
2.8123 -0.51083 0.990413
2.99425 -0.47173 -0.126052
2.74209 -0.480964 0.886537
2.43631 -0.812293 2.23208
2.44091 -0.367493 -0.131285
2.25337 -0.263958 0.0896069
2.23776 -0.255667 0.0992377
2.16115 -0.21983 -0.0506686
1.77292 -0.401662 1.62533
1.74205 -0.405795 1.62409
2.06846 -0.28155 0.0991525
2.06944 -0.181317 -0.152884
1.80519 -0.54838 0.971907
1.45575 -0.558786 2.52553
1.77168 -0.387038 1.09263
1.4911 -0.558684 2.31326
1.75826 -0.354958 1.07243
1.62626 -0.357711 1.29932
1.61577 -0.367439 1.25081
2.13153 -0.905865 -1.44619
1.47416 -0.299169 1.4388
2.0384 -0.881788 -1.42221
1.27743 -0.27894 2.00214
1.2368 -0.267523 2.12706
2.01681 -0.870632 -1.44592
2.00015 -0.857164 -1.45228
2.01685 -0.873036 -1.59349
1.96935 -0.850121 -1.43578
1.97219 -0.846063 -1.48799
1.84794 -0.831638 -0.972446
1.95648 -0.843272 -1.49279
1.88423 -0.844418 -1.23041
1.94683 -0.823097 -1.53144
1.63396 -0.445314 -0.167452
1.33634 -0.177585 0.708362
1.49255 -0.403476 -0.192671
1.82698 -0.802561 -1.81793
1.66542 -0.766791 -1.54224
1.6532 -0.759958 -1.51533
0.730282 0.184035 2.44084
1.00491 -0.138897 0.766455
0.94475 -0.121365 0.855359
1.05468 -0.311291 0.0419655
0.815294 -0.0968521 1.15496
0.789296 -0.0857419 1.13469
1.03674 -0.274461 -0.0127336
1.27031 -0.66172 -1.27638
0.489286 0.263248 2.4415
0.836841 -0.0839205 0.762634
1.23262 -0.647223 -1.27051
1.20448 -0.636574 -1.2798
1.21406 -0.615936 -1.4941
0.602434 -0.0363972 1.29543
0.550699 0.00623241 1.49696
0.900368 -0.230987 -0.123564
0.859593 -0.221129 -0.139014
0.535462 -0.0150365 1.21864
1.36735 -0.624698 -2.69784
0.438605 0.023445 1.07666
0.429737 -0.165999 0.777664
0.411957 -0.157324 0.771247
0.232159 0.36214 1.87047
0.744212 -0.49308 -0.929744
0.733671 -0.495776 -0.944355
0.299832 0.0480282 1.19484
0.404779 -0.0970123 0.63495
0.545978 -0.13224 -0.0579572
0.396541 2.12054 2.19772
0.803766 -0.516992 -1.5734
0.151903 0.387912 1.71376
0.319821 -0.00751126 0.546806
0.155427 0.393498 1.52932
0.139662 0.399679 1.52385
0.480378 -0.424461 -0.61548
0.190295 -0.0952509 0.737464
0.287471 -0.374386 -0.666215
0.66157 -0.424762 -2.26575
0.609942 -0.400661 -2.35324
0.561042 -0.389987 -2.18739
-0.125702 0.494446 1.34449
0.0514253 2.22268 2.296
0.491412 -0.370816 -2.14451
-0.00980412 0.0331456 0.0582869
-0.193662 0.52052 1.03789
-0.00651488 2.25436 1.85526
-0.00433416 2.25398 1.83085
-0.327617 0.555575 1.10301
-0.0782533 2.27359 1.8933
-0.382135 0.29636 0.180586
-0.477413 0.621684 0.709865
-0.0119301 -0.175397 -2.82441
-0.369318 -0.136559 -1.66759
-0.37585 -0.125429 -1.64937
-0.713561 0.700868 0.264688
-0.831652 -0.0329977 -0.732074
-0.946125 0.00137095 -0.619168
-0.797239 -0.0102113 -1.31604
-0.874556 0.0340947 -1.28625
-1.05464 0.0667844 -1.18517
-1.38918 0.928664 0.759883
-2.38989 0.468644 -0.838747
3.79963 -1.5333 1.58187
3.84417 -1.54386 1.23846
3.69397 -1.50708 1.70092
3.77159 -1.52784 1.26621
2.96114 -0.517328 1.04933
2.74257 -0.482455 1.03573
2.76039 -0.46768 0.830833
2.06416 -0.736983 2.4017
2.04743 -0.72769 2.39975
2.19368 -0.508988 1.04744
2.2563 -0.253769 0.0717263
1.88399 -0.416067 1.67875
1.83098 -0.39456 1.58531
2.11294 -0.255391 0.0586285
2.04173 -0.22466 0.104154
1.49832 -0.54906 2.26346
1.45115 -0.541417 2.25496
1.72259 -0.328175 0.992159
1.48093 -0.328539 1.90846
1.41821 -0.327344 1.17484
1.92649 -0.827223 -1.1814
1.2502 -0.129544 1.31185
1.91871 -0.829585 -1.77372
0.845193 0.0500933 2.3866
1.67014 -0.762001 -1.56111
1.16075 -0.145652 0.634855
1.1468 -0.14121 0.653468
1.14415 -0.139103 0.616775
1.09506 -0.159189 0.692409
1.43546 -0.695273 -1.24765
0.759131 0.0460482 1.37172
0.603065 0.244245 2.04043
0.88252 -0.291195 0.509305
0.67074 0.0470724 1.43709
1.32037 -0.645043 -1.857
1.44373 -0.666118 -2.40782
0.453318 0.261586 2.04827
0.547044 -0.0366134 1.27328
0.979406 -0.556677 -1.07034
0.636426 -0.215311 0.374591
0.665 -0.217874 0.206636
0.63185 -0.468575 -0.72814
0.453869 -0.147958 0.185741
0.897348 -0.501359 -2.00903
0.158251 -0.101677 0.948741
0.0346378 0.422497 1.58013
0.968814 -0.47705 -3.10111
0.828063 -0.4607 -2.61451
0.3156 -0.370932 -0.769211
-0.0943463 0.477601 1.20451
0.536036 -0.356041 -2.96983
-0.0118592 2.25992 1.81867
0.140656 -0.274999 -1.86354
-0.432532 0.369371 0.331934
-0.443986 0.381681 0.352382
-0.49644 0.616469 0.834685
0.214498 -0.237915 -3.06721
-0.459336 0.418619 0.362017
-0.472713 0.42423 0.383109
-0.331532 -0.157012 -1.01188
-0.34433 -0.159517 -1.03468
-0.363608 -0.153049 -1.02479
-0.623782 0.673921 0.509291
-0.602046 -0.079897 -0.9893
-0.512267 -0.0881285 -1.55367
-0.755524 -0.0244089 -1.34468
-1.01455 0.0405328 -0.452251
-1.00174 0.0297296 -0.630838
-1.15968 0.0902902 -0.752646
-1.06763 0.078684 -1.1724
-1.28169 0.122945 -0.63881
-1.14253 0.109127 -1.19532
-1.32413 0.162763 -0.582072
-1.32066 0.146422 -0.658941
-2.3186 0.44891 -0.473806
-2.3853 0.461965 -0.821908
3.59491 -1.48937 2.0308
3.37572 -1.38721 1.45341
3.30508 -1.37927 1.30864
3.00052 -0.568926 0.917327
2.75279 -0.439929 0.721759
1.85007 -0.630589 2.48975
1.85337 -0.656567 2.41571
1.84436 -0.642218 2.37756
1.92491 -0.426809 1.68536
1.80847 -0.382307 1.61408
2.10506 -0.243353 0.0407187
1.13687 -0.179582 2.51734
1.56517 -0.479397 -0.0369016
1.0553 -0.200987 1.97232
0.860468 0.138962 2.54312
0.950117 0.00881002 1.75931
0.892548 -0.240336 0.193912
0.885135 -0.187973 0.166499
0.98144 -0.581334 -0.864624
0.479061 -0.153543 0.538234
0.954364 -0.537049 -1.74381
0.781248 -0.505652 -1.05005
0.0144416 0.450362 1.35623
0.153115 0.351159 -0.403943
0.375551 -0.299302 -2.87431
-0.418938 0.322294 0.229776
-0.394138 0.303388 0.000501331
-0.414091 0.32755 0.00705083
-0.254779 -0.172777 -1.56919
-0.47093 -0.129605 -0.76749
-0.601091 0.659773 0.648845
-0.333908 -0.149653 -1.60961
-0.576516 -0.100726 -0.657205
-0.651986 0.686251 0.468891
-0.65104 -0.0817422 -1.06348
-0.754812 0.729787 0.178625
-1.24191 0.113121 -0.44906
-2.4228 0.599256 0.0344235
3.87131 -1.55647 1.21341
2.74063 -0.510503 1.08817
2.71868 -0.455972 0.718798
2.16332 -0.706806 2.06544
2.03642 -0.479347 1.16579
2.04728 -0.471838 1.07411
1.78593 -0.430693 1.16975
1.49506 -0.332942 1.89427
1.7874 -0.348134 0.472435
1.68253 -0.326655 0.60589
1.29674 -0.28853 2.09311
1.51805 -0.223439 0.580557
1.89099 -0.842317 -1.29471
1.18893 -0.20983 1.4012
0.866919 0.0273298 2.36799
1.54772 -0.178253 -0.602771
0.766666 0.185767 2.40207
0.852079 0.0741735 1.55356
0.481515 -0.134378 0.503574
0.421981 -0.128015 0.632581
1.06282 -0.537763 -2.32839
1.04463 -0.54092 -2.35865
0.621633 -0.477017 -0.811103
0.802276 -0.512322 -1.57118
0.271093 0.288949 -0.367337
0.230979 0.331451 -0.430549
0.180602 -0.268286 -2.32749
-0.56382 0.649219 0.747365
-0.315519 1.92857 1.33593
-0.925086 0.0516706 -1.73613
-1.78588 0.284408 -0.562953
-1.8294 0.288048 -0.542378
-1.95736 0.309637 -0.595702
-2.05889 0.352259 -0.318784
-2.21234 0.414965 -0.378761
-2.30741 0.447381 -0.735588
3.85041 -1.53998 1.31107
3.811 -1.52504 1.29506
2.74054 -0.445986 0.747079
1.29188 -0.478273 2.45504
1.24889 -0.272705 2.14197
1.02813 -0.204986 2.1563
1.08304 0.0868313 1.68563
0.660684 -0.216893 0.372649
0.406898 0.0209936 1.12505
0.209163 -0.0996196 0.902653
0.175543 2.29815 1.52124
-0.241299 -0.193188 -1.14219
-0.457058 0.412088 0.449768
-0.347476 -0.150112 -0.898615
-0.32176 2.35687 1.9225
-0.951814 0.0613939 -1.76577
-2.21865 0.417976 -0.92321
-2.49652 0.497109 -0.331512
-2.97262 0.803356 -0.391092
3.61757 -0.863229 1.02551
2.27713 -0.523258 0.830422
2.33218 -0.237382 -0.863226
1.0874 0.109768 1.58255
0.264019 0.348009 1.93749
-0.0614012 0.456416 1.13129
-0.474731 0.389031 0.31926
-0.817261 0.731253 0.404476
3.21154 -0.669587 0.791086
2.94719 -0.676821 1.13108
2.91986 -0.770271 1.23688
2.8081 -0.513252 1.04532
2.1 -0.197471 -0.00118875
2.0262 -0.246661 -0.1538
1.53847 -0.355531 1.86387
1.71239 -0.37051 1.07309
1.82278 -0.787548 -2.16147
-0.409481 0.312943 0.193241
-0.77601 0.735231 0.326538
-1.39942 0.189133 -1.44188
-1.76833 0.295056 -0.653342
2.31087 -0.772728 1.62673
1.62794 -0.326273 0.5649
1.40145 -0.243859 -0.512173
0.602137 -0.427496 -2.46014
-2.91769 0.775252 -0.430328
1.7604 -0.566856 2.38905
1.6033 -0.323934 1.09164
0.787983 -0.279755 0.206955
0.718758 -0.223323 0.43502
-2.95087 0.741141 -0.807427
0.431308 -0.111407 0.574829
1.99567 -0.460542 1.42242
2.09645 -0.500544 0.752681
1.24849 -0.215117 1.03729
-0.229458 2.34744 2.03019
4.04299 -1.6195 1.89247
3.61173 -1.48412 1.95789
3.60069 -1.48276 1.94255
2.37673 -0.782012 2.36726
2.38299 -0.783824 2.34181
1.75967 -0.52623 2.44939
1.74632 -0.52048 2.44328
1.73103 -0.516706 2.43942
3.56909 -1.46603 1.66096
2.46847 -0.804703 2.09898
2.46698 -0.795336 2.06139
2.45139 -0.794596 2.06315
3.69975 -1.49259 1.48115
3.85921 -1.53977 1.39693
2.03483 -0.709718 2.0714
3.72005 -1.49582 1.30737
2.38481 -0.765492 1.87381
2.37729 -0.761161 1.85935
2.54379 -0.800345 1.73323
3.63122 -1.47015 1.21323
2.70391 -0.849762 1.58087
0.667431 0.204169 2.46962
2.70078 -0.851139 1.56619
2.69506 -0.844321 1.53055
1.05795 -0.220719 2.1933
1.8783 -0.443979 1.77739
1.851 -0.439283 1.77171
1.46577 -0.327757 1.89018
1.05817 -0.175342 1.91305
0.531917 0.262815 2.0547
0.29387 0.339206 1.94933
1.48254 -0.169579 1.33056
1.33313 -0.121699 1.3874
1.30517 -0.120308 1.35603
1.34085 -0.132408 1.33452
1.17338 -0.239373 1.41842
1.27849 -0.116364 1.34905
-0.0784936 2.27394 1.89376
1.73288 -0.356202 1.06644
1.52494 -0.288094 1.16463
1.24926 -0.14466 1.28626
1.7217 -0.349096 1.05458
1.25999 -0.228075 1.20445
0.738035 0.0500932 1.43951
0.754908 0.0536521 1.42723
0.138888 0.390123 1.71352
2.15373 -0.476597 0.706591
0.395538 0.0224169 1.25842
1.15224 -0.183689 0.797629
2.98328 -0.473366 -0.118954
-0.218911 0.514309 1.21978
2.16314 -0.222564 -0.0474289
2.65262 -0.234269 -0.286881
-0.271882 0.546121 0.968502
0.35124 3.01918e-05 0.549011
0.378424 -0.00559585 0.531276
0.362018 -0.000743838 0.532862
1.6468 -0.459649 -0.148627
1.61514 -0.440415 -0.1666
0.84297 -0.184944 0.139727
1.22179 -0.332442 -0.0870383
1.25005 -0.339638 -0.106392
1.24342 -0.331906 -0.118395
1.40283 -0.388415 -0.203419
0.265139 -0.0620032 0.104115
0.476506 -0.114263 -0.0017034
0.469243 -0.108029 -0.0112357
0.249826 -0.0449164 0.0918256
0.233386 -0.0417002 0.093509
0.662663 -0.160584 -0.127205
0.677742 -0.160684 -0.146851
-0.712582 0.690471 0.61879
2.40443 -0.99365 -1.23461
1.85727 -0.829138 -1.05258
1.90259 -0.853693 -1.19775
1.78097 -0.80982 -1.19903
0.488119 -0.435362 -0.58679
2.29733 -0.943622 -1.53186
2.02658 -0.883613 -1.43712
1.40753 -0.683212 -1.21119
1.83438 -0.808636 -1.46193
2.03706 -0.873257 -1.57063
0.827234 -0.525677 -0.966905
1.121 -0.6217 -1.1987
1.19362 -0.634483 -1.26147
1.5826 -0.735629 -1.46614
1.66647 -0.773439 -1.52525
1.59228 -0.742197 -1.66104
-1.73328 0.242217 -0.154822
1.38393 -0.673727 -1.87327
-0.32996 -0.163259 -1.04211
1.39488 -0.664908 -2.05807
-2.42913 0.476768 -0.501986
-0.912436 0.0404297 -1.31457
1.17099 -0.572137 -2.48484
-1.89434 0.311349 -0.885389
0.669826 -0.419956 -2.49755
0.548347 -0.362543 -2.99613
3.65611 -1.50259 1.85599
4.08543 -1.60852 1.64331
3.59667 -1.48443 1.75636
2.80552 -1.23347 2.11649
1.44492 -0.557654 2.57569
3.20877 -0.65361 1.55924
0.394038 2.10792 2.51552
0.437044 2.09827 2.46038
2.89589 -0.767054 1.63755
3.74609 -1.51778 1.30472
3.7741 -1.52891 1.26491
2.30557 -0.78225 1.86798
2.61216 -0.832584 1.65894
3.50307 -0.714892 0.972698
0.3956 2.12061 2.19833
0.0950958 2.21034 2.32597
-0.242373 2.39707 2.47221
0.0905276 2.20831 2.29677
0.251586 2.16283 2.18881
0.315287 2.14705 2.12392
0.0193573 2.23371 2.23771
2.87365 -0.521479 0.973408
0.605319 0.243186 2.04102
0.490093 0.275426 2.05974
0.468565 0.279612 1.97815
0.926367 0.0131042 1.71259
1.47557 -0.296928 1.43792
1.13136 0.042472 1.58845
1.13088 0.0492271 1.57415
1.37174 -0.131467 1.39975
1.28404 -0.119752 1.36634
-0.0580267 2.26674 1.8979
-0.00498122 2.25388 1.83245
0.085646 2.22941 1.76047
1.45963 -0.333681 1.16251
1.35607 -0.30782 1.1716
0.155616 0.387036 1.71336
0.671956 0.0427557 1.43591
0.110058 0.407675 1.46252
0.646351 -0.0494914 1.15753
1.33813 -0.178226 0.710628
2.23225 -0.256424 0.104166
2.25463 -0.262948 0.0916039
-0.324752 0.557055 1.10348
0.19401 -0.0964441 0.742153
0.63942 -0.220549 0.483416
0.443232 -0.0769218 0.58207
1.22013 -0.352932 0.103467
1.07277 -0.294984 0.0261364
1.49315 -0.404969 -0.191913
1.06096 -0.284744 0.014036
1.03663 -0.275806 -0.0120401
0.901433 -0.23051 -0.122377
-0.60146 0.663351 0.682049
0.86024 -0.221904 -0.138183
0.548786 -0.136425 -0.0597724
0.679395 -0.1679 -0.132569
0.626738 -0.15175 -0.111336
1.63336 -0.0698136 -0.628497
-0.624186 0.671658 0.508088
-0.648133 0.683452 0.447492
1.84757 -0.835579 -0.975854
2.37114 -0.97892 -1.32088
-0.343154 0.281233 0.152691
1.88007 -0.847964 -1.18526
1.74754 -0.802923 -1.18475
1.99599 -0.868157 -1.4032
2.01607 -0.872662 -1.4447
1.99913 -0.851802 -1.4495
0.995377 -0.572262 -0.996582
1.4457 -0.703627 -1.23364
0.289611 -0.375406 -0.666556
0.745785 -0.502452 -0.933065
1.60811 -0.743199 -1.47456
1.8565 -0.810216 -1.6158
1.98117 -0.856862 -1.68851
1.25055 -0.630955 -1.3615
-1.95821 0.30386 0.218926
1.3828 -0.678779 -1.53615
0.910071 -0.526857 -1.29793
1.84094 -0.810995 -1.81049
1.2321 -0.623087 -1.49396
-1.78956 0.255984 -0.0508553
1.4046 -0.664339 -1.86825
0.382998 -0.373022 -1.35533
1.0236 -0.553989 -1.69947
-0.905634 -0.00827963 -0.716324
-0.888179 -0.0129277 -0.731336
-1.16056 0.0969888 -0.765994
-0.915039 0.0151267 -0.948305
1.05706 -0.575501 -2.01903
0.868091 -0.494404 -1.95639
-2.25956 0.421626 -0.346096
-1.15503 0.0951157 -0.945116
-1.05386 0.0645169 -1.18362
-0.874612 0.0267881 -1.2873
-2.68161 0.553394 -0.593411
1.04079 -0.520066 -2.58191
0.684196 -0.425546 -2.50517
0.739356 -0.402952 -3.03667
0.804549 -0.430884 -3.31288
3.69059 -1.50891 1.69943
0.447274 2.08974 2.57041
2.13286 -0.747491 2.22494
2.09039 -0.732899 2.21235
1.91347 -0.683365 2.21456
0.623457 0.325208 2.61072
1.47403 -0.547804 2.26012
1.65414 -0.597244 2.12086
0.0664455 2.21748 2.24049
1.81329 -0.385074 1.58323
1.04157 -0.0515155 1.84885
2.82939 -0.465776 0.907577
0.969701 -0.00118199 1.79979
1.12871 0.0262502 1.60528
0.00872521 2.24336 1.99109
0.229052 0.357268 1.87186
1.14131 -0.232985 1.42952
-0.00456412 2.25432 1.8548
-0.000567579 2.25332 1.80697
1.42888 -0.324889 1.17083
2.31488 -0.530037 0.735796
1.29559 -0.284293 1.14238
0.785825 -0.0865555 1.13814
0.669261 -0.0497597 1.13967
1.22243 -0.205029 0.858066
1.68987 -0.337259 0.58648
0.505885 -0.000947257 1.13973
1.22935 -0.187914 0.7675
-0.332205 2.03708 1.48799
2.93234 -0.456543 -0.197695
1.16882 -0.155283 0.651622
1.14834 -0.142162 0.652146
1.16626 -0.144107 0.640342
2.07983 -0.237479 0.118826
-0.569811 1.9555 1.46062
2.11793 -0.223332 0.0215185
0.161065 -0.101016 0.94756
0.882781 -0.292209 0.510587
0.0491702 -0.0592249 0.822436
0.727864 -0.23281 0.279305
1.40633 -0.429935 -0.0761274
1.89925 -0.354179 -0.396145
1.31496 -0.358885 -0.15596
-0.226887 0.0390576 0.415485
1.61617 -0.0971968 -0.629752
-0.440536 0.386704 0.349934
-0.418289 0.306269 0.231476
0.592061 -0.451902 -0.66065
0.983186 -0.552216 -1.06721
1.13329 -0.616875 -1.16811
0.560542 -0.439483 -0.880726
1.6869 -0.772246 -1.51367
1.64819 -0.751293 -1.53399
-2.10672 0.349054 0.296925
0.764967 -0.491216 -1.22729
-0.892789 -0.0217947 -0.39389
1.80449 -0.784754 -1.82213
-0.617478 -0.0918112 -0.615648
1.32246 -0.645505 -1.85773
-0.414096 -0.145912 -0.968936
-1.28201 0.115646 -0.641404
-1.17675 0.0979837 -0.741414
-1.25879 0.130748 -0.70062
1.05139 -0.565441 -2.02919
0.00416476 -0.251349 -1.48352
-2.04588 0.345798 -0.488069
-0.387818 -0.133649 -1.44097
-0.750957 -0.0238142 -1.34267
-1.0684 0.0828928 -1.17121
-1.23818 0.133304 -1.13219
-0.514124 -0.0889727 -1.5516
-2.48969 0.489295 -0.541299
0.677626 -0.410238 -2.25642
1.00178 -0.520818 -2.46858
0.653232 -0.39836 -2.27749
-2.65933 0.552862 -0.613683
-1.73325 0.294698 -1.12157
-2.63178 0.55584 -0.763901
0.800287 -0.448801 -2.61665
1.07051 -0.527277 -2.77305
-1.02154 0.0742282 -1.67619
1.10386 -0.526889 -2.88249
-3.16379 0.875994 -0.645057
-1.84653 0.33847 -1.49245
-0.0253704 -0.204799 -2.52347
0.609318 -0.388332 -2.97343
1.85728 -0.642241 2.45154
3.81046 -1.53954 1.56229
1.808 -0.623421 2.36939
1.83289 -0.634278 2.34929
1.57903 -0.564183 2.41796
1.77147 -0.618416 2.30749
-0.0912007 2.44587 2.681
1.74421 -0.605404 2.29196
1.66988 -0.588603 2.30355
3.75607 -1.51738 1.32407
2.75711 -0.832452 1.59131
0.835802 0.041128 2.37949
3.36681 -1.38001 1.16724
1.62279 -0.388293 1.8905
1.33911 -0.287446 1.92375
1.79502 -0.39429 1.60946
1.83792 -0.398889 1.58228
-0.321726 2.43249 2.08628
-0.0872556 2.27847 1.87726
-0.33441 2.37141 1.94254
0.552442 0.0123395 1.50618
1.95455 -0.217572 0.0512748
2.04079 -0.231062 -0.0401219
0.31689 -0.116632 0.668992
0.482266 -0.143243 0.537903
0.484811 -0.138246 0.507861
0.6044 -0.184244 0.306485
0.416361 -0.13847 0.185677
1.59701 -0.254719 -0.610283
1.88915 -0.849818 -0.915705
-1.40304 0.933877 0.766513
-0.423125 0.320607 0.0134776
0.939928 -0.565773 -0.862404
0.845533 -0.537357 -0.950335
1.11045 -0.587191 -1.37183
1.19848 -0.612531 -1.46368
-0.920637 0.00245025 -0.571024
-1.60202 0.20617 -0.555726
0.665627 -0.44242 -1.86197
-2.32821 0.446669 -0.334502
-0.447173 -0.1245 -1.39766
-0.411267 -0.134346 -1.42302
-0.689562 -0.0430815 -1.28452
-0.467443 -0.104035 -1.40436
-2.29266 0.436106 -0.477993
-1.62 0.238328 -0.863299
-0.331505 -0.144871 -1.60108
0.144058 -0.275957 -1.86319
1.2679 -0.597399 -2.58801
-2.57158 0.528471 -0.690702
-0.877654 0.0292023 -1.80215
0.439615 -0.326147 -2.89789
4.08954 -1.62908 1.86555
3.62108 -1.49248 2.02577
3.58399 -1.47403 2.04448
1.58604 -0.561947 2.44961
3.85467 -1.53018 1.31606
1.21733 -0.273699 2.21163
1.06197 -0.218716 2.23375
1.49844 -0.334599 1.90201
1.93875 -0.429077 1.68948
1.02367 -0.170946 2.05222
1.00737 0.12033 1.70334
0.547003 -0.0186771 1.24501
0.738231 -0.0733065 1.148
1.27519 -0.185023 0.759326
0.544625 -0.0177278 1.0784
0.407262 0.0192621 1.11882
0.410402 -0.145922 0.631908
0.884115 -0.233195 0.202064
0.37655 -0.135028 0.198508
-0.163347 0.0365918 0.14768
1.0654 -0.619994 -0.688655
-0.819244 0.731426 0.40111
0.650964 -0.471777 -0.868486
1.28084 -0.665435 -1.2894
0.401902 -0.385775 -0.918212
-2.02903 0.312874 0.208372
-1.65433 0.216905 -0.192964
-0.392444 -0.137663 -1.01194
-0.444154 -0.114262 -1.22301
-1.96338 0.309642 -0.538133
-2.1815 0.381203 -0.499643
-2.07808 0.3438 -0.593519
-0.0479662 -0.219568 -1.74329
0.611476 -0.403827 -2.42242
-2.21029 0.415476 -0.970827
-1.49499 0.180784 -1.36409
0.318491 -0.291839 -2.83165
2.04405 -0.718828 2.23545
2.5894 -0.694629 1.94047
2.44529 -0.768644 1.88929
2.91158 -0.765214 1.63985
3.81121 -1.51214 1.25584
3.87072 -1.55475 1.2129
1.3768 -0.307653 2.10135
0.268413 0.348117 1.94034
0.176513 2.29592 1.5226
-0.275493 2.21454 1.73867
0.47801 0.00299375 1.0774
0.201112 -0.100409 0.91361
-0.347417 0.574526 0.8186
-1.31338 0.915697 0.650069
0.16957 0.330193 -0.459116
-1.93114 0.3003 0.200189
0.698814 -0.473704 -1.23435
-0.23457 -0.194935 -1.14651
-1.15719 0.0990329 -0.78908
-0.415903 -0.124898 -1.36815
-1.95292 0.306632 -0.588151
-0.256883 -0.170612 -1.57055
0.719817 -0.444012 -2.21255
-0.534893 -0.0625214 -1.57069
-2.97855 0.796015 -0.359281
-2.40818 0.49363 -0.874743
0.811356 -0.45231 -2.62903
2.87043 -0.782782 1.62213
1.26209 -0.27512 2.13177
0.266754 0.34638 1.93586
-0.152791 2.29646 1.97423
1.74673 -0.362803 1.0133
0.622731 -0.033726 1.23636
2.20907 -0.251273 -0.00531144
-0.0899028 0.0437778 0.360907
1.9229 -0.847422 -1.30833
-2.09862 0.348951 0.0747166
-1.84689 0.30558 -0.586021
-1.76477 0.283788 -0.64443
1.25726 -0.598701 -2.29766
2.1665 -0.745849 2.13329
1.34094 -0.289939 2.01963
2.92565 -0.777115 1.2307
1.73275 -0.388931 1.71968
2.81312 -0.501183 1.0468
2.76759 -0.4742 0.924641
2.15466 -0.49904 1.04883
1.82094 -0.605812 0.968567
2.20335 -0.451939 0.529082
0.667087 -0.0412593 1.09424
2.13766 -0.22538 0.0406701
1.16655 -0.169892 -0.187909
2.18048 -0.497927 0.982804
1.55986 -0.218971 0.701473
-3.11117 0.860897 -0.713459
0.741871 -0.22256 0.428022
-2.92017 0.757662 -0.788499
1.2219 -0.334893 0.267108
0.306617 -0.0951636 0.63047
1.98315 -0.219083 0.292725
-0.436975 0.432231 0.425277
2.04025 -0.624559 -0.983849
2.08513 -0.356882 -0.36198
-0.0578215 2.26713 1.8989
0.51011 0.26739 2.04983
1.0593 -0.218843 2.19223
1.07247 -0.222421 2.19434
1.26901 -0.290134 2.25841
0.284924 0.339998 1.65251
1.73084 -0.517218 2.43955
1.74652 -0.521503 2.44443
1.74468 -0.521758 2.43021
-0.334618 0.560708 1.12417
-0.1498 0.501039 1.16599
2.02209 -0.711449 2.19925
2.38389 -0.776777 2.34201
-0.547486 0.643221 0.772552
2.4046 -0.783961 2.33573
2.42738 -0.788137 2.30479
0.818441 0.0231425 1.43888
0.809155 0.0256269 1.42866
0.777434 0.0414943 1.3827
1.10372 0.0705701 1.5221
-0.475823 0.619989 0.710162
1.15355 -0.245721 1.45939
2.45348 -0.800706 2.09764
1.27513 -0.117119 1.3481
2.41478 -0.769122 1.91827
2.41896 -0.774647 1.9008
2.38486 -0.764266 1.87448
-2.67274 0.548629 -0.604978
-1.85553 0.28787 -0.200226
-1.63112 0.194533 -0.115411
2.51105 -0.793253 1.75711
2.5424 -0.795222 1.73298
-1.49962 0.169632 -0.366296
2.70468 -0.850088 1.5823
2.89622 -0.767176 1.63709
1.72382 -0.349951 1.05537
1.71472 -0.33174 1.01551
-1.14041 0.0654868 -0.352363
2.72318 -0.839537 1.28882
0.233172 -0.0420466 0.0947591
0.267184 -0.0630777 0.104894
0.249093 -0.0468884 0.0923742
3.97923 -1.57975 1.87195
4.04319 -1.61916 1.89086
3.56488 -1.46236 1.64802
3.58713 -1.46263 1.51198
3.69864 -1.48917 1.48317
-0.831132 -0.0300062 -0.750709
4.0454 -1.59067 1.52855
3.72461 -1.51245 1.30754
0.662509 -0.160652 -0.12641
0.682792 -0.179643 -0.118216
0.679425 -0.167931 -0.130812
3.44066 -1.40534 1.13052
3.63137 -1.46945 1.21594
1.09469 -0.308277 0.0313191
1.06066 -0.287248 0.0144583
3.44977 -1.40866 1.11859
3.47019 -1.40944 1.12456
1.04872 -0.282101 0.00063926
1.29518 -0.341526 0.112783
3.46811 -1.40796 1.10242
2.73214 -0.443332 0.730923
1.40337 -0.388894 -0.201587
-0.315188 -0.175248 -1.05843
1.64853 -0.461447 -0.147127
1.65066 -0.45615 -0.161107
2.19673 -0.245295 0.0554948
2.25676 -0.253459 0.0776709
-0.477554 -0.106698 -1.381
0.260126 -0.336912 -1.09675
3.17718 -0.544576 0.147404
0.722 -0.49614 -1.12951
1.04307 -0.583169 -1.0473
2.98274 -0.473746 -0.117792
2.99618 -0.476591 -0.109066
2.97947 -0.470793 -0.131943
2.94649 -0.456331 -0.19185
1.09866 -0.59203 -1.30433
1.1723 -0.618164 -1.31429
2.68465 -0.226111 -0.500102
1.44407 -0.702449 -1.22795
0.210494 -0.302121 -1.87358
1.38236 -0.676785 -1.38267
0.708939 -0.471912 -1.73792
1.70467 -0.779813 -1.50848
1.93457 -0.84016 -1.40856
1.98518 -0.855403 -1.43842
2.2971 -0.941683 -1.52988
1.33518 -0.669943 -1.9938
0.0930456 2.20905 2.32459
0.0548113 2.21934 2.24781
0.437322 2.09761 2.46133
-0.154165 2.29407 1.96816
0.255348 2.1618 2.19091
-0.0794738 2.27539 1.89605
0.360407 2.12975 2.13132
0.0575946 2.22893 1.9502
-0.0803896 2.27604 1.87364
-0.00769194 2.25335 1.8561
0.612084 0.222088 2.4148
0.925806 0.121551 2.57531
0.142308 0.387352 1.90705
0.195499 0.374683 1.80288
0.173614 0.382369 1.78755
1.45614 -0.553994 2.52884
1.72438 -0.519769 2.4981
1.47582 -0.551029 2.26114
-0.217856 0.516295 1.24536
0.868264 0.0919418 1.58484
2.37451 -0.781955 2.36617
-1.96409 0.310226 0.159787
1.63329 -0.37744 1.85779
2.44037 -0.806915 2.23713
-0.651504 0.677709 0.44573
1.37169 -0.132131 1.4021
-0.711008 0.715653 0.203785
-2.18781 0.403591 -0.454673
-1.8528 0.28313 -0.450877
1.06305 -0.153776 0.835323
3.65507 -1.51068 2.08611
1.76262 -0.38916 1.11883
-1.1946 0.0976369 -0.296671
-2.23083 0.437217 -0.968781
-0.00913015 0.0315441 0.0603005
3.61366 -1.48729 1.78918
2.71956 -0.840585 1.30526
0.265894 -0.0521823 0.0917096
4.10203 -1.63401 1.90425
-1.91795 0.334996 -0.976453
-1.52285 0.205757 -0.798568
-1.80127 0.290133 -1.01214
-0.944475 0.00301572 -0.615698
-0.995219 0.0149134 -0.640969
-1.7046 0.276277 -1.00326
-0.990259 0.022165 -0.663816
-0.939399 0.0102631 -0.672534
4.06548 -1.59588 1.66552
4.08764 -1.60945 1.64646
-0.828684 -0.0335319 -0.733178
3.8346 -1.53702 1.43886
2.93578 -0.508278 1.02291
-1.23498 0.103917 -0.957068
2.81364 -0.473043 0.944458
2.8104 -0.461898 0.92469
3.72372 -1.5044 1.32941
3.67575 -1.48932 1.22244
1.03488 -0.277092 -0.0115271
1.0751 -0.290077 0.00621942
1.1051 -0.300487 0.0120085
-0.885275 0.00749156 -0.956986
0.901599 -0.230044 -0.121256
2.74729 -0.438583 0.735362
3.50161 -0.711404 0.972765
-1.52369 0.241091 -1.39552
2.3577 -0.529559 0.421509
0.289351 -0.374006 -0.666471
1.37815 -0.37366 -0.208237
1.49305 -0.404656 -0.190171
1.61512 -0.441745 -0.16561
0.0583031 -0.294052 -0.986417
-0.171364 -0.20675 -1.10582
2.15069 -0.214679 -0.0371023
0.366762 -0.381348 -0.922713
2.1643 -0.223906 -0.0453936
1.44795 -0.231339 -0.406966
-0.265177 -0.166925 -1.25786
-0.479231 -0.095034 -1.39309
2.07251 -0.182279 -0.191589
0.418449 -0.390229 -1.0831
2.45766 -0.369403 -0.106019
0.822577 -0.529348 -0.96917
0.380946 -0.37361 -1.35406
1.15841 -0.630771 -1.03733
0.764036 -0.48949 -1.22563
2.96128 -0.470918 -0.163158
1.11762 -0.616833 -1.1117
0.0378433 -0.244227 -1.71266
0.575557 -0.421301 -1.61136
0.849117 -0.52608 -1.54137
0.579814 -0.421499 -1.72992
1.23199 -0.620644 -1.48877
0.80741 -0.47835 -1.8343
2.40687 -0.995112 -1.23376
2.02731 -0.882669 -1.4327
1.61399 -0.770355 -1.64249
2.37101 -0.977185 -1.31887
0.0790712 -0.22843 -2.30684
1.92726 -0.836487 -1.52568
1.8559 -0.814887 -1.61584
2.03529 -0.875853 -1.57147
1.0549 -0.578973 -2.01925
1.40547 -0.671424 -1.86783
1.95326 -0.858161 -1.65242
1.80422 -0.787036 -1.82148
1.82512 -0.804498 -1.81753
2.07214 -0.877536 -1.79076
1.2229 -0.584431 -2.49514
1.04073 -0.517549 -2.58014
0.548848 -0.361345 -2.99499
0.335684 2.12906 2.41746
0.170192 2.19162 2.22701
0.183706 2.18011 2.23214
-0.0912067 2.28049 1.8623
-0.0352511 2.26118 1.84874
0.114475 2.21951 1.76853
0.489151 0.265533 2.4427
0.856811 0.139427 2.56083
0.236707 0.363206 1.82383
-1.40527 0.930235 0.765824
1.7287 -0.513617 2.48486
1.7689 -0.528417 2.41682
1.49291 -0.553826 2.28995
-0.676262 0.686364 0.811508
1.0726 0.0544492 1.71426
2.02905 -0.714167 2.11775
2.05179 -0.715223 2.12718
2.02614 -0.711384 2.09067
0.510355 -0.0067845 1.23404
0.473606 0.00535245 1.1409
1.16363 -0.243727 1.44956
0.132965 -0.0867793 0.872693
-2.6595 0.549021 -0.614305
-1.89533 0.300769 -0.485011
3.30709 -1.40054 2.03445
0.349481 -0.00714037 0.496273
-2.0653 0.373523 -0.67825
-2.34653 0.445303 -0.822937
2.54567 -0.833446 1.5333
-0.311898 0.249782 0.135435
3.61831 -1.48564 2.05912
-2.32679 0.455255 -0.83306
1.25975 -0.179533 0.766755
-2.06522 0.382597 -0.887109
-1.4109 0.168515 -0.624642
0.123254 -0.00492786 0.0928584
3.54923 -1.45371 1.73866
-0.805876 -0.0581929 -0.358922
-0.746004 -0.0475413 -0.376607
-1.29705 0.12417 -0.655464
0.664786 -0.220308 0.206689
-1.00494 0.0274628 -0.635108
-0.977332 0.0266503 -0.686774
3.53108 -1.42937 1.39947
2.72543 -0.485488 1.02029
-0.626901 -0.0918353 -0.572585
-0.665887 -0.0701076 -0.608842
-1.73525 0.29342 -1.12666
0.546125 -0.135952 -0.0561201
2.37019 -0.545875 0.771611
1.79296 -0.365263 0.49146
3.86798 -1.54536 1.41034
-1.19058 0.0919686 -0.960793
2.83316 -0.470546 0.937675
2.84514 -0.475544 0.918102
2.98361 -0.560862 0.93522
3.77179 -1.52811 1.26588
2.09179 -0.45546 0.476385
-1.11904 0.091351 -1.04377
-0.480215 -0.110499 -0.794454
-1.05142 0.068117 -1.18149
0.512292 -0.430825 -0.63151
-1.56101 0.252968 -1.60402
-1.30608 0.155111 -1.52567
2.11334 -0.249302 0.0627375
-0.799889 -0.00451168 -1.33736
-0.40332 -0.119427 -1.17727
2.21741 -0.26224 0.0343823
2.12208 -0.21089 -0.015985
0.908817 -0.555587 -0.853912
0.96862 -0.575573 -0.885982
3.16525 -0.546613 0.153127
0.859691 -0.537279 -1.10884
-0.262744 -0.145761 -2.01196
0.895735 -0.524743 -1.55924
1.83275 -0.831669 -1.19703
0.60921 -0.427842 -1.74078
1.96175 -0.861358 -1.17506
0.670116 -0.456675 -1.78294
1.67711 -0.769682 -1.49106
0.708619 -0.43886 -1.93022
1.66778 -0.76746 -1.54036
0.707966 -0.441234 -1.96248
0.765595 -0.48976 -2.02157
1.05123 -0.567984 -2.03114
1.08086 -0.563389 -2.02962
1.00504 -0.545284 -2.25907
1.26198 -0.606243 -2.19777
1.43259 -0.675529 -2.42508
0.980767 -0.133961 2.03907
0.935332 0.00823071 1.73213
-0.103439 0.485623 1.16313
-2.11949 0.355442 0.24455
-2.10275 0.348188 0.230997
2.13414 -0.749864 2.22472
1.12737 0.0252335 1.62686
-1.94022 0.306075 0.151873
2.16332 -0.689707 2.06803
2.45223 -0.798648 2.0324
0.802924 -0.0932987 1.15825
-2.57623 0.508704 -0.494158
-3.52907 0.892901 -0.98635
2.49998 -0.735972 1.88079
-0.467311 0.440603 0.381678
-1.76945 0.261352 -0.235887
-0.153936 0.00955462 0.521367
0.801481 -0.0875036 0.917768
2.89207 -1.2589 1.99297
0.31792 -0.125284 0.668501
-1.61214 0.218496 -0.294911
-1.0924 0.0472813 -0.23893
0.482485 -0.150456 0.508188
-1.79931 0.2961 -0.588263
0.469043 -0.149668 0.469319
-0.16271 0.0340137 0.147295
-0.895927 -0.025456 -0.398872
0.42032 -0.139966 0.1885
2.19443 -0.51283 1.02705
-0.914325 -0.012581 -0.479534
1.66307 -0.349094 0.6635
1.63631 -0.319147 0.6171
2.72943 -0.499547 1.06031
-0.695182 -0.0721573 -0.605656
-0.839008 -0.0220342 -0.729169
-1.59801 0.24601 -1.15679
3.75448 -1.52841 1.28627
-1.09971 0.0635034 -0.993407
-1.11833 0.0788515 -1.01586
0.180321 0.343033 -0.385485
0.209021 0.339807 -0.376859
-1.09103 0.0728861 -1.03241
3.92174 -1.55947 1.29972
-0.465879 -0.125443 -0.763927
0.221378 0.342272 -0.418013
-1.06958 0.0843983 -1.16981
-1.17169 0.109012 -1.23475
0.487413 -0.431152 -0.619755
2.04857 -0.24677 0.123872
-0.163457 -0.205631 -1.17456
2.55514 -0.429425 0.0927409
