-0.352613 0.38449 2.25986
-0.520313 0.649589 2.46263
0.0354866 0.434689 1.75045
0.157687 0.442489 2.40796
-0.640413 2.18373 3.18941
-3.04981 0.643989 0.130635
-3.58001 0.820789 2.31983
-3.54961 0.814589 2.3523
-3.32851 0.716889 1.99639
-3.17881 0.67229 1.51246
-3.36931 0.73709 2.60222
-2.66001 0.508589 2.037
-2.33601 0.399689 1.09837
-2.55001 0.473889 3.4083
-2.08471 1.15259 2.41167
-1.92041 1.09399 2.44828
-0.554412 0.52919 0.0746247
-0.513412 0.34439 1.28671
-0.518713 0.344189 1.38395
-0.704412 0.48139 2.23329
-0.0989128 0.23859 1.29628
0.437987 0.0554893 0.0850749
-0.033712 0.12619 1.57978
0.365988 0.0740897 0.623685
0.585688 0.18499 0.0508947
-0.0578133 0.300589 1.72082
-0.0642124 0.298989 1.75182
-0.0212132 0.36489 1.73279
-0.0843121 0.37609 1.90138
-0.0127121 0.43839 1.8413
0.757588 -0.0553105 1.57124
0.733387 -0.0483105 2.11289
0.0914882 2.29057 3.02166
-3.62111 0.82119 2.08301
-3.32501 0.73209 2.7765
-3.20071 0.693689 2.77885
-2.38611 0.431189 0.694125
-2.97811 0.61129 2.68284
-2.43531 0.436889 1.29738
-2.04901 0.309789 0.796605
-1.94731 0.280289 0.534085
-1.27951 0.66879 -0.0769551
-0.945812 0.25659 1.94535
-0.548813 0.348989 1.53965
-0.770912 0.31159 2.23498
-0.612312 0.361089 1.88731
-0.502212 0.33459 1.69275
-0.905113 0.76919 2.50301
-0.179813 0.310289 1.94005
0.017588 0.42159 1.79062
0.499487 0.0446899 1.06124
0.472588 0.34309 2.61018
-3.05671 0.632089 2.16455
-2.65301 0.52079 2.20275
-2.81781 0.554889 2.95824
-2.81421 0.552589 2.99487
-2.17031 0.36289 1.01475
-1.23051 0.55779 0.216795
-1.17231 0.452889 0.662085
-1.13311 0.386889 0.692325
-1.92271 1.11809 3.30763
-1.10991 0.43629 1.61679
-0.559612 0.559789 -0.0311351
-0.688913 0.556789 0.793525
-0.413213 0.534389 2.40407
0.574387 0.0046899 1.19381
1.39399 -0.106611 -0.0340052
0.698588 -0.0365107 2.0711
0.227688 2.25063 3.26809
-3.55351 0.81349 0.586825
-2.79011 0.55229 0.308215
-2.75531 0.55929 2.99929
-1.97501 0.930389 1.30753
-1.56141 0.98009 2.55297
-2.18481 0.36819 0.832705
-2.20851 0.36989 0.989685
-1.55251 0.50939 1.77619
-3.03281 0.627189 0.121215
-1.99311 0.806189 1.56147
-2.05021 1.13919 2.42267
-0.882812 0.26869 0.641025
-0.798313 0.233989 0.676925
-1.19231 0.34579 1.83656
0.637888 -0.00271061 1.24392
-0.864412 0.23969 0.728585
0.0637878 0.17859 0.942175
-3.58081 0.81139 2.20565
-3.71001 0.84299 0.894095
-3.66941 0.827889 0.860015
-3.72051 0.851289 0.666035
-3.58791 0.809889 1.04249
-3.73191 0.859489 0.478585
-3.23041 0.698789 1.40873
-2.83611 0.572489 0.612345
-2.81561 0.563389 0.0936649
-2.48341 0.461289 1.02107
-2.06291 0.33529 0.728855
-1.53121 0.970389 2.514
-1.89561 0.27199 0.796715
-1.90201 0.27719 0.721645
-1.19371 0.447489 1.62229
-1.18371 0.451589 1.64489
-0.405712 0.618089 2.47579
-3.50151 0.790789 2.93656
-3.69221 0.850589 2.20033
-3.33121 0.714889 2.5629
-3.61171 0.816689 1.20722
-3.66291 0.82839 0.875155
-3.61361 0.81499 0.910515
-3.29901 0.720689 1.96854
-3.44801 0.766989 0.890095
-3.16901 0.670089 1.6693
-3.01261 0.63299 1.56299
-2.89231 0.58379 1.94094
-2.88991 0.58379 1.88149
-2.71061 0.52129 2.02227
-2.59661 0.49979 0.935955
-2.45861 0.43659 1.32294
-2.55171 0.48629 1.01106
-2.41791 0.439489 1.29874
-2.40001 0.42799 0.630145
-2.11441 0.335589 -0.0675452
-1.94601 0.280089 -0.00669527
-1.21041 0.43779 1.59663
-1.21351 0.34649 1.35914
-0.609913 2.19687 3.28593
-0.636913 2.18115 3.18874
0.0612873 0.134789 1.52996
0.0304874 0.39159 1.69298
0.0676864 0.14999 1.48411
0.206988 2.24678 3.27121
-3.42211 0.77159 3.03775
-3.61971 0.814789 2.21099
-3.31431 0.721389 1.97023
-3.41411 0.749389 1.54093
-3.56901 0.81139 0.715975
-3.14161 0.66749 1.78659
-3.39961 0.75169 0.931405
-2.66511 0.512789 2.03762
-2.95751 0.614589 0.765105
-2.61951 0.502189 1.77612
-2.62541 0.500689 1.71434
-2.72461 0.53549 1.35698
-2.40411 0.43419 1.41124
-2.43811 0.43229 1.08419
-1.97641 1.11159 2.62575
-2.12761 0.33619 -0.0419152
-1.37211 0.91189 2.6196
-1.87581 0.258289 -0.418415
-0.462013 2.27596 3.28591
0.001387 0.133289 1.58025
-0.00931323 0.390589 1.7578
0.0142883 0.399489 1.73411
-0.620113 0.578589 -0.116945
-0.518512 0.523289 0.00335479
0.558688 0.313989 2.6782
-0.0809132 0.214789 0.433065
0.223088 0.118789 0.459175
-3.67111 0.839089 3.07151
-3.62811 0.826689 2.76468
-3.71371 0.855989 2.42345
-3.38541 0.746589 2.58936
-3.15691 0.66479 1.77732
-2.62571 0.50119 1.67861
-3.03561 0.63739 0.00140476
-2.43641 0.43869 1.29555
-2.00841 1.12839 2.47105
-1.58431 1.17731 3.78075
-2.29801 0.407189 1.15101
-2.40021 0.422589 0.511955
-2.20591 0.371589 1.00837
-2.29821 0.388189 -0.0196552
-1.69101 0.21159 -0.306225
-0.0530125 0.386389 1.89826
-0.0123135 0.40989 1.79855
0.113987 0.15499 0.799335
0.111088 0.181189 0.461495
0.210987 0.12269 0.424705
0.064587 2.28118 3.04559
-3.64441 0.816689 2.0413
-3.34371 0.738089 2.13351
-3.55801 0.788689 1.33312
-3.57021 0.83689 0.544275
-2.78411 0.553989 2.94083
-2.74901 0.55169 2.99883
-2.75761 0.55169 2.95937
-2.67701 0.51379 2.31834
-3.27451 0.721389 0.0781548
-3.13411 0.662789 0.489555
-2.99921 0.60509 0.738405
-3.10671 0.66739 0.289715
-2.98951 0.61199 0.623415
-2.79311 0.55029 0.300255
-1.84071 1.09199 3.23772
-2.41831 0.42719 0.507065
-2.15851 0.369389 0.973195
-1.28471 0.37889 1.65351
-0.803213 0.745689 2.62753
-0.266313 0.576589 2.62801
-0.539713 0.515389 -0.423255
0.530087 0.0230891 1.12881
-3.66281 0.84659 2.70252
-3.22511 0.699989 2.83948
-3.29391 0.71879 2.55921
-3.13271 0.678389 1.54422
-2.75041 0.54449 1.32783
-2.76121 0.55569 1.28658
-1.31941 0.901789 2.66402
-0.675413 0.70109 2.64196
-0.510412 0.637689 2.50209
-0.575513 0.353889 1.85195
-0.539812 0.34879 1.85051
-0.407213 2.30077 3.32267
0.520888 2.14991 3.282
-3.63501 0.825989 2.64413
-3.70621 0.84239 2.0337
-3.67721 0.82269 2.02637
-3.37281 0.737389 0.803425
-2.66811 0.502789 2.48863
-2.82611 0.539189 1.44064
-2.76841 0.55179 1.50906
-2.70721 0.530089 1.06783
-2.23101 0.357589 -0.290435
-1.43051 0.47489 1.79832
-1.21771 0.36059 1.08187
-1.26101 0.65009 -0.0179253
-0.633913 2.18396 3.38581
-0.491314 0.547089 -0.0803552
-2.25991 0.389089 0.875765
-1.73211 1.02529 2.52971
-0.875812 0.25229 0.717855
-2.05451 1.19969 3.14522
-0.573612 0.456589 0.148725
-1.24111 0.38029 1.49917
-1.08691 0.426889 0.728065
-2.20971 0.847089 2.20929
-3.73071 0.860389 2.14991
-3.35701 0.743689 2.2858
-3.58421 0.80929 2.03275
-3.43551 0.77129 2.12805
-2.99061 0.615089 2.24601
-3.29861 0.72089 1.97035
-3.33551 0.71879 1.80862
-3.27811 0.693289 1.81746
-3.15891 0.67029 1.46721
-3.74131 0.85859 0.946615
-3.62421 0.821089 0.994765
-3.44201 0.75259 1.10779
-3.71101 0.84369 0.894465
-3.11211 0.66189 1.29749
-3.42411 0.757589 1.02595
-3.57491 0.800589 0.852645
-3.54911 0.794189 0.849445
-3.32971 0.73289 1.00155
-3.46531 0.77409 0.881965
-3.31311 0.728089 0.982315
-3.44691 0.766989 0.888825
-3.42271 0.751589 0.847945
-2.78681 0.545689 1.27614
-2.76421 0.552589 1.28692
-3.62851 0.824989 0.587745
-2.41051 0.440389 1.3149
-2.74181 0.530289 1.04743
-3.45231 0.769089 0.451025
-3.06161 0.639689 0.343425
-2.91031 0.594089 0.355385
-2.97851 0.60639 0.245605
-2.00181 0.30429 0.795585
-1.14021 0.328589 1.37109
-1.94221 0.281689 0.745295
-1.88081 0.27549 0.756415
-2.72911 0.52709 0.246405
-2.89041 0.585089 0.137535
-0.0779129 0.323689 1.8388
0.0364879 0.426889 1.74896
-1.96451 0.29039 0.237025
-0.162613 0.21159 1.34013
-2.32141 0.39569 -0.0625053
-1.78041 0.227589 -0.429415
-3.38731 0.762489 3.02954
-3.57421 0.81349 2.71684
-3.36211 0.75039 2.89699
-3.59171 0.82199 2.50908
-2.95191 0.599789 2.76539
-3.10331 0.64659 2.27315
-3.08161 0.643789 2.27348
-3.06341 0.638289 2.22288
-3.31281 0.72099 1.96905
-3.44331 0.75259 1.81987
-3.42541 0.74349 1.81937
-3.73581 0.857389 1.55951
-3.49641 0.778789 1.67347
-3.68641 0.851089 1.42548
-3.31931 0.713489 1.48694
-3.32541 0.71519 1.47466
-2.08611 1.15309 2.4043
-3.51361 0.780089 1.11577
-3.55941 0.79729 0.989355
-2.80871 0.545789 1.48413
-0.608913 2.19802 3.28861
-3.54861 0.79469 0.913985
-2.70411 0.51849 1.44411
-0.575113 2.21203 3.2137
-3.58531 0.815289 0.561645
-2.43381 0.436889 1.29503
-2.41761 0.440189 1.29906
-0.525512 0.64769 2.65607
-2.68751 0.52789 0.935015
0.211687 2.25619 3.27721
-0.351513 0.359589 2.25346
-0.327913 0.443289 2.27785
-1.23771 0.419289 1.63483
-1.21721 0.428389 1.6277
-1.23961 0.416489 1.59787
-2.40441 0.43239 0.668235
-0.568514 0.35579 1.89436
-2.38081 0.42879 0.657285
-2.12421 0.349689 0.767215
-1.19271 0.334389 1.20346
-0.145013 0.27209 1.83871
-0.0898129 0.25789 1.70878
-0.0187126 0.36769 1.73082
0.0116867 0.38859 1.70334
0.0769867 0.30589 1.68769
0.0495876 0.393989 1.67369
-2.55121 0.463389 -0.127695
-2.22941 0.374189 -0.277365
-2.02891 0.311189 -0.245285
0.356387 0.0769898 0.629875
0.172287 0.144589 0.390565
-3.51691 0.798289 2.9047
-3.12121 0.64639 2.25452
-2.69331 0.518889 2.26994
-3.33681 0.73079 1.6407
-3.34141 0.718389 1.4844
-3.60791 0.82349 1.25905
-3.26721 0.69839 1.46601
-2.09071 0.907289 2.24367
-3.70261 0.83959 0.935555
-0.640613 2.18099 3.35924
-2.77611 0.55709 1.54548
-2.79931 0.55599 1.5302
-2.81031 0.537989 1.46319
-3.51741 0.782989 0.887245
-2.68601 0.51379 1.44281
-2.75341 0.54039 1.31009
-3.61461 0.818089 0.397325
-2.96981 0.608189 0.770445
-0.485113 0.63179 2.52627
-0.460313 0.63229 2.53011
-0.718212 0.455689 2.22618
-0.709812 0.517589 2.22882
-2.19061 0.36909 0.979435
-2.24731 0.376389 0.938995
-0.331012 0.36399 2.23592
-0.328613 0.397489 2.22328
0.538788 0.30719 2.68193
0.573988 0.316689 2.6599
-2.82101 0.559889 0.309245
-0.0152127 0.223889 2.12212
-0.298912 0.273889 1.87548
-3.00761 0.636089 -0.00224519
-2.68871 0.525889 0.132765
0.0139869 0.437389 1.82203
-2.46861 0.43859 0.0884249
-0.495412 0.33329 1.16411
-2.27691 0.382189 0.00781488
0.592888 0.00658962 1.34589
-1.60201 0.17679 -0.279535
-1.39811 0.10289 -0.436925
0.558987 0.185489 0.0922849
-0.475113 0.492289 -0.515715
-3.67131 0.83799 3.0721
-2.78561 0.551389 2.94754
-2.75741 0.55249 2.96108
-3.67951 0.83199 1.8753
-3.69631 0.837189 1.85559
-1.70331 1.05479 3.4211
-3.65881 0.82419 1.84488
-2.72091 0.533789 2.56405
-3.30451 0.70109 1.81806
-3.21601 0.688289 1.8571
-2.65571 0.51239 2.29045
-0.615913 2.19125 3.40628
-3.39501 0.74469 1.08515
-2.75511 0.518089 1.43809
-3.58971 0.814589 0.550005
-2.53961 0.48709 1.06871
-3.01531 0.618689 0.621995
0.141488 0.43449 2.53012
0.487587 0.34159 2.61928
-1.94171 0.273889 0.572675
-0.0629135 0.38509 1.82945
-0.0742127 0.285189 1.76251
0.0244869 0.44899 1.84093
0.0040878 0.38459 1.72468
-1.25921 0.570989 0.166725
-0.285413 0.512789 -0.115285
-3.32591 0.728389 2.50399
-3.67301 0.822989 2.03747
-3.64301 0.819389 2.04562
-2.10811 1.24621 2.90704
-3.19921 0.675489 1.79193
-1.68681 1.01839 2.53497
-1.54781 0.45909 1.69061
-1.28311 0.38109 1.65066
-1.26731 0.377089 1.57607
-0.279213 0.27769 1.92912
-0.247013 0.306189 1.93676
-1.11151 0.325689 1.30524
-0.565113 0.357289 1.59674
-0.0155121 0.418389 1.80279
0.0228866 0.402489 1.75784
-1.24421 0.559689 0.539675
-1.44891 0.12589 -0.378385
-0.876712 0.47229 -0.407385
-3.44531 0.758489 3.30193
-2.98831 0.62749 3.27639
-3.05051 0.635389 3.05549
-3.55031 0.80519 2.59497
-1.97101 1.13659 3.01603
-3.08171 0.629989 2.06101
-2.14871 0.99759 2.74923
-3.17501 0.653189 1.81412
-3.22541 0.68659 1.46113
-0.806614 2.10257 3.34081
-2.76061 0.547589 1.5205
-3.25601 0.681989 0.807685
-2.66181 0.52779 1.04745
-0.326013 2.35304 3.04619
-3.30371 0.71389 0.178985
0.087088 0.43149 1.74668
-2.40701 0.43789 -0.242485
-1.66981 0.19049 -0.0857751
-2.60181 0.574489 3.55956
-2.12491 1.26565 3.5477
-2.64861 0.51289 1.6411
-0.365512 0.50249 2.41061
-0.0965134 0.36539 1.89807
-1.25351 0.674989 -0.000375274
-2.09641 0.847089 1.54647
-0.199213 0.542989 2.6316
-0.527912 0.358689 1.03687
-0.876613 0.515489 -0.347205
-2.75571 0.53269 2.477
-2.86921 0.519089 1.31143
-1.62161 0.461489 1.85587
-0.261913 0.23859 1.85294
-0.193813 0.31139 1.84625
-0.205213 0.194489 1.58033
-1.32281 0.99889 3.55219
-2.79631 0.559089 0.0851447
-2.81501 0.560489 0.0912049
-3.18851 0.677689 0.182225
-3.63891 0.823589 0.598055
-2.74901 0.524589 0.499955
-2.73631 0.52549 0.506255
-1.50581 0.138989 0.534125
-3.54291 0.78469 0.847405
-2.59211 0.49669 0.942415
-3.50991 0.76999 1.11596
-3.39281 0.74069 1.11003
-3.35861 0.73489 1.34581
-2.39471 0.436089 1.38068
-3.15161 0.670789 1.46546
-3.33951 0.71729 1.4918
0.577288 -0.00671032 1.46285
-2.97001 0.61759 1.67341
-1.23831 0.422089 1.6373
0.0310882 0.383989 1.68923
-3.38211 0.74059 1.79129
-3.15311 0.66319 1.78765
-3.38091 0.733889 1.7989
-3.52051 0.781489 1.80641
-3.33451 0.714789 1.81065
-0.176513 0.324989 1.92147
-0.907913 0.261289 1.95678
-2.68741 0.52919 2.2038
-3.12481 0.651789 2.27109
-3.27401 0.711489 2.28898
-3.02331 0.63589 2.38114
-0.526012 0.647489 2.65808
-0.0430123 0.49409 2.69115
-3.26681 0.710089 2.5597
-3.48781 0.77849 2.60533
0.629288 2.11644 3.08384
-3.38571 0.758989 3.02858
-2.16031 0.349589 -0.104695
-1.69751 0.194389 -0.0388153
-3.50401 0.78539 0.409815
-2.47451 0.43359 0.221215
-3.16731 0.67579 0.493825
-2.04541 0.31159 0.795325
-2.37221 0.42859 1.06953
-2.71831 0.53469 1.18814
-2.77951 0.548489 1.48514
-0.407512 0.30219 1.5667
-2.84371 0.57819 1.77603
-0.051212 0.396089 1.83297
-2.98221 0.629389 1.96044
-3.47471 0.78129 2.13831
-3.06941 0.641089 2.28278
-3.33311 0.72299 2.28094
-3.26951 0.71439 2.56849
-3.62071 0.832289 2.55335
-0.677112 0.696689 2.68849
-2.78531 0.55369 2.95948
-2.99841 0.611589 3.03274
-1.98021 1.13829 3.16408
-3.41481 0.754389 3.28932
-3.10471 0.657989 0.505635
-3.54151 0.78829 0.802175
-2.12561 0.34809 0.766875
-3.32181 0.722789 0.924205
-2.01941 0.30109 0.806455
-3.58721 0.79249 1.11748
-2.71091 0.53069 1.30836
-0.114713 0.235989 1.32244
-2.77031 0.562389 1.46923
-0.524313 0.32959 1.56004
-3.30261 0.70469 1.81868
-3.56131 0.792089 2.04321
-3.68831 0.85159 2.19902
-2.54221 0.46179 2.57213
-2.93701 0.597689 2.76156
-3.12001 0.663789 2.78463
-3.16391 0.695289 2.78369
-3.49671 0.791589 2.99304
-3.67081 0.84039 3.08828
-3.35751 0.719889 0.495135
-3.26571 0.68919 1.09264
-2.64261 0.50449 1.26918
-2.49561 0.454289 1.29831
-2.76371 0.53339 1.40474
-0.0283123 0.439489 1.84482
-2.83491 0.57549 1.92095
-3.55071 0.801289 2.10282
-2.64731 0.49529 2.17477
-2.79931 0.55309 2.2536
-3.14471 0.65279 2.26345
-0.100412 0.517489 2.44846
-2.00911 1.12119 2.69712
-2.88511 0.56779 3.03783
-0.345512 2.35043 3.03648
-1.41571 0.96679 3.34153
-0.550912 0.549889 -0.0332651
-0.504413 0.34459 1.13606
-2.46751 0.465489 1.77696
-0.246914 0.346089 1.9975
-0.837413 0.23429 2.23304
-3.22281 0.67519 2.27614
-0.945913 0.775389 2.45075
-0.143312 0.53819 2.70069
-2.50411 0.46089 0.498975
0.0667881 0.193889 0.804445
0.504088 0.0335891 1.35774
-3.23101 0.698689 1.92532
-0.313112 0.30659 2.00293
-1.97031 0.797589 2.11403
-0.870514 0.299989 2.20238
-0.281313 0.47799 2.31114
-2.48251 0.446689 2.60156
-0.0303131 0.502889 2.70667
-3.25111 0.689089 1.76362
-1.44561 1.05759 2.79915
-1.32901 1.08379 2.8005
-1.46511 1.03809 2.84245
-0.825613 0.487189 2.36174
-3.36511 0.76659 2.4061
-0.801313 0.44079 2.29824
-2.49511 0.506989 2.31383
-2.76061 0.552689 1.16689
-1.81161 0.66679 1.60009
0.581187 0.418489 2.82414
-2.55511 0.502289 1.33563
-0.935814 2.10856 3.52559
-1.39441 1.19002 3.523
-1.84431 1.11679 2.90721
-2.40611 0.43089 -0.0380952
-1.79971 0.228989 -0.460125
-2.19221 0.36699 0.166645
-3.15251 0.670589 1.45496
-3.14951 0.667089 1.46518
-2.82281 0.563389 1.30166
-2.41411 0.445289 1.30488
-3.30141 0.71169 2.2692
-1.22111 0.34449 1.38285
-2.36071 0.415889 2.01735
-3.26111 0.707189 2.55732
-3.08571 0.643089 2.58482
-3.29981 0.723489 2.77406
-1.22391 0.34429 2.06526
-3.38881 0.765489 3.02798
-3.21471 0.693189 2.98182
-0.0853134 0.284289 1.76487
-0.0694119 0.40469 1.84965
-3.05071 0.63089 3.22531
-1.52661 0.979489 2.50465
-1.45021 0.134789 -0.336545
-2.06401 0.316789 0.279535
-3.48821 0.762689 1.22062
-2.15921 0.35929 0.785305
0.554688 0.177589 0.0960348
-3.38141 0.75459 2.47487
-1.41721 0.400389 1.57596
-3.19521 0.68099 2.57587
-1.47511 0.476689 1.80823
-1.88771 1.08209 2.43589
-0.00511325 0.377789 1.7238
-3.47391 0.764189 3.3214
-0.320112 0.36639 2.20433
-0.297313 0.407189 2.20585
-0.294412 0.40499 2.22774
-0.336713 0.39909 2.25229
-1.58811 1.16426 3.77893
-2.45631 0.450689 0.208925
-1.61321 0.192389 -0.297505
-3.54441 0.79049 1.26117
-2.40451 0.43169 0.541945
-0.357313 0.507789 -0.0875952
-2.28851 0.39019 1.08617
-2.76981 0.560489 1.47046
-3.19111 0.672789 1.81752
-3.29461 0.716289 2.00563
0.313088 0.0999896 0.209975
0.386588 0.18519 0.820685
-3.01031 0.60639 2.59209
-3.34551 0.744389 3.05781
-2.00411 1.12709 2.52775
-0.0770127 0.394589 1.86519
-0.724113 0.450189 2.2051
0.151888 0.44839 1.85468
-0.367113 0.35849 2.23035
-0.314712 0.443089 2.27697
-2.68241 0.57909 3.55242
-2.11921 1.20269 3.52301
-2.18871 0.34929 -0.0574353
-3.45681 0.75749 1.22301
-2.26131 0.355289 1.04833
-2.33501 0.399489 1.09814
-2.28711 0.39209 1.08464
-3.48011 0.775289 2.02323
-2.38061 0.414189 1.44052
-2.35251 0.398289 1.55612
-0.161512 0.34669 1.86758
-0.138313 0.37039 1.88093
0.0144867 0.34949 1.93123
-2.76511 0.53699 0.276765
-2.27931 0.40259 0.0938048
-2.48571 0.47299 1.80173
-1.11041 0.307489 1.32316
0.0769867 0.15609 0.896285
-1.98721 0.797689 2.09938
-3.11121 0.670089 2.77788
-3.53421 0.821689 3.03286
-3.64801 0.83309 3.10227
-3.64661 0.83099 3.28667
0.0538868 0.44979 1.80261
-2.11741 1.28038 2.76106
-1.22811 0.60439 -0.175985
-3.22731 0.67439 1.78062
-1.19041 0.34599 1.48916
-2.05071 0.754189 2.15057
-1.45251 1.05129 2.8389
-1.52081 1.06999 3.55414
-1.29241 0.59789 0.556575
-3.58781 0.811789 2.17797
-0.902612 0.40499 2.30907
-1.99761 0.871489 1.138
-0.468412 0.487189 0.479965
-1.45251 0.13379 -0.335075
-3.12661 0.64859 2.25131
-3.17661 0.69069 2.77005
-3.21541 0.69489 2.98461
-3.02961 0.621489 3.02349
-1.20071 0.341989 1.32187
-0.00161326 0.18099 0.401675
-0.513612 0.339789 1.38336
-1.33381 0.902589 2.49774
-2.10591 1.17758 3.50595
-0.0184132 0.13159 1.58843
-0.0650135 0.297889 1.74818
-3.54341 0.81699 2.34772
-3.33531 0.774489 2.41581
-1.19191 0.33619 1.20011
-2.54051 0.48409 2.90537
0.618588 0.188089 0.0432348
-0.103912 0.238889 1.2992
-0.057613 0.30389 1.72177
-0.0115124 0.353789 1.68452
0.835587 0.24199 2.47812
-2.84481 0.55709 0.281175
-2.86221 0.562689 0.476355
-2.19111 0.34449 -0.0627852
-3.16121 0.66819 1.64368
-2.35951 0.38039 1.23812
-2.62121 0.511789 1.7936
-3.32481 0.729689 2.77404
-2.73171 0.556789 3.00058
0.320088 0.0931899 0.217905
-0.927812 0.26369 1.9686
0.0348877 0.12339 1.52861
0.0335869 0.126489 1.57686
-0.615614 2.19472 3.40461
-3.63881 0.82479 2.08881
-3.16231 0.671989 1.60603
-2.12401 0.33319 0.247265
-3.18751 0.665789 1.8208
-3.59911 0.81719 2.66584
-2.73561 0.522589 2.25159
0.655888 -0.0180104 1.50222
-0.276712 0.69279 2.79856
0.317488 0.37949 2.55218
-3.45281 0.75659 1.11736
-2.75591 0.54099 1.30431
-3.20791 0.692489 2.78131
-0.578712 0.35229 1.48549
-3.60811 0.80459 1.45817
0.092688 2.28185 3.39757
-2.05311 0.86899 1.2335
-2.79341 0.56989 1.87157
0.0996879 0.155789 0.807315
-0.830513 0.362489 2.42853
-2.27241 0.38019 -0.0253851
-1.76511 1.04069 2.65557
0.00298726 0.413789 1.76015
-0.638313 2.18165 3.1883
-3.60221 0.81709 0.557315
-3.68671 0.84159 1.90032
-3.56731 0.80949 2.17715
-3.56711 0.82059 2.36149
-2.82901 0.55809 0.343485
-3.10611 0.66109 2.0921
-2.65951 0.512089 0.628825
-2.65981 0.509889 2.03541
-2.12571 0.346089 -0.242815
-2.46051 0.43909 1.33476
-2.22781 0.37119 0.994105
-1.29321 0.37389 1.64172
-0.313112 0.40429 2.22694
-0.0856129 0.27769 1.71637
-0.0641133 0.30019 1.74832
0.523987 0.24399 -0.105195
-0.035812 0.41329 1.81425
0.731187 -0.0474103 2.11067
-3.62281 0.820889 2.08153
-3.60351 0.814789 2.18552
-3.17361 0.67249 1.46437
-3.17641 0.688289 2.10478
-3.03301 0.63039 2.12101
-2.62751 0.49899 1.74409
-2.45481 0.439489 1.29607
-1.92031 0.285189 0.789815
-0.551113 0.533089 0.000784871
-1.50661 1.21923 3.79564
-0.906213 0.77079 2.50383
0.498787 0.0598895 1.00789
-3.43421 0.751289 0.508405
-3.10471 0.65899 0.285485
-3.21581 0.697889 2.88348
-2.53071 0.459889 -0.0968552
-2.81451 0.54599 2.99568
-2.06201 0.330889 0.309335
-0.0672127 0.371389 -0.492665
-0.412613 0.301889 1.4093
-3.64181 0.820089 2.03748
-3.64311 0.83119 2.09232
-3.05591 0.628389 0.138065
-3.17971 0.664289 1.82087
-2.81991 0.558189 0.317865
-3.03431 0.632089 2.17245
-2.69471 0.521089 1.0649
-3.19131 0.697489 3.49838
-2.27951 0.381289 0.125405
-2.11851 0.340689 -0.267135
-0.497913 0.32619 1.55835
-0.317512 0.704389 2.80672
-0.499013 0.35639 1.27236
0.118788 0.18089 0.882105
-3.29811 0.70059 0.210015
-2.83851 0.55179 3.00385
-1.99661 0.811789 1.59061
-2.00781 1.12749 2.5025
-0.395713 0.285189 2.05326
0.152687 0.207889 1.45901
-2.88881 0.576589 1.88702
-3.56791 0.823889 2.3634
-3.04471 0.637089 0.436135
-2.46811 0.450189 0.510265
-2.55341 0.454989 -0.0960453
-2.46101 0.43449 -0.0658853
-1.62521 0.18019 -0.0704253
-0.0197121 0.36639 1.7271
0.0373882 0.38879 1.67152
-0.467613 0.492989 -0.503855
-3.58131 0.811189 2.23166
-3.57391 0.80849 2.19502
-3.32931 0.71599 1.99213
-3.41711 0.75459 0.425675
-3.04841 0.61979 2.04917
-3.34011 0.73129 0.0630648
-2.97301 0.611089 0.752835
-3.04021 0.637589 0.188455
-3.04901 0.637089 0.124395
-2.75691 0.539189 1.33854
-2.60701 0.502889 1.77247
-2.71431 0.528289 0.985565
-2.41771 0.438789 1.29713
-2.38811 0.430489 0.692265
-2.20381 0.357389 0.810305
-2.15831 0.324989 -0.141795
-1.67071 1.01959 2.50649
-1.27301 0.38599 1.54057
-0.565212 0.35289 1.89391
-0.450313 0.350989 1.05976
-0.622413 0.581289 -0.114795
-0.592912 0.58599 -0.118625
0.0917877 0.413789 1.68204
-3.71431 0.854789 2.42321
-3.62921 0.82609 2.76142
-3.55361 0.809189 2.22091
-3.31061 0.719789 1.99459
-2.97881 0.61639 2.68176
-2.87311 0.58399 1.94649
-2.00281 1.12729 2.56994
-2.29261 0.38179 -0.0204752
-2.11741 0.33749 0.436385
-1.96551 0.284389 0.726075
-0.922512 0.26659 1.93033
-0.100013 0.27769 1.75965
-0.518213 0.521189 -0.00459528
-0.395713 0.490189 0.0715449
0.441286 0.0535895 0.0911848
0.552487 0.203489 0.225905
-3.68701 0.83869 1.89979
-3.60841 0.80799 0.532875
-3.56671 0.808189 0.681125
-3.18431 0.67529 1.50812
-3.41401 0.756389 0.323005
-3.27091 0.70769 1.03524
-2.70631 0.53549 3.42178
-2.94561 0.596989 1.69627
-2.40241 0.42799 0.685955
-2.44571 0.43989 0.153485
-2.44191 0.42739 -0.0604153
-2.19641 0.374989 1.05415
-2.42211 0.43169 -0.0653651
-0.765012 0.724889 2.61375
-0.487312 0.33119 1.8562
0.127087 0.177089 2.07557
0.318787 0.382589 2.60844
-3.64641 0.83609 2.75526
-3.63731 0.82819 2.6453
-3.54881 0.811789 2.3631
-3.41721 0.764789 2.11639
-3.22531 0.69699 2.83958
-3.38541 0.757089 0.515465
-2.97441 0.60719 0.731285
-3.03631 0.63239 0.193675
-2.73881 0.53069 0.997375
-2.49301 0.449489 1.41859
-2.16091 0.368789 0.960635
-2.07941 0.32119 0.793235
-1.29111 0.89859 2.64953
-0.927112 0.77629 2.60672
-0.612112 0.36569 1.27058
-0.411312 0.298989 1.94369
0.324187 0.37099 2.55082
-0.309414 2.35648 3.35195
0.589388 0.22089 0.217545
-3.06651 0.637589 2.09291
-2.24681 0.37399 0.950395
-1.74601 1.05899 3.39341
-1.55941 0.48779 1.7758
0.460087 0.0434892 1.07452
-3.66821 0.83329 2.66868
-3.57001 0.82419 2.4095
-3.25071 0.706389 2.85986
-2.16281 0.34169 -0.256335
0.775887 0.259689 2.5268
-2.22921 0.34589 -0.189185
-1.43311 0.65699 -0.0810652
0.268687 0.112389 0.373895
-2.89961 0.576489 1.87705
-2.04331 0.88999 1.18955
-0.139013 0.21099 0.987455
-1.98031 1.16336 2.73562
-0.567413 0.41059 1.9035
-3.38781 0.760489 3.0296
-3.29891 0.72079 1.96869
-3.70931 0.84519 0.896355
-3.66201 0.829189 0.875905
-3.23151 0.69829 1.40761
-2.66421 0.51519 2.05792
-3.44361 0.765989 0.971765
-3.47601 0.77089 0.892555
-3.46671 0.76989 0.878975
-2.96111 0.61269 1.4269
-2.45581 0.43169 1.42699
-2.46281 0.44009 1.3178
-2.43871 0.435489 1.31816
-1.53391 0.96729 2.50897
-2.55121 0.48559 1.01235
-3.12791 0.65349 0.267675
-2.82881 0.54539 0.461415
-2.88521 0.566889 0.262155
-2.18971 0.364389 1.00743
-2.35021 0.41809 0.793965
-2.38551 0.43449 0.641255
-2.15681 0.35579 0.836735
-2.24141 0.388389 0.656405
-0.642412 2.17576 3.24945
-2.44781 0.437389 0.175335
-2.46571 0.440889 0.105145
-2.08811 0.323589 0.312065
-1.21881 0.341389 1.37695
-2.07481 0.319389 -0.0447152
0.0889877 0.46099 2.46673
-0.157213 0.22309 1.33037
-3.61841 0.814089 2.21008
-3.31131 0.718989 2.00318
-3.05901 0.621389 2.1334
-3.19961 0.67459 1.81437
-3.74601 0.85989 0.961225
-3.54041 0.78559 1.11277
-2.89961 0.58549 1.86
-3.71541 0.85229 0.577205
-3.60941 0.81779 0.553045
-3.69761 0.84669 0.384705
-3.01011 0.624389 1.25639
-3.43681 0.76159 0.447695
-1.97621 0.789389 2.08949
-2.43521 0.44059 1.29226
-3.04281 0.62959 0.185495
-2.82771 0.561089 0.357285
-3.01411 0.633289 0.0681748
-2.40061 0.42809 0.627435
-0.612812 2.195 3.40679
-0.597612 2.20159 3.24048
-2.44631 0.438889 0.161125
-2.52441 0.46309 -0.106265
-2.12721 0.351989 -0.0362852
-2.13631 0.345389 -0.0644553
-2.11011 0.330889 -0.0697253
-0.480112 0.33749 1.3736
-1.88191 0.266689 -0.386605
0.0403866 0.426389 1.75406
-0.576612 0.53349 0.0828647
-0.400512 0.48829 -0.0023253
-0.0912129 0.390289 -0.442885
0.615088 0.190189 0.0139248
0.571988 0.17299 -0.435725
-3.67301 0.839889 3.07104
-3.62621 0.82629 2.76845
-3.56051 0.789189 1.2665
-2.62701 0.501989 1.7122
-2.69241 0.51449 1.43277
-3.01391 0.612289 0.620665
-2.37171 0.41409 1.0863
-2.38541 0.40989 0.499915
-2.46191 0.42809 0.0454447
-1.16531 0.339989 1.28
-0.539213 0.33819 1.92459
-0.412912 0.30389 1.41862
-0.735012 0.532189 0.821775
0.504988 0.0228898 1.40649
0.595787 0.17999 -0.00599528
-3.17931 0.674089 1.46569
-2.86241 0.57069 1.08633
-3.01501 0.61549 0.649325
-2.51371 0.45459 0.221915
-0.268613 0.58539 2.62739
-2.12551 0.342589 -0.145865
-0.449213 0.314689 1.54734
0.0146869 0.40829 1.75889
0.0755867 0.423989 1.74082
-1.42621 0.107389 -0.416385
-0.265312 0.42299 -0.427385
-0.243913 0.447189 -0.417415
-3.29431 0.72159 2.51743
-3.42031 0.76639 2.11983
-2.92181 0.60089 1.73857
-1.74931 1.04559 2.47631
-2.21691 0.372789 1.04524
-1.30151 0.37169 1.53574
-0.279613 0.577889 2.47154
-0.349912 0.277989 1.89261
0.458287 0.353089 2.63897
0.677488 0.26509 2.49693
-0.102012 0.19769 1.05579
-1.40441 0.936689 2.64439
-0.815513 0.73969 2.57295
-0.564413 0.34509 1.76853
0.564787 0.34949 2.72488
-3.05831 0.621489 2.03613
-2.83521 0.549989 1.44395
-2.55941 0.47639 1.57687
0.956787 0.27969 -0.834205
-2.84621 0.55109 1.32225
-0.0403134 0.21679 1.15467
-3.65111 0.846889 2.13405
-0.109012 0.274489 1.76891
-0.553814 0.431089 2.27462
-0.774013 0.277489 0.851795
-0.791912 0.408089 0.593545
-3.10461 0.650189 2.27205
-1.71441 1.03259 2.51942
-3.41111 0.747889 1.54171
-3.34471 0.722089 1.50002
-3.13681 0.66949 1.60057
-3.05261 0.646689 1.5296
-3.55011 0.79109 1.27588
-3.38311 0.74339 1.23476
-2.81201 0.54659 1.48466
-3.67111 0.83729 1.01491
-3.55891 0.80309 0.990705
-3.02941 0.617289 1.20328
-3.71881 0.84509 0.843605
-2.76531 0.54749 1.28466
-2.43941 0.43979 1.31906
-3.66451 0.83899 0.749955
-3.68581 0.83969 0.694995
-1.39301 0.403689 1.70278
-2.45991 0.445089 1.0944
-1.22161 0.434689 1.61315
-2.29351 0.408589 1.08523
-0.319513 0.332989 1.96212
-2.16491 0.361789 0.825235
-0.0197121 0.366589 1.73021
-2.80471 0.55029 0.445995
-1.92571 0.270489 0.776855
-3.05931 0.632589 0.0706649
-2.29551 0.392389 0.227965
-2.30171 0.39349 0.212955
-3.03721 0.634289 -0.0369251
-2.03371 0.309089 -0.0357451
-1.86841 0.251289 -0.435815
-3.68591 0.848189 3.03768
-3.41121 0.765589 2.7681
-3.52201 0.79879 2.4701
-3.29941 0.724189 2.55339
-3.61051 0.81859 2.1286
-0.592313 2.20107 3.24488
-0.535413 2.23872 3.18913
-2.78241 0.553489 1.46727
-1.22541 0.343489 2.06434
-3.47761 0.780889 0.961235
-0.340713 0.396889 2.25462
-0.331813 0.35639 2.23632
-0.330013 0.40349 2.22266
-2.96201 0.604089 0.787865
-1.22111 0.34309 1.37888
-0.0883118 0.30149 1.78512
-2.37601 0.422889 0.656495
-2.37241 0.425489 0.644575
0.0442871 0.403189 1.71413
-0.138013 0.24889 1.32252
-1.91841 0.273189 0.225025
-2.27871 0.38649 0.0924148
-2.55471 0.46889 -0.126775
-2.54291 0.47219 -0.239685
-2.81401 0.56639 3.35774
-3.33601 0.728189 2.2829
-3.28371 0.709989 2.26712
-3.14381 0.65699 2.23739
-3.44191 0.75389 1.84201
-0.454313 2.273 3.2857
-0.325012 2.35022 3.32907
-0.366413 0.44139 2.30543
-0.323312 0.36259 2.19986
-2.36861 0.41479 1.14418
-0.541813 0.337689 1.83246
-2.82801 0.55309 0.465215
0.00308644 0.383489 1.72841
-3.03331 0.632789 0.101435
-1.08501 0.323089 0.765765
-3.05011 0.637689 3.23465
-2.64051 0.514189 2.19752
-0.831012 2.0922 3.17739
-0.405313 2.29765 3.31647
0.783287 2.51927 3.79382
-2.17401 0.371489 1.00195
-0.0383126 0.38999 1.83014
0.649987 -0.016311 1.20899
-1.48981 0.139889 -0.414485
-3.55051 0.80309 2.59442
-3.69961 0.835689 2.04634
-1.83351 1.06139 2.48728
-2.76391 0.53479 1.37906
-0.916412 0.249389 1.44679
-0.0154129 0.40969 1.79787
-3.15591 0.686189 0.213155
-2.28161 0.40079 0.107295
-2.42491 0.42859 0.0123248
-1.42591 0.110989 -0.413195
-0.524713 0.545789 0.114215
-1.32691 0.64509 -0.200815
-2.59361 0.497789 2.38047
-3.08291 0.62679 2.02732
0.172888 0.437489 2.48969
-0.346513 0.541489 -0.147595
-0.441312 0.317489 2.08571
-0.473413 0.313089 1.79283
-2.18251 0.354589 0.957205
-0.345113 0.298289 2.0617
-0.989412 0.298289 0.760835
-1.97881 1.06849 2.47091
-0.377313 2.38883 3.49872
-1.73421 1.11479 2.69411
-0.331913 2.44001 3.78408
-0.585113 2.20035 3.24807
-3.38771 0.763289 3.02738
-3.21431 0.69899 2.96902
-3.27451 0.71749 2.78189
-2.78391 0.547589 2.82335
-2.90071 0.59319 2.73306
-3.42651 0.76649 2.63598
-3.26901 0.71169 2.55945
-2.66321 0.509189 2.55644
-3.51501 0.80359 2.44609
-3.26721 0.705689 2.40667
-3.02571 0.63589 2.38088
0.086388 0.461389 2.46688
-2.99331 0.612989 2.24631
-0.761613 0.519589 2.32993
-3.24691 0.70059 2.19774
-0.758913 0.503389 2.32037
-3.73301 0.860789 2.14947
-3.03291 0.630589 2.12907
-0.704612 0.39579 2.17806
-0.308212 0.412889 2.18833
-0.306112 0.31479 2.17898
-3.02501 0.62739 2.02837
-0.546213 0.332989 1.9838
-0.199413 0.30879 1.91742
-2.85481 0.57969 1.8507
-0.198312 0.31429 1.90589
-3.33261 0.714789 1.81937
-3.33641 0.715789 1.81082
-3.52271 0.78199 1.8064
-3.38351 0.73639 1.79906
-3.38471 0.74249 1.79139
-2.78681 0.55849 1.7871
-3.09741 0.65219 1.70518
-3.02941 0.63389 1.69931
-3.07061 0.64929 1.69986
-3.00291 0.627189 1.69067
-2.98381 0.622889 1.6869
-2.99401 0.625089 1.6759
-2.97311 0.62259 1.67401
0.0229877 0.358889 1.67682
-1.23861 0.41679 1.6365
-0.0254132 0.12459 1.61187
-0.00241244 0.140289 1.61053
-1.22561 0.411389 1.56222
-2.81421 0.547889 1.48195
-3.34191 0.721889 1.49233
-0.547413 0.33589 1.45797
-3.36151 0.740889 1.34643
-2.76151 0.549189 1.2752
-2.53951 0.480489 1.25947
-3.55331 0.796289 1.28188
-1.19541 0.332789 1.20553
-3.54211 0.78269 1.27006
-3.33351 0.726889 1.13229
-2.86831 0.572389 1.08387
-3.39481 0.743589 1.11055
-3.44321 0.750089 1.10575
-3.22131 0.69199 1.05693
-3.21691 0.695089 0.916995
-3.56001 0.799789 0.940455
-1.96701 0.30309 0.805195
-3.15681 0.678289 0.886795
0.356688 0.0717895 0.628275
-3.50331 0.781589 0.877215
-3.46311 0.765489 0.846005
-3.52461 0.780789 0.843275
-2.75061 0.52359 0.513125
-2.74011 0.52719 0.507025
-2.71281 0.50539 0.491775
-3.64081 0.824989 0.598605
-3.64661 0.82969 0.592125
-3.54811 0.80089 0.475595
-0.355312 0.504789 -0.100115
-1.80021 0.226989 -0.459105
-1.53641 1.12329 3.78319
-3.41721 0.75589 3.28871
-0.634513 2.17744 3.25467
-3.67111 0.84239 3.07099
-2.74341 0.54519 3.01481
-3.62901 0.825789 2.66048
-3.27051 0.712889 2.56867
-2.13031 1.03899 2.3971
-3.34121 0.73219 2.26916
-3.63871 0.81999 1.9584
-3.66821 0.83329 1.91851
-0.314712 0.321589 1.96175
-3.41581 0.74959 1.79802
-3.28281 0.713389 1.77972
-0.0984131 0.38169 1.8389
-0.0445134 0.392689 1.8143
-0.0854126 0.291289 1.78251
-2.63151 0.502689 1.71619
-0.0221134 0.36899 1.73405
-2.80631 0.54589 1.4953
-3.10561 0.630589 1.46604
-3.25011 0.70199 1.44953
-1.22261 0.34379 1.38211
-1.17101 0.330789 1.21328
-3.17641 0.668589 1.24152
-3.38081 0.732389 1.24244
-2.92931 0.60069 1.1546
-2.92121 0.58409 0.502475
-3.16991 0.67529 0.494225
-2.30261 0.394589 -0.108715
-1.40561 0.122089 -0.310595
-3.03711 0.63589 -0.0352151
-1.45441 0.13729 -0.335885
-2.00611 0.29249 -0.257185
-1.68581 0.18849 -0.450665
-0.331813 2.45212 3.78094
-3.59321 0.814689 3.30922
-3.40441 0.746589 3.03788
-3.36151 0.748689 3.03149
-3.37251 0.785989 3.01095
-3.41701 0.770489 2.78498
-2.16641 1.21988 2.78018
-2.63571 0.511189 2.55136
-2.59171 0.48709 2.54317
-3.59081 0.822489 2.4435
-0.230013 0.296889 1.94987
-0.283413 0.287089 1.94583
-2.40611 0.42739 1.81679
-0.0134121 0.38089 1.75131
0.00598752 0.355389 1.70116
-0.582912 0.35719 1.56431
-2.77391 0.56359 1.46936
-2.33421 0.405889 1.06683
-3.32281 0.723189 0.925055
-0.887512 0.26499 0.744395
0.141787 0.13739 0.403335
-1.12971 0.526589 0.203095
0.764187 0.184089 -0.0675452
0.698488 0.21859 -0.111415
-2.10411 0.33479 -0.252515
-2.58831 0.481589 -0.178005
0.473288 0.390389 -0.671685
-1.54831 0.99829 3.04349
-3.51741 0.795789 2.72037
-3.15221 0.67389 2.3652
-0.295513 0.43699 2.2769
-0.279712 0.406589 2.22775
-2.81921 0.54889 2.01953
0.153588 0.448089 1.82626
-3.09331 0.65139 1.13811
-2.77311 0.532489 1.06518
-2.13911 0.359589 0.990385
-2.20891 0.378589 0.964645
0.848587 0.0688893 0.815605
-3.29831 0.711389 0.418865
-1.17281 0.582289 0.0635247
-1.65431 0.181789 -0.0446253
-1.75071 0.217789 -0.279195
-1.59361 1.2136 3.78922
-3.11691 0.63509 3.32972
-0.457212 2.27345 3.30826
-2.80071 0.551989 2.2536
-0.873012 0.30779 2.25376
-0.415813 0.379389 2.20437
-0.254512 0.34999 1.99714
0.617487 0.00648948 1.2127
-1.95111 0.93919 1.24041
-3.52221 0.77699 1.20983
-1.98861 0.917289 1.19005
-0.0478131 0.18499 1.06661
-1.18061 0.387689 0.964965
-1.25921 0.54519 0.194205
-0.580713 0.485289 0.0785348
-2.15671 0.33959 -0.0909553
-0.281013 2.41125 3.51318
-3.42131 0.77489 2.28557
-2.40131 0.42949 2.28843
-0.869114 0.292189 2.2023
0.512688 0.0284898 2.0734
-0.0197121 0.42999 1.80141
-0.894813 0.26639 0.660325
-2.88621 0.543589 0.485445
-2.45431 0.442589 -0.253255
0.674588 0.34719 -0.814185
-2.08991 1.28483 2.8292
-0.280912 0.24559 1.86695
-1.90291 0.80039 1.60029
-3.23981 0.69639 0.246105
-2.88361 0.584189 2.80017
-0.802414 0.438989 2.29823
-2.02711 0.87409 1.17445
-1.95711 0.858789 1.12841
-1.96021 0.79179 1.07794
-2.55471 0.480389 1.49318
-2.55911 0.501389 1.2501
-2.45721 0.47099 1.11242
1.19469 -0.0229104 0.0219548
-1.83631 1.08129 2.90946
-1.64451 0.678289 2.25826
-1.45281 0.137489 -0.336265
-1.14131 0.535989 0.165755
-2.17201 0.353789 0.246235
-2.89511 0.58529 0.501315
-3.69451 0.83889 0.660495
-1.90221 0.26579 0.540405
0.104687 0.15759 0.394635
-0.730312 0.526689 0.827845
-3.05221 0.62899 1.09954
-3.49031 0.763989 1.22103
-3.54511 0.79239 1.27229
-3.53301 0.77339 1.46017
-3.29871 0.710089 1.46622
0.0467876 0.13529 1.54921
-3.28021 0.711489 1.77988
-3.53391 0.78419 1.81932
-0.0447117 0.39299 1.81411
-2.82601 0.573889 1.84973
-2.99561 0.60999 2.24647
-3.31041 0.717189 2.25842
-1.40231 0.92959 2.403
-2.13171 1.04199 2.39725
-3.26771 0.70689 2.38975
-3.51031 0.80449 2.44597
-1.70371 1.02839 2.51877
-0.0514122 0.50309 2.69004
-0.316913 0.70839 2.77623
-3.12071 0.66599 2.78424
-3.00551 0.614389 3.0204
-3.27901 0.72589 3.02538
-0.454313 2.27655 3.28371
-2.09841 0.32769 -0.125015
-3.63901 0.82259 0.459215
-2.88681 0.590789 0.429195
-3.46351 0.77999 0.607505
-1.65881 0.19989 0.535165
-3.51741 0.786389 1.2087
-3.09991 0.642689 1.47889
-0.0111119 0.377889 1.75044
-2.37681 0.423389 2.28454
-0.437313 0.43649 2.3297
-3.08661 0.617389 2.28542
-3.63001 0.814689 2.29351
-3.28471 0.73209 3.03348
-3.17491 0.68429 3.23349
-3.49601 0.79459 3.27929
-3.51661 0.782189 3.31711
1.42589 -0.20741 -0.180565
-2.38431 0.42229 0.512705
-2.48131 0.45199 0.783625
-3.45431 0.773789 1.09947
-2.76611 0.53349 1.40532
-2.56831 0.477589 1.40384
-3.14831 0.65269 2.26351
-3.15201 0.672789 2.36613
-2.74041 0.542089 2.39374
-2.67861 0.51359 2.43002
-1.69571 1.03159 2.49958
-2.64191 0.50179 2.79529
-3.20691 0.707089 2.78264
-2.77501 0.56919 3.17469
0.221287 2.26646 3.19901
-3.41011 0.755689 3.30534
0.0650867 0.43839 1.76897
-0.494113 0.495089 2.37738
-2.58921 0.49769 2.42336
-2.59831 0.566589 3.56062
0.548287 0.183289 0.819275
-2.71961 0.549889 0.804485
-1.04351 0.30089 1.47222
-0.251213 0.469689 2.31291
-2.50001 0.47439 2.56923
-0.847013 0.87959 2.79125
-0.511312 0.31859 1.48269
-2.00561 1.11249 2.45979
-2.57171 0.48209 1.42317
-2.51441 0.508489 1.5802
0.785987 0.129989 -0.484415
-0.247213 0.482989 0.152425
-0.674812 0.387489 2.26023
-3.60651 0.81219 0.908535
-2.67571 0.511189 0.807345
-3.65931 0.82399 1.83745
-3.29471 0.717189 2.00546
-2.83441 0.57609 1.86187
-3.12781 0.649489 2.25698
-3.30241 0.71669 2.56545
-0.0329129 0.39849 1.81064
-2.93741 0.598189 2.76339
-3.03371 0.624889 3.02404
-3.00151 0.612389 3.02048
-3.07011 0.634689 3.03838
-3.01001 0.621589 3.2384
-2.57311 0.535289 3.54489
-3.49751 0.76719 1.23383
-3.54291 0.788689 1.26018
-2.29011 0.395989 1.08644
-2.36441 0.41679 1.22741
-0.481413 0.33549 1.34415
-0.121313 0.238189 1.32736
-2.05421 0.928389 2.2418
-0.0567128 0.33249 1.76651
-3.52441 0.807689 3.02202
-0.287212 0.409389 2.20595
-0.288412 0.41259 2.22824
-0.339912 0.39779 2.25175
-2.68311 0.578589 3.55181
0.793388 2.48556 3.79024
-2.76421 0.536489 0.272785
-2.36801 0.414989 1.56179
-0.0581127 0.34499 1.76867
-3.29501 0.731789 3.03251
-0.327913 0.37549 2.2315
-0.300512 0.452389 2.25067
-2.57571 0.63529 3.65061
-0.624113 2.18808 3.40586
-3.59701 0.82899 3.03601
-1.37311 0.398289 1.67126
-2.76231 0.532889 2.78029
-0.731512 0.571089 2.39536
-2.04791 0.885389 1.20287
-0.577512 0.352389 1.88167
-2.50551 0.46719 2.60208
-0.305013 2.44521 3.62268
0.863187 -0.0224107 -0.499925
0.677488 -0.0267108 2.28669
-2.21481 0.63529 1.42925
-1.47871 0.479589 1.8084
-0.463512 0.30659 1.5981
-0.0148121 0.35489 1.68316
-2.74871 0.514789 1.04945
-1.25061 0.634889 -0.147705
-2.32591 0.40489 1.13537
-3.36171 0.75399 2.46605
-3.60071 0.82329 2.66807
-3.66051 0.844289 3.06185
-0.0367123 0.37619 1.79955
-2.16901 0.339289 -0.0961452
-2.04031 0.30299 0.795605
-1.64101 1.01319 2.48344
-0.137113 0.36889 1.88393
-1.22101 0.36969 1.50246
-0.456113 0.321589 1.33294
-0.464313 0.313089 1.59787
-0.0673119 0.28899 1.72368
-3.72401 0.854589 2.95636
-1.72961 0.505689 1.80832
-1.27461 0.380689 1.58902
-0.454212 0.31649 1.36903
-0.751312 0.58409 2.35841
0.00148809 0.420789 1.76363
-0.0306126 0.42679 1.83796
-0.0536133 0.400889 1.88557
-0.00411189 0.418689 1.8425
-1.44121 0.129889 -0.406595
-0.123012 0.21469 1.03837
-0.580413 0.35569 1.87728
-0.399713 0.29799 1.66495
-0.0628125 0.409389 1.85473
-3.60101 0.81839 2.13175
-0.535713 0.353289 1.47401
-0.794113 0.57769 2.4084
0.536787 0.0162894 1.40492
-1.19971 0.352489 1.3246
-0.105512 0.19199 0.967865
-3.35051 0.72659 1.98066
-1.42371 0.524589 -0.163235
0.222388 0.10499 0.674795
-2.74721 0.535789 1.37384
-2.44631 0.43789 1.32872
-1.60251 0.179089 -0.248455
-0.939212 0.51569 -0.308945
0.0435871 0.341289 -0.479605
0.0187877 0.17749 0.421885
-0.0836121 0.18509 1.0106
-0.0199124 0.41679 1.79562
-3.55001 0.81359 2.46979
-2.40401 0.426289 0.701155
-2.59321 0.49349 1.80908
-2.25441 0.38239 1.04843
-0.330513 0.280989 1.9436
-0.0232121 0.36609 1.73165
0.496888 0.0329892 1.40149
-3.15951 0.663489 0.501345
-3.63641 0.829189 2.67582
-2.05351 0.31159 0.794415
-0.373413 0.29519 1.12224
-0.450613 0.31129 1.55181
-3.54951 0.801989 2.18827
-3.50291 0.79889 2.2931
-2.81891 0.55669 0.318525
-2.79471 0.54609 2.98831
-1.64711 1.01269 2.48929
-0.495412 0.323189 1.56138
-2.14711 0.33829 -0.233135
-2.66861 0.50939 2.42926
-0.595012 0.381389 0.911155
-1.34931 0.60209 0.575895
-3.17491 0.672089 1.46334
-3.16291 0.673489 1.53128
-2.97391 0.610289 0.779085
-2.53201 0.46879 -0.121095
-2.46091 0.44279 1.26292
-2.45341 0.43789 0.0552048
-2.30151 0.40409 0.140585
-2.23911 0.37169 0.999855
-2.11671 0.33169 0.390175
-1.91501 0.274489 0.0182347
-1.67321 1.02129 2.50943
-0.650413 0.378689 1.65375
-0.520612 0.523289 -0.00567508
-0.429813 0.31509 1.65808
-0.306413 0.69829 2.79144
-0.0199124 0.36539 1.72841
-0.00961268 0.36909 1.70456
-0.637613 2.18138 3.1878
0.670687 -0.0231107 1.36053
-3.57071 0.80929 2.18971
-3.54601 0.789189 1.34908
-3.40031 0.755089 0.293295
-3.21871 0.700189 2.88826
-3.03001 0.62809 2.08507
-2.97461 0.615189 3.22778
-2.60751 0.51019 1.76325
-2.59051 0.493089 2.81044
-2.53241 0.46719 -0.0900452
-2.45591 0.440989 1.29423
-2.43701 0.428289 -0.0544052
-1.56361 0.98129 2.54479
-1.45691 0.951489 2.64036
-0.925813 0.26869 1.92182
-0.329813 0.385489 2.23005
-0.0760132 0.289389 1.74263
0.00288808 0.38869 1.73301
0.0146869 0.418689 1.78332
-3.59331 0.808189 2.27034
-3.55071 0.812689 2.33042
-3.38791 0.756389 2.23137
-3.38561 0.767389 2.32902
-3.22741 0.692489 3.01635
-2.62661 0.499889 1.74622
-2.38561 0.43009 0.679925
-1.65811 1.03859 3.42188
-0.362613 0.28179 1.41594
0.265087 0.0963895 0.244195
-3.64121 0.822989 2.04128
-3.62161 0.817489 2.17256
-3.60091 0.816089 2.20535
-3.55591 0.808289 2.19414
-3.22341 0.69969 2.84432
-3.06031 0.627689 2.09929
-2.40051 0.42799 0.618155
-0.366912 0.287789 1.34048
0.360987 0.172689 1.94479
0.619686 0.00638935 1.13933
-3.17661 0.66459 1.82309
-2.79511 0.544289 1.34043
-2.78841 0.55239 2.97963
-1.99171 1.11339 2.47351
-0.567012 0.538089 0.151185
0.0791877 0.15889 0.855345
-3.58941 0.81629 1.31196
-2.03311 0.81419 1.54312
-1.08141 0.823789 2.54143
0.236687 0.16119 0.126155
-1.20581 0.41329 1.04031
-0.672712 0.40909 0.877365
-3.32831 0.71459 1.99241
-3.16861 0.66889 1.66861
-2.72991 0.53969 1.3479
-2.46741 0.44699 1.25791
-2.38831 0.43009 0.694195
-2.40021 0.429789 0.648735
-2.39801 0.426289 0.537105
-1.76421 1.04129 2.65715
-2.20851 0.35709 -0.244235
-2.14121 0.34799 -0.0657852
-2.16131 0.33519 -0.166755
-0.643013 2.17656 3.24924
-0.271413 0.441089 -0.457695
0.353688 0.0803897 0.629635
-3.62891 0.82769 2.76199
-3.59591 0.81159 2.27165
-3.58471 0.811989 2.18035
-3.48771 0.767689 1.16275
-2.69371 0.522489 2.55119
-2.96911 0.60999 0.782695
-2.76931 0.538489 1.34802
-2.62441 0.504789 1.68017
-3.03701 0.634889 -0.0383053
-2.46101 0.44429 1.30347
-0.569013 0.349089 1.88757
-0.570112 0.352589 1.3604
0.0855869 2.28435 3.04687
0.551388 0.203489 0.224395
-3.21911 0.702189 2.88624
-2.95321 0.60579 2.75281
-3.02721 0.61759 1.21209
-2.63311 0.507189 1.64411
-2.16271 0.369389 0.966325
-2.18011 0.35909 0.826855
-1.44931 0.945089 2.64393
-1.91791 0.28279 0.750225
-1.53361 0.51309 1.84765
-1.28411 0.379189 1.60792
-0.787712 2.10634 3.35318
-0.581213 0.35279 1.94932
-0.364513 0.289389 1.67042
-0.305713 2.35469 3.35116
-0.285713 0.43719 -0.433665
-2.67561 0.52149 2.32468
-2.13521 1.26792 3.55317
-3.02931 0.63739 0.142515
-1.97441 1.10539 2.62899
-0.423713 0.305589 1.69904
0.622288 -0.01071 1.3485
-3.67821 0.822289 2.01779
-2.78321 0.555489 2.98341
-2.53731 0.47799 1.3201
-2.23041 0.38379 -0.214325
-1.31661 0.379089 1.6109
0.176987 0.16599 0.195715
-3.13481 0.65779 0.384825
-0.353712 0.303389 1.49172
-0.066013 0.186189 1.37942
-0.805713 0.36699 2.10081
-2.90021 0.582289 1.85814
-3.38041 0.74189 0.883515
-1.92901 1.10569 2.65607
-3.06351 0.64019 0.339195
-1.53221 0.977389 2.47812
-2.72751 0.51949 0.491135
-1.14921 0.845389 2.65466
-0.611313 2.19535 3.40809
-0.597112 2.20174 3.24086
-2.09601 0.33809 -0.0929451
0.0288871 0.12679 0.899865
-0.0227124 0.19149 0.406015
-3.67181 0.838489 3.07244
-3.11541 0.662789 2.09395
-2.43271 0.43659 0.0453148
-2.43971 0.429089 -0.0282652
-1.75611 0.217789 0.248915
-0.659113 0.38519 1.11765
0.550387 0.200289 0.214305
-3.09651 0.648889 2.37237
-3.56041 0.801389 1.27207
-2.15941 0.349189 0.819645
-0.922613 0.77359 2.6064
-0.312513 2.35422 3.34176
-0.426412 0.33399 1.41187
0.457388 0.174989 0.778195
-3.58971 0.809589 2.18229
-3.56351 0.80849 2.19005
-3.15451 0.674289 1.60288
0.719287 2.28714 3.77374
0.233588 0.27269 -0.429965
1.35019 0.0219896 -0.760645
-2.95501 0.623789 1.73804
-0.898513 0.768089 2.57851
-2.74941 0.551189 2.32535
-2.77501 0.55289 0.884405
-0.625213 0.37099 1.27206
-3.61041 0.818289 2.13039
-3.09721 0.651089 2.25763
-2.57991 0.496389 2.51341
-3.56991 0.79529 1.22127
-3.35951 0.735889 1.34626
-3.74861 0.862189 0.958325
-2.62601 0.504289 1.73593
-0.593713 2.20135 3.24361
-1.15011 0.84669 2.65498
-2.76511 0.544989 1.28595
-2.78411 0.54049 1.25843
-1.10271 0.825989 2.53075
-3.73571 0.85649 0.318705
-1.18091 0.43309 1.67037
-2.14901 0.34459 0.496555
-0.0200135 0.36849 1.72745
0.000788089 0.382889 1.72907
-2.33591 0.39869 -0.0564952
-3.67261 0.83869 3.07266
-2.76081 0.55379 2.96476
-3.17391 0.68149 1.70294
-2.34771 0.40819 1.09704
0.00258672 0.42299 1.83982
-2.40551 0.43419 -0.0343852
-3.30741 0.705689 1.81522
-3.05521 0.653689 1.72096
-3.27021 0.701489 1.46506
-3.16561 0.66959 1.50262
-0.617912 2.19126 3.40428
-0.650812 2.17595 3.35255
-1.26141 0.89919 2.70652
-2.76341 0.54099 1.37562
-0.319412 2.35136 3.33348
-0.0211121 0.41759 1.80069
-0.0313126 0.30569 1.71214
0.612887 0.171189 0.109585
-3.60291 0.80389 0.813235
-1.24231 0.39859 1.56686
-2.60981 0.49199 0.518345
-0.0210129 0.360989 1.82478
0.556788 0.0248897 1.15854
-2.70331 0.53839 3.43312
0.508387 0.0271899 1.47783
0.390887 0.0630891 0.304475
-1.34461 0.906489 2.64421
-2.83621 0.544189 1.24282
-2.93241 0.573089 1.1526
-1.06111 0.831289 2.54172
-1.80171 1.08149 3.33186
-3.47701 0.769789 3.31841
-3.36031 0.745689 2.89798
-3.52471 0.80029 2.46904
-2.75521 0.536689 2.58928
-0.589012 2.20111 3.246
-2.94761 0.607489 2.24038
-3.22361 0.695989 2.01473
-3.06311 0.638489 1.70689
-3.22471 0.69129 1.60805
-3.40921 0.74769 1.54202
-3.35601 0.733889 1.5064
-3.35541 0.729689 1.47129
-3.27111 0.691789 1.46915
-2.81351 0.546889 1.48451
-2.76841 0.54609 1.29258
-3.42071 0.74959 1.11058
-3.65881 0.84249 1.03154
-3.06841 0.63669 1.13084
-3.48351 0.764789 0.964865
-1.10761 0.434589 1.60312
-1.22781 0.415589 1.56351
-3.39291 0.745689 0.935265
-0.0184132 0.42099 1.84869
-3.47081 0.77929 0.877855
-2.65621 0.51649 1.06758
0.0872883 0.47069 1.86092
-2.30221 0.40009 1.11338
-2.30371 0.408089 1.10462
-0.0216118 0.36979 1.73189
0.00418698 0.38649 1.7324
0.028788 0.388489 1.69045
-2.60631 0.505089 0.932775
0.128388 0.27489 1.57806
-3.41321 0.760489 0.632785
-2.13141 0.352489 0.823275
-2.24561 0.378689 0.769795
-3.54941 0.80239 0.475625
-2.65521 0.50809 0.626395
-2.89121 0.57749 0.500645
-2.25831 0.379789 0.501745
-3.23911 0.68379 0.250955
-2.17631 0.35139 0.245445
-2.30031 0.39709 0.214825
-2.79541 0.548989 -0.108775
-1.70001 0.195089 -0.0381851
-3.71121 0.852589 2.28566
-2.77941 0.54729 2.40804
-3.62311 0.822889 1.96896
-3.53691 0.785989 1.82058
-2.62661 0.488189 2.03217
-3.15281 0.664289 1.79465
-3.73341 0.857389 0.987755
-3.49071 0.773889 1.0342
-0.175212 0.29959 1.94544
-3.09621 0.63929 1.09666
-0.139913 0.314489 1.92624
0.000286456 0.431089 1.84254
-0.0499131 0.378689 1.81201
-0.0163132 0.415689 1.81657
-0.00811351 0.377189 1.75118
-3.24501 0.700089 0.856085
-0.127813 0.242989 1.32191
-0.417312 0.309789 1.14751
-3.55931 0.79379 0.375515
-2.19761 0.34939 0.225765
-1.93011 0.27439 0.228595
-2.90421 0.578589 -0.0744653
-2.14241 0.337789 -0.0416751
-2.19451 0.339189 -0.0779152
-2.18941 0.36479 -0.303275
0.666087 0.173389 0.0374348
-0.310712 0.504989 -0.0822952
-0.508113 0.57259 -0.127295
0.638888 0.21859 -0.116955
0.376088 0.236789 -0.440845
0.674787 0.32969 -0.674425
-3.45051 0.76519 3.29657
-3.02351 0.620089 3.32298
-2.76841 0.568289 3.17859
-0.928814 2.04682 3.52103
-2.71601 0.525289 2.56638
-0.412212 2.29499 3.30036
-3.32971 0.72309 1.96514
-2.83261 0.568689 1.91551
-2.79251 0.56419 1.83583
-3.50761 0.774589 1.44452
-3.43941 0.744289 1.22122
-2.76861 0.542689 1.38286
-3.25201 0.691589 1.2413
-0.151413 0.31069 1.90625
-0.0957123 0.339789 1.91762
-2.95221 0.59169 1.09069
0.0413879 0.441589 1.84128
-2.20721 0.37959 0.964065
-1.11361 0.35429 0.751775
-0.930612 0.27579 0.759285
-1.59471 0.179189 -0.257215
-0.472213 0.51659 0.0301149
-1.89041 0.27159 -0.389525
1.39089 -0.0405104 -0.761195
-3.30001 0.73999 2.866
-3.38641 0.74279 2.59061
-2.91241 0.604789 2.65806
-2.09681 1.23575 2.90833
-0.497812 0.33399 1.60783
-3.09241 0.640589 0.791535
-3.43761 0.76499 0.617925
-3.07211 0.64939 0.487425
-0.673212 0.544789 0.824835
0.470887 0.19779 0.793825
-1.71871 0.200889 -0.280215
-0.320913 0.45739 -0.407245
-3.12991 0.64979 3.03167
-2.61341 0.486489 1.4314
-2.52791 0.462689 1.13025
-3.00451 0.621489 0.468285
-0.530712 0.58529 -0.261815
-0.854213 0.49039 -0.311935
-0.503913 0.538589 -0.313025
