-0.215018 2.05867 2.27338
-0.603303 2.03503 2.3927
3.04651 -0.840121 1.71927
-0.602217 2.02772 2.53984
-0.625606 2.05618 2.54803
0.243079 1.93016 2.34018
0.34031 1.91355 2.34217
0.107868 1.96172 2.35262
1.1286 -0.276884 -2.8787
0.737534 -0.133951 -2.59926
1.31141 -0.328664 -2.73685
1.34309 -0.275186 -2.65537
1.0194 -0.198868 -2.34495
0.813588 -0.250059 -2.30704
0.805588 -0.236912 -2.23225
-0.340031 -0.131455 -1.85619
1.36096 -0.324928 -2.31951
0.531931 -0.251671 -2.03666
-1.69105 0.709026 -1.1755
-3.93842 0.233285 -0.731999
-0.000350511 -0.147486 -1.69786
-3.52836 0.260972 -0.752849
-3.39724 0.186495 -0.759576
0.599832 -0.361065 -1.78182
1.36746 -0.401238 -1.87092
0.737939 -0.375806 -1.5319
0.647612 -0.38517 -1.49308
0.99124 -0.346054 -1.59314
0.91313 -0.381583 -1.58059
1.70146 -0.491144 -1.56128
0.20344 -0.303615 -0.950554
0.189104 -0.379175 -1.01016
0.292508 -0.211957 -1.08808
-1.47865 0.332479 -0.378407
1.44983 -0.494528 -1.3162
0.437862 -0.238676 -0.94981
-2.25208 0.259854 0.0359213
0.355273 -0.417418 -0.790999
-2.5734 0.333463 0.270541
1.7781 -0.586491 -0.878363
0.641426 -0.403748 -0.502041
1.72953 -0.592643 -0.797599
1.06688 -0.462925 -0.592898
-1.95658 0.420252 0.503032
-0.837246 0.307873 0.145206
-2.58956 0.224228 0.694865
-0.179715 -0.0406578 0.0961567
-1.59774 0.275068 0.561912
-2.29789 0.220632 0.646669
-1.8506 0.324514 0.606245
-0.66204 0.271982 0.361896
-0.745226 0.263193 0.438059
-1.87437 0.426714 0.695433
1.3899 -0.571261 -0.0876324
-0.0162523 -0.0926206 0.32894
-1.35912 0.329871 0.729349
-1.29184 0.242132 0.719722
-2.4325 0.284894 1.07732
-1.20884 0.472988 0.907727
-0.107199 -0.0119124 0.526126
2.05045 -0.637332 -0.0295269
1.9916 -0.686158 -0.0324283
1.85928 -0.645491 0.129099
-1.34843 0.373522 1.14398
-0.487505 0.0356273 0.893371
-1.49197 0.305109 1.20673
1.92362 -0.73298 0.253409
0.787435 -0.0845342 0.639769
2.49745 -0.712012 0.228944
0.296112 -0.157078 0.851062
-0.238327 -0.164117 0.955161
0.276666 -0.183256 0.695691
-1.58368 0.27558 1.35837
1.98161 -0.625427 0.482307
2.45575 -0.715348 0.429024
2.60318 -0.784273 0.453431
-1.01198 0.393405 1.64558
-0.985352 0.368832 1.63659
2.51831 -0.853028 0.739258
-1.6461 0.533293 1.82428
0.892416 0.150558 1.15905
-0.622523 0.471975 1.63044
-1.25924 0.43023 1.7168
1.20594 0.0909413 1.35848
2.47984 -0.80101 1.01166
2.39063 -0.730248 1.05543
2.71502 -0.796229 1.04874
2.79511 -0.870389 1.15302
2.74646 -0.776086 1.30129
3.03849 -0.888446 1.33352
-0.56502 2.07176 2.39365
0.24694 2.00054 2.23584
0.325445 1.95781 2.35911
-0.419762 2.08285 2.54413
-0.108706 2.05133 2.4114
1.66534 -0.329713 -2.8184
0.660904 -0.272921 -2.46323
1.52707 -0.412567 -2.28539
-2.10512 0.777794 -0.768119
-1.05295 0.704093 -1.01086
1.33332 -0.378015 -1.83397
1.42817 -0.393059 -1.80567
-0.983638 0.473079 -0.846822
-1.09663 0.559376 -0.791373
-1.07831 0.521944 -0.80053
-1.72611 0.458688 -0.496113
0.259933 -0.308637 -1.14488
0.174356 -0.311593 -1.10782
-1.41047 0.453937 -0.423358
1.97601 -0.498327 -1.15493
-1.70985 0.27204 0.0881231
1.80389 -0.559538 -0.677283
-2.58799 0.271278 0.623898
-2.72118 0.265592 0.886112
-2.73993 0.218868 0.874116
-1.93341 0.335977 0.766448
0.20811 -0.0850646 0.173808
-0.193744 -0.0447916 0.249443
-1.78185 0.355303 0.848908
-1.16397 0.176249 0.627525
1.88814 -0.636101 -0.12573
-0.810744 0.216168 0.650964
1.28741 -0.671795 0.142351
1.93955 -0.624118 0.103002
-1.54251 0.319379 1.22827
-1.26374 0.369745 1.16357
-1.83685 0.296404 1.21003
-1.50386 0.222126 1.19511
-1.24571 0.292885 1.14878
0.731241 -0.10159 0.645012
1.42633 -0.509634 0.326145
0.312296 -0.271668 0.783199
1.82744 -0.630726 0.409026
-0.356932 0.0874318 1.12789
-1.85019 0.279068 1.60505
1.22923 0.140794 1.0893
-1.27024 0.375788 1.90868
2.87856 -0.918927 0.90528
2.75655 -0.823223 0.932237
2.76188 -0.839744 1.08724
-0.40749 2.11689 2.29788
2.73543 -0.943931 1.53195
0.461915 -0.219184 -2.36069
0.895809 -0.284338 -2.29457
-0.311879 -0.0642143 -1.89044
0.816502 -0.236807 -2.11366
-3.31453 0.18383 -0.710904
-1.11787 0.585947 -0.960454
1.34641 -0.348109 -1.71169
-2.783 0.736927 -0.335942
-2.90086 0.76722 -0.407912
-0.98505 0.543151 -0.903679
-0.976734 0.580791 -0.75387
-2.91409 0.575969 -0.312198
-2.67846 0.396167 -0.261372
0.168799 -0.30206 -1.01563
-1.59326 0.478673 -0.326753
-1.85889 0.419356 0.426536
-1.91375 0.394274 0.520535
-0.799765 0.253646 0.211067
0.747547 0.205741 0.0251022
0.815848 0.235956 0.0354086
0.100775 -0.09131 0.152241
-0.227639 -0.0441236 0.403859
-2.45439 0.218512 0.952753
-0.65629 0.147861 0.630903
-2.31638 0.156563 0.992183
-2.21733 0.233623 0.938926
-1.94021 0.387502 1.01368
-0.632667 0.201187 0.684387
-0.27091 -0.0746701 0.54638
-1.93977 0.282147 0.983123
-0.736089 0.153776 0.762573
-1.82953 0.263551 1.0873
-1.09495 0.467001 1.06144
-0.735739 0.231029 0.77672
2.50043 -0.71972 -0.0218764
-1.10169 0.428873 1.15155
1.55186 -0.689807 0.627786
2.15919 -0.673197 0.816178
-1.20712 0.448388 1.87356
3.15342 -0.953402 1.45233
2.81587 -0.848316 1.38787
2.77995 -0.945813 1.56583
-0.594459 0.594228 -1.82223
1.47489 -0.416581 -2.37506
-1.10493 0.602788 -1.36078
0.697187 -0.276367 -1.83505
-2.51075 0.621061 -0.678162
-0.998968 0.621367 -0.781697
2.0154 -0.415704 -1.82442
-1.35645 0.346521 -0.678176
-3.17606 0.128655 0.069573
0.806587 -0.378104 -0.844451
-1.55171 0.44442 0.144741
-1.4476 0.312105 0.280436
-0.773151 0.25479 0.0845529
-0.985677 0.295125 0.241502
-2.40717 0.35676 0.772489
-2.28707 0.251297 0.757986
-2.00502 0.35927 0.982225
-0.344939 -0.0319474 0.571988
0.925908 -0.0955692 0.524961
1.9271 -0.710333 0.273429
-0.593351 0.120681 1.13077
-0.205219 0.245196 1.26208
2.25274 -0.661767 0.859735
1.22733 0.203645 1.28181
2.17917 -0.823154 0.948327
2.31591 -0.79687 0.961615
2.35033 -0.756702 1.05628
2.257 -0.725593 1.31169
-0.0425481 -0.13088 -1.97448
-2.36325 0.771986 -0.976183
-1.28214 0.570242 -0.996438
-2.08699 0.739743 -0.682335
-1.08602 0.608842 -1.01633
-2.69844 0.50489 -0.233791
-1.29492 0.330296 -0.661372
-3.21162 0.0692435 -0.120515
-0.272744 -0.0118428 -0.0867859
1.94748 -0.521453 -0.615791
-1.78016 0.281468 0.910352
-0.618016 0.138285 0.621687
2.01534 -0.597148 0.0501665
-1.24191 0.536079 1.0528
-1.5527 0.426325 1.49358
0.198388 0.357289 1.4488
0.254408 -0.143979 -2.47404
0.324071 -0.215525 0.621517
0.920174 -0.120835 0.595861
0.8012 -0.086362 0.772059
0.0446488 0.356909 1.34196
-1.65482 0.468108 -0.629402
-2.80046 0.504034 -0.367606
-1.64873 0.531961 -0.662368
-0.207844 0.212293 -0.522469
0.632908 0.00628204 -0.0362689
-1.25805 0.413294 -0.442707
-2.74842 0.536306 0.0496549
-1.75104 0.508505 -0.362693
-1.87172 0.646372 -0.148851
-1.45452 0.162387 0.696671
-1.10342 0.270566 1.1349
0.134583 1.9595 2.24953
-3.60963 0.231002 -0.810854
-3.06271 0.174704 -1.2233
-3.03743 0.226379 -1.19302
-3.07899 0.184708 -1.06748
-3.25394 0.121345 0.181978
-2.69996 0.500725 -0.376127
-2.42975 0.359143 1.10985
-2.33983 0.293611 1.24995
-1.03239 0.559493 -1.06348
-1.39733 0.387475 0.043088
-1.562 0.357282 0.374778
-1.32101 0.402316 -0.121477
-1.42471 0.493649 0.445566
-1.39413 0.413436 0.419887
-1.39561 0.479247 0.467977
-1.29767 0.394269 0.566628
-1.40258 0.512939 0.485121
-1.3452 0.413827 0.636962
-1.3049 0.384734 0.438271
-1.17646 0.316083 0.436669
-1.18455 0.318953 0.400187
-1.24463 0.38165 0.489814
-1.19271 0.284329 0.445635
-1.14554 0.26459 0.47897
-1.27061 0.517284 0.924554
-0.515316 0.173357 -0.794552
-0.44777 0.000331703 -0.563449
-0.362102 0.0797987 -0.60058
-0.454853 0.0887526 -0.57058
-0.40961 0.0941215 -0.719431
-0.40336 0.144051 -0.617684
-0.447845 0.180862 -0.530286
-0.368343 0.0341878 -0.521237
-0.315559 0.045426 -0.326351
-1.08976 0.371124 1.84158
-0.345614 0.0111263 0.462436
1.24465 -0.341363 -2.94641
-0.275679 -0.0446228 0.248549
0.126072 0.0487591 -0.166431
0.0791085 -0.0768316 -0.105663
0.139728 0.0368841 -0.0327928
0.181175 -0.0271718 -0.0330803
0.129033 -0.0907841 0.0593434
0.124883 -0.122864 0.0348058
0.316346 -0.153321 0.167366
1.86392 -0.337122 -3.07347
0.354918 -0.0579598 0.174339
1.88552 -0.596008 -0.141113
1.79305 -0.583226 0.485244
2.42468 -0.754748 -0.0119259
-3.66055 0.331359 -1.05636
-3.65642 0.266086 -0.586958
-3.72777 0.198936 -0.619029
-3.6579 0.243806 -0.389307
-3.04034 0.292858 -1.13609
-3.09046 0.257274 -1.0299
-2.34159 0.760761 -0.700767
-2.70673 0.37551 -0.25718
-2.77902 0.328133 0.380018
-2.6646 0.373153 0.306692
-2.17016 0.684501 -0.452543
-1.90247 0.641395 -1.07413
-2.54003 0.234006 0.573536
-2.40636 0.390335 1.05205
-2.39459 0.331286 1.0913
-2.28558 0.127328 1.37812
-2.25153 0.108502 1.33157
-1.79978 0.410541 0.570504
-1.00638 0.500876 -0.691461
-1.51646 0.312535 0.0204173
-0.839029 0.636648 -1.07396
-1.45268 0.458402 -0.112841
-0.849888 0.561361 -0.925987
-1.6934 0.277786 0.965518
-1.86755 0.291646 1.57157
-1.51545 0.288915 1.18799
-1.71368 0.502934 1.83834
-1.33691 0.367565 0.971363
-0.0069899 -0.161963 -2.01087
-1.31967 0.433579 1.17584
-1.56554 0.528578 1.83726
-0.370927 0.0325214 -0.807032
0.0862616 -0.161733 -1.88616
-1.18314 0.48782 0.98423
-1.25161 0.353105 1.06083
-0.829138 0.240574 0.354969
-0.43486 0.119239 -0.591385
0.517525 -0.208324 -2.40845
-0.361825 0.027513 -0.355703
-0.241341 0.0846794 -0.388152
0.566853 -0.242225 -2.27674
1.1732 -0.234415 -2.92999
0.68294 -0.367417 -1.53421
-0.0058625 -0.0947702 0.198517
0.216887 -0.0318672 0.0961362
1.84063 -0.348422 -3.07847
1.90773 -0.327605 -3.22195
-0.0573719 -0.249043 0.950612
-0.0676818 -0.119555 0.914365
1.74851 -0.397589 -2.8085
1.96232 -0.303936 -3.02312
0.300068 -0.206112 0.801879
0.98239 -0.328953 -0.530718
-0.240581 1.99469 2.26488
2.21703 -0.428579 -2.89687
1.48617 -0.466577 -1.50195
1.88265 -0.541226 -1.51044
1.76867 -0.444952 -1.50402
1.85364 -0.438314 -1.46121
0.809994 0.0779459 0.926888
0.318012 1.98203 2.38915
1.4917 -0.46128 0.233854
1.55836 -0.577909 0.262118
1.57011 -0.541135 0.321891
1.29029 0.1215 1.23023
2.46659 -0.717753 0.00089637
2.49268 -0.814139 1.47152
-3.87626 0.289745 -0.549886
-3.69606 0.283387 -0.9972
-3.13042 0.313499 -1.27839
-2.33131 0.809681 -0.691136
-2.09748 0.690868 -0.490126
-2.46831 0.423664 0.114676
-1.29189 0.867107 -1.41183
-2.411 0.221296 0.691951
-1.72965 0.463787 -0.133106
-1.0989 0.645513 -0.887036
-2.1588 0.144938 0.826983
-1.84618 0.362279 0.652442
-1.94006 0.288298 1.04505
-0.904904 0.58702 -1.01465
-1.50122 0.352225 0.369844
-0.436808 -0.154384 -1.9261
-0.259671 -0.0368009 -2.06698
0.077197 -0.207623 -2.33195
-1.20267 0.209122 0.795324
0.0745156 -0.178308 -2.42785
0.173184 -0.138603 -2.06362
-1.28022 0.38316 1.1117
0.21764 -0.203242 -1.98345
-0.75574 0.2936 0.941761
0.217411 -0.227489 -1.04634
0.127862 -0.290039 -1.05559
0.534497 -0.288443 -1.23514
1.00286 -0.424384 -2.22897
-0.631065 2.10696 2.31409
1.42998 -0.438216 -2.00158
-0.502752 2.06162 2.62732
-0.371927 2.07486 2.29684
0.296849 -0.208037 0.770555
0.104633 0.29505 1.42065
1.82311 -0.466337 -2.2753
0.176385 0.261984 1.38872
1.42832 -0.52505 -1.08308
1.74135 -0.478564 -1.70021
0.807603 -0.00243878 0.866996
0.117967 2.02269 2.32997
0.177524 1.97007 2.40579
0.274717 1.88601 2.39111
1.30797 -0.562147 0.362762
0.305943 1.95038 2.31206
0.278311 1.8815 2.42595
1.38787 -0.578908 0.27619
1.64033 -0.592242 0.224129
1.82759 -0.66589 -0.191104
1.57422 -0.65879 0.311811
1.18067 0.167093 1.35248
2.86337 -0.728984 0.0235341
2.49674 -0.807923 1.18074
-3.63993 0.207409 -0.84548
-3.78713 0.316114 -0.465625
-3.17666 0.277961 -1.14556
-3.09623 0.181003 -0.911896
-2.97593 0.232563 -0.850602
-2.18063 0.661641 -0.648018
-2.07392 0.714796 -0.803592
-2.19749 0.646129 -0.518871
-2.2177 0.719647 -0.424442
-2.17703 0.700961 0.133867
-1.76907 0.335817 -0.545688
-2.35076 0.270725 0.982061
-1.12606 0.456176 -0.830183
-1.04153 0.552937 -0.913205
-1.03548 0.641909 -0.923941
-2.04564 0.0762644 1.3855
-1.48963 0.362631 1.17441
-0.966902 0.302731 0.182621
-0.649435 0.233433 0.519776
0.176348 -0.256337 -1.03016
0.228871 -0.275257 -0.972933
0.389558 -0.366714 -1.06718
0.635283 -0.344222 -1.21706
-0.782921 0.356413 1.80867
0.410677 -0.303116 -0.856597
1.32309 -0.239577 -2.65679
-0.0768879 -0.185589 0.816792
0.307073 -0.206688 0.806376
1.36668 -0.630593 0.533499
2.25507 -0.732856 0.591008
2.15334 -0.70813 0.979696
-2.18908 0.627965 0.240996
-1.4696 0.585622 -1.20025
-1.64411 0.373854 -0.221842
-0.836577 0.699399 -1.5933
-1.1686 0.450879 -0.824308
-0.952495 0.548186 -0.916406
-0.889489 0.545801 -0.89324
-1.03903 0.417899 -0.0923844
-1.68907 0.289466 1.458
-1.39266 0.390808 1.1332
-1.30378 0.407476 0.866563
-0.743936 0.172441 0.841709
0.934482 -0.315702 -2.01668
-0.509466 0.139262 1.14475
-0.0589607 -0.213186 0.796245
1.49464 -0.439856 -2.18823
0.801022 0.204626 -0.0715106
1.80971 -0.525347 -1.52358
1.9962 -0.565851 0.102052
2.46563 -0.748688 0.489532
2.41514 -0.777908 1.128
-2.93679 0.610843 -0.476332
-2.03248 0.630218 -0.669011
-2.17074 0.170509 0.652438
-2.02651 0.453413 0.449154
-2.36294 0.307577 1.17301
-0.660283 0.67265 -1.76893
-1.9722 0.388487 0.905866
-1.51482 0.346355 1.21575
-1.02911 0.319929 0.225663
0.0938167 -0.214502 -2.16292
-1.49187 0.394009 1.39765
-0.196953 0.274419 -0.996468
-1.23007 0.573852 1.06757
-0.654834 0.165589 0.116145
-0.876779 0.156094 0.629977
1.76077 -0.327145 -3.14563
1.24792 -0.508176 -0.705361
1.86608 -0.692757 0.578991
2.36606 -0.747132 0.436252
2.21359 -0.853532 1.01592
2.28788 -0.856813 1.08757
2.38717 -0.826773 0.967608
3.37993 -0.794996 1.90432
-2.83142 0.593211 -0.220847
-2.49565 0.595245 -0.685218
-1.22995 0.549614 -0.933271
-1.44938 0.407167 0.0666476
-1.42971 0.376041 -0.115125
-1.15658 0.417996 0.925725
0.67625 0.17207 -0.0673169
0.435982 0.240327 1.40587
1.10976 0.18661 1.3472
-0.6931 0.692601 -1.69658
-1.03962 0.559374 -0.953983
-1.57082 0.297172 -0.14729
-1.39784 0.373361 0.194953
-1.1412 0.304034 -0.0959263
0.677534 -0.169634 0.620494
0.860619 -0.197981 0.574036
-2.89581 0.542882 0.261814
-0.349843 0.0275796 -0.257745
0.727966 -0.10725 0.815398
-1.98435 0.506728 0.0474706
-0.848885 0.594292 -0.770742
-0.935523 0.536709 -0.404075
1.02868 -0.068178 0.907844
-1.12312 0.347678 1.1748
-3.99705 0.295203 -0.836964
-3.79445 0.36317 -0.88955
-3.69792 0.195228 -0.569748
-2.46728 0.301443 1.09699
-2.7392 0.30647 0.267911
-3.37197 0.168476 -0.910533
-2.32143 0.325487 1.07624
-2.47276 0.288598 0.677789
-2.59404 0.379892 0.218533
-2.6273 0.340094 -0.00377059
-3.11114 0.119709 -0.961592
-3.21693 0.196597 -1.23002
-3.03668 0.191539 -1.24206
-2.294 0.78498 -0.676925
-1.27677 0.474538 0.857871
-1.42165 0.408854 0.477426
-1.35033 0.389314 0.565622
-1.37857 0.386773 0.4719
-1.33245 0.42385 0.494625
-1.37208 0.586624 0.513542
-1.24694 0.343904 0.593778
-1.38216 0.40969 0.0962498
-1.22633 0.319766 0.384207
-1.23174 0.356951 0.45545
-1.96514 0.671088 -1.12782
-0.889387 0.328337 0.966976
-0.368822 0.366572 1.62962
-1.09482 0.651789 -0.945409
0.258883 0.270539 1.49322
-0.185055 0.0389783 0.404583
-0.592798 0.0805259 -0.388682
-0.320253 0.0722561 -0.318332
-0.429494 0.0238602 -0.584881
-0.376204 0.191226 -0.583269
-0.422952 0.125758 -0.612159
-0.405849 0.11145 -0.494451
-0.415319 0.0339952 -0.599686
0.40422 0.279316 1.3721
0.63754 0.195175 1.26117
0.0810086 -0.0540746 0.0619669
0.0703645 -0.124473 -0.0424968
0.20805 -0.0496413 0.00176953
0.134146 -0.0302235 -0.171866
0.0359616 0.0100872 -0.174549
0.188614 0.0464803 -0.203116
-0.416125 -0.059359 -1.93228
-0.210037 -0.141095 -1.98306
-0.124296 -0.13608 -2.22977
0.393777 -0.229552 -1.07672
0.374545 -0.279052 -1.06688
0.00694105 -0.121255 -2.29345
0.585335 -0.314437 -2.46034
-3.96345 0.369948 -0.693376
-3.61004 0.336015 -0.595936
-3.33866 0.181173 -0.156312
-3.26038 0.0341283 0.195763
-3.67922 0.275906 -0.950454
-2.21499 0.166885 1.22424
-1.67544 0.531604 1.7541
-1.93515 0.341252 0.771916
-1.9295 0.370498 0.766678
-2.46868 0.404489 -0.401003
-2.33441 0.733081 -0.638424
-1.11613 0.478673 1.83103
-1.41889 0.219024 1.15195
-1.32087 0.245149 0.629149
-1.46128 0.401437 0.0708217
-1.48764 0.425722 -0.0331034
-0.131009 2.00598 2.29123
-1.23092 0.23065 0.399714
-0.358989 0.390714 1.55176
-0.356618 0.274704 1.50855
0.125499 1.91245 2.36831
-0.9058 0.270971 0.259365
0.277364 1.877 2.37938
-1.22922 0.633457 -0.990806
-0.398748 -0.0657408 0.46185
-1.2166 0.62019 -1.35648
-0.0742175 0.0164364 0.613413
-0.201839 0.108221 0.385963
-0.769787 0.584741 -1.07911
-0.478754 -0.0639114 -0.230208
-0.416324 0.0899289 -0.291609
-0.3552 0.0649426 -0.36937
-0.495001 0.0532552 -0.516165
-0.376732 0.033979 -0.347913
-0.449378 0.104201 -0.561699
0.493554 0.187543 1.31456
-0.491956 0.12881 -0.730958
0.0302832 -0.0518838 0.0715392
-0.313168 0.215726 -0.829805
0.0743833 -0.0733153 -0.0482818
0.00859058 -0.0594081 -0.137524
0.194746 0.00791017 -0.229993
0.32622 -0.067199 0.27015
1.18549 0.13161 1.35166
0.285558 -0.282929 -1.04786
0.263541 -0.216714 -1.40193
0.158933 -0.146364 -2.1683
0.518428 -0.260197 -2.15812
1.69863 -0.601128 0.420609
1.63665 -0.533622 -0.731884
1.46201 -0.404095 -1.23073
0.793685 -0.228079 -2.80632
1.28909 -0.395298 -1.92977
1.33182 -0.322978 -1.73367
1.36079 -0.349184 -2.09366
1.3743 -0.307994 -2.34687
1.93353 -0.549044 -1.70454
-2.88805 0.413236 0.491352
-2.58688 0.341713 0.630237
-2.12151 0.165259 1.03812
-2.25857 0.236141 0.546318
-2.52068 0.305991 -0.185279
-1.86901 0.333114 0.563747
-0.628864 2.04189 2.33006
-1.47331 0.279835 1.09209
-2.18859 0.830839 -0.499005
-1.46081 0.417565 1.18016
-1.344 0.336509 1.10621
-2.22847 0.763993 -0.639037
-1.33066 0.351507 1.09725
-1.27958 0.426329 1.13449
-1.46019 0.344017 0.507375
-0.903448 0.443651 1.64086
-1.52133 0.203975 -0.153622
-0.581211 0.219398 1.02687
-0.724947 0.247823 0.303805
-0.431889 0.127806 0.780135
0.337389 1.91105 2.28771
0.201509 1.95593 2.30102
-1.06029 0.579395 -0.622758
0.320126 1.9207 2.2632
-1.01939 0.608136 -0.77551
-1.06874 0.597133 -0.87197
-0.26807 -0.0500669 0.664673
-0.123831 -0.170428 0.940676
-1.01658 0.719072 -1.03007
0.502185 -0.230458 0.474894
0.378355 -0.376284 -0.80617
-0.222386 -0.0762344 -2.06712
0.0275626 -0.103217 -2.34708
0.393319 -0.327056 -1.71196
1.28298 -0.510161 0.554103
0.5087 -0.175911 -1.1958
0.168403 -0.123 -2.22311
1.51423 -0.612683 0.423633
1.45632 -0.658853 0.191869
1.37105 -0.513696 -0.25247
1.40903 -0.549245 -0.270608
1.84469 -0.722274 0.793367
0.488003 -0.175799 -2.36734
0.801635 -0.302472 -1.80577
1.76546 -0.577323 0.0903286
0.935416 -0.245119 -1.56257
1.86288 -0.656575 0.49332
0.922811 -0.301279 -1.81222
1.9181 -0.58144 0.21354
1.45927 -0.422529 -1.07693
1.86017 -0.691163 -0.220911
0.71333 -0.277209 -2.59218
0.779038 -0.294831 -2.57079
0.679903 -0.231242 -2.77906
2.28799 -0.650203 0.782575
0.918861 -0.211975 -2.13968
1.88501 -0.599095 -0.769205
1.03 -0.264976 -2.35317
1.30806 -0.373661 -1.75778
1.04499 -0.343354 -2.62418
2.81348 -0.866306 1.09985
1.49989 -0.361739 -2.2489
1.76822 -0.467025 -1.75917
1.21417 -0.23628 -2.92646
1.98699 -0.372667 -1.66462
1.88939 -0.471202 -2.48517
-3.93547 0.337635 -0.808406
-2.73774 0.460459 0.140536
-2.85534 0.619005 -0.193832
-2.42693 0.320845 0.64611
-2.36598 0.229978 0.695576
-2.09154 0.681987 0.279546
-2.18365 0.787845 -0.377363
-1.19547 0.478438 1.10587
-1.15126 0.381748 1.12376
-1.02664 0.322994 0.160694
-0.845891 0.219511 0.306907
-0.908166 0.561951 0.0454315
-0.826912 0.357388 0.157612
-0.677472 0.228264 0.337956
-1.06594 0.606346 -0.656632
-1.0486 0.572448 -0.965349
-0.0195729 -0.112303 0.858089
-0.924215 0.584635 -1.29708
0.314235 -0.158649 0.898081
0.481499 -0.137204 0.486285
1.05703 0.181862 1.23546
0.765754 0.133351 -0.0834282
0.260489 -0.305241 -1.52899
1.39986 -0.579006 0.407517
0.892419 -0.394098 -0.928955
1.60011 -0.57422 0.541259
1.03315 -0.504133 -0.987836
0.260007 -0.0971913 -2.70495
2.37718 -0.786753 1.87063
0.583264 -0.210102 -2.54288
1.80461 -0.628554 0.0833051
2.10938 -0.737401 0.947285
1.06271 -0.324118 -1.94016
1.47326 -0.498206 -1.08189
0.790824 -0.167392 -2.73078
2.27585 -0.76726 0.432552
2.74636 -0.824359 0.927193
1.94306 -0.512819 -1.14114
2.44961 -0.777158 -0.0800298
2.4184 -0.764682 -0.0975502
1.81056 -0.537473 -1.52599
3.34993 -0.846273 1.68141
1.8327 -0.358782 -2.4325
-3.50183 0.185793 -0.357215
-2.89221 0.626788 -0.315697
-3.0134 0.821386 -0.494335
-1.68528 0.405825 0.686617
-1.70159 0.290662 0.675552
-2.13755 0.64025 -0.549308
-2.19516 0.722505 -0.662733
-2.20481 0.772016 -0.764683
-2.11269 0.726635 -0.698643
-0.797486 0.190957 0.867455
-0.778869 0.245992 0.142784
-0.920976 0.376063 0.0971356
-1.45658 0.638352 -1.24308
-1.21291 0.473924 -0.732727
-0.663378 0.187649 0.396012
-1.05911 0.581137 -0.673447
-0.545886 0.195024 0.277503
-1.28666 0.76868 -1.499
-1.0465 0.560023 -0.969862
-0.313558 0.474885 -1.07127
0.727856 0.186379 -0.0174311
0.469337 -0.343865 -0.787413
0.497596 -0.331748 -1.12262
0.52202 -0.291988 -1.9958
0.412717 -0.2078 -2.14546
1.60496 -0.539505 0.506338
1.55241 -0.613421 -0.487377
2.20113 -0.83957 1.06786
2.32062 -0.768307 1.23017
2.24203 -0.760266 0.750483
1.60172 -0.593451 -0.631068
0.883849 -0.174595 -2.81314
2.16495 -0.582233 0.0572098
2.18799 -0.696941 -0.639625
1.33267 -0.285429 -2.88539
2.19013 -0.441787 -1.53712
-2.06137 0.18236 1.28309
-1.64462 0.351372 1.13315
-1.21723 0.32948 0.260568
-1.54627 0.110736 -0.216634
-1.41459 0.416352 -0.581345
-0.587003 0.207871 0.98747
-0.839623 0.242424 0.309925
-0.317422 -0.183011 0.923493
-1.1081 0.620087 -1.28959
0.340256 -0.283051 -2.77048
2.16507 -0.766466 0.967801
0.766244 -0.394546 -1.95205
2.58607 -0.800062 1.22452
2.2632 -0.591812 -0.520485
1.89248 -0.476203 -1.83705
-2.61367 0.544198 0.103006
-1.99485 0.323402 0.800214
-1.25137 0.289682 0.703801
-1.61739 0.434939 -0.238244
-0.576309 0.155811 0.648154
-0.805583 0.283672 0.268128
-0.162434 -0.047097 0.913466
-0.791892 0.542707 -1.19557
-0.254515 -0.0324289 0.148972
0.322713 -0.0757363 0.598576
0.706243 -0.0073401 0.876458
-0.0685698 -0.0664215 -1.99609
2.43421 -0.687268 0.113495
-2.44629 0.292272 0.119188
-1.61745 0.579491 -0.70591
-1.09455 0.264033 -0.261574
-0.948197 0.256938 0.00480522
-0.229736 -0.0551537 0.0463689
0.465863 0.122729 0.169415
0.271876 -0.185106 -2.49881
0.323914 -0.213768 -2.67875
1.37169 -0.403207 -1.04476
2.75733 -0.894489 1.18198
-1.49716 0.286177 0.383563
-1.36269 0.400375 0.306683
-1.70947 0.483069 -0.696674
1.43574 -0.584745 -0.495562
1.94334 -0.698562 0.66463
1.96838 -0.554217 -0.997661
-2.88985 0.474966 -0.239833
-1.37109 0.427699 -0.641479
0.312104 -0.00131331 -0.111873
0.413072 -0.0217323 -0.245182
-2.45262 0.317242 1.10891
-2.39372 0.290034 1.11478
-0.447034 0.303289 1.53266
-1.35319 0.346738 1.13692
-1.36079 0.372123 1.1548
0.518554 0.207626 1.29866
-0.839645 0.26734 1.03512
0.843803 0.106119 1.30752
-3.02805 0.110937 0.0290675
1.15291 0.15228 1.27955
0.729854 0.0265538 1.04555
-2.5448 0.388035 0.161624
-3.34335 0.169663 -0.123941
-1.13172 0.276142 0.47839
-0.806027 0.224084 0.312256
-2.6363 0.347755 -0.235164
-3.73438 0.312634 -0.555356
-3.64642 0.248837 -0.713241
-3.70548 0.237067 -0.767817
0.294613 -0.152161 0.322631
-3.60873 0.247459 -0.776532
-3.48984 0.240587 -0.778597
-3.85279 0.281088 -0.821524
0.110812 -0.161396 0.104119
-3.30132 0.335321 -0.772184
0.21534 -0.071303 0.0714171
0.129638 -0.0484421 0.0843511
-3.21535 0.162635 -0.830222
0.176082 -0.020322 0.00983993
0.0585403 -0.0420889 0.0835592
2.42775 -0.85779 0.5051
0.134374 -0.0119054 -0.189683
-0.340843 0.0234609 -0.425362
-0.281728 0.0860929 -0.41066
-3.10759 0.200629 -1.13165
-3.06689 0.290805 -1.20031
-0.369248 0.0659873 -0.395018
-0.456686 -0.0138813 -0.495474
-0.407894 0.134374 -0.581182
-0.440939 0.14042 -0.623139
-0.468519 0.0875166 -0.619876
-1.4211 0.462791 -0.758404
0.924461 -0.323156 -0.576162
-0.998001 0.512243 -1.06704
0.391273 -0.376292 -1.09032
0.122909 -0.2691 -1.28594
-0.20928 -0.137187 -1.86944
-0.242203 -0.176899 -1.86424
-0.219998 -0.176931 -1.80305
0.0120265 -0.236184 -2.03771
-0.0942778 -0.0922786 -2.12628
0.199972 -0.216041 -2.11762
0.181125 -0.183369 -2.11869
-0.181875 -0.167057 -2.19375
0.64277 -0.247426 -2.22573
-0.0348633 1.96388 2.52014
0.29867 1.90621 2.29849
-1.20519 0.468649 1.5544
-0.536784 0.313259 1.61925
-2.1019 0.151925 1.07393
-1.36728 0.397467 1.18463
-1.43223 0.403702 1.11284
-0.153558 0.217933 1.5035
-0.0367891 0.274126 1.46876
-2.40159 0.236727 0.801705
-1.85767 0.378889 0.82942
0.536702 0.330087 1.39717
-1.63691 0.144137 0.923412
-2.58785 0.261601 0.59992
-1.95427 0.331646 0.6878
-1.29429 0.509627 0.880454
-0.569646 0.121477 0.898528
-2.76475 0.380336 0.219471
-0.130458 -0.163978 1.00622
-2.03961 0.447975 0.490013
0.839573 0.194728 1.13749
-0.0685592 -0.108739 0.932628
0.663475 0.118601 0.996778
-1.50743 0.38033 0.521084
-3.33813 0.0356034 -0.063747
-1.24545 0.29508 0.537842
-1.32979 0.286651 0.395205
-1.40495 0.349287 0.418091
-1.06743 0.220191 0.388791
-1.17805 0.207205 0.30795
-0.387184 -0.0103816 0.488969
-2.66553 0.386816 -0.0678244
-3.82501 0.264219 -0.43149
0.797759 -0.117578 0.67631
-1.63024 0.451483 0.0276222
-1.48702 0.38568 0.0251289
-3.69095 0.265969 -0.582816
-0.669187 0.309204 0.135903
-2.50677 0.395335 -0.333927
2.59484 -0.817442 0.705362
0.225261 0.0297679 0.279815
1.62273 -0.622088 0.417985
1.60201 -0.55334 0.197176
0.253402 0.0250213 -0.0226131
-3.49878 0.163787 -0.92288
0.125518 -0.0946652 -0.227993
-0.0406937 0.0534129 -0.206365
-1.70369 0.367754 -0.594591
0.0441916 -0.0999296 -0.233648
-0.416722 -0.0341908 -0.22507
-0.295406 -0.0162131 -0.37327
-0.0124374 0.0575567 -0.357618
-3.18437 0.200868 -1.1494
-3.12754 0.343782 -1.26568
-3.12465 0.321839 -1.21954
1.41412 -0.547831 -0.169438
-0.345013 0.145642 -0.614029
1.03198 -0.45225 -0.581664
-1.13783 0.635388 -0.999147
-0.940211 0.657945 -1.02206
1.74521 -0.563133 -0.633464
-0.934299 0.586652 -1.06052
2.27534 -0.591118 -0.534978
-0.877284 0.636728 -1.03963
1.48209 -0.524249 -0.793738
0.984211 -0.417513 -1.10153
1.10302 -0.495734 -1.32959
1.37336 -0.366685 -1.78065
1.06173 -0.222047 -2.24478
0.73846 -0.335943 -2.45225
2.02277 -0.361686 -3.0107
-0.585885 2.08007 2.61453
-0.529307 2.01063 2.468
0.12919 1.94781 2.3111
0.0243246 2 2.21188
0.244777 1.95578 2.27598
0.217104 2.00829 2.28774
-1.30368 0.51308 1.78686
-1.51787 0.438669 1.62211
-2.18193 0.14817 1.35942
-0.786005 0.369861 1.56294
-0.0576481 0.337024 1.56193
-2.47964 0.251799 0.915551
-2.22442 0.145246 0.828766
-2.22407 0.227108 0.822111
-1.27667 0.517205 0.991369
-2.46726 0.274472 0.745647
2.36672 -0.794829 1.86048
3.03864 -0.795331 1.97018
-2.51857 0.328192 0.587276
-1.93739 0.392936 0.757932
-1.84423 0.424502 0.813197
0.67917 0.308876 1.27841
3.52395 -0.852013 1.73076
-2.82848 0.419366 0.374273
-0.235426 -0.125109 0.936958
-0.239746 -0.131726 0.886238
1.20207 0.0806902 1.34981
-0.61212 0.143631 0.819529
0.2094 -0.234611 0.848214
-2.70899 0.460153 0.123043
-3.37824 0.0632733 -0.0612308
2.94907 -0.869775 1.16843
-0.260751 -0.0370404 0.531932
-1.42407 0.183422 0.210632
-2.32101 0.338672 0.0147279
-0.639789 0.310277 0.435311
-0.683407 0.164285 0.325329
0.66962 -0.152609 0.762676
0.741856 -0.000982244 0.662359
-3.7887 0.29836 -0.422525
-3.89551 0.247708 -0.553433
2.43088 -0.90732 0.907687
1.50068 -0.578109 0.458463
2.84502 -0.7773 0.81657
1.5012 -0.661053 0.461422
-0.249157 -0.00570663 0.138073
1.48911 -0.555437 0.391635
2.34815 -0.736643 0.354443
0.163944 -0.0377722 0.0143413
1.29122 -0.522315 0.155226
-2.17257 0.721214 -0.614389
1.93341 -0.733938 0.0400473
2.56248 -0.764719 0.178774
-3.09365 0.16624 -1.05981
2.42216 -0.744267 0.0473531
-1.05263 0.639519 -0.762065
-1.03333 0.590139 -0.800545
0.611697 -0.38814 -0.570673
-1.16286 0.46435 -0.738552
0.962284 -0.455874 -0.582464
1.74232 -0.528362 -0.824378
1.7855 -0.614457 -0.86556
1.55663 -0.552955 -1.00237
1.49211 -0.481167 -1.12524
1.05118 -0.396651 -1.27514
1.46609 -0.450911 -1.34581
1.7396 -0.442048 -1.72546
1.25591 -0.325847 -1.8149
0.441981 -0.367109 -2.04721
0.0147489 -0.124674 -2.19726
1.85204 -0.531949 -1.79925
0.677177 -0.220754 -2.19803
-0.0115199 -0.201408 -2.29957
1.37945 -0.392885 -2.09681
0.850533 -0.240541 -2.56226
0.800251 -0.107299 -2.83699
1.17068 -0.345387 -2.88166
1.2227 -0.287513 -2.93784
-0.228677 2.05084 2.63259
-0.590734 2.16135 2.573
0.154947 1.96605 2.27982
-1.41608 0.556583 1.80101
-1.66551 0.257423 1.16785
-1.28086 0.404815 0.952579
-0.689568 0.198188 0.98831
-1.94386 0.280485 0.745576
-1.29765 0.479209 0.863829
-0.67766 0.23602 0.869444
-1.26189 0.179194 0.609636
-2.13019 0.586201 0.271652
-0.743948 0.279738 0.411611
-3.54371 0.176791 -0.310302
2.22068 -0.7817 1.0078
-2.88701 0.591979 -0.264114
-0.0528816 -0.139883 0.35619
-2.41771 0.362621 -0.276112
-3.51427 0.307632 -0.60727
2.48879 -0.681238 0.496047
-1.52299 0.410129 -0.310141
-1.8207 0.41483 -0.487825
-1.28994 0.263592 -0.339386
-3.04416 0.216698 -0.952444
-3.05229 0.181332 -0.952804
-0.285263 0.00639819 -0.166329
-1.78108 0.496884 -0.656126
-2.29383 0.75747 -0.857879
-1.48553 0.406964 -0.6701
-1.91887 0.667337 -1.1201
0.666714 -0.345651 -0.672594
1.76974 -0.562343 -0.690195
0.0192194 -0.27387 -1.03406
1.52228 -0.570182 -0.762579
1.95886 -0.510322 -1.21724
1.50225 -0.597644 -1.34363
2.00688 -0.601452 -1.16811
0.6461 -0.380425 -1.85314
1.28293 -0.298141 -2.90471
-2.32764 0.20875 0.980489
-2.51674 0.200088 0.839981
-1.80553 0.430405 0.832192
2.56569 -0.770445 1.87735
-1.04834 0.373594 1.06496
-0.638466 0.210569 1.07824
-0.571688 0.127241 0.939827
-0.543742 0.0843934 0.872005
-0.209835 -0.131799 0.883239
2.4916 -0.845752 1.47948
-1.83434 0.344972 0.357903
0.823406 0.020026 0.993395
-2.15839 0.612074 0.185456
-0.259332 -0.0339132 0.435894
-0.544389 0.277202 0.365512
1.67865 -0.623254 0.728734
-1.15986 0.460156 -0.0677946
-0.986495 0.410629 -0.108347
2.55161 -0.769137 0.515672
1.72904 -0.558284 0.320372
-1.37223 0.392041 -0.335065
-2.64375 0.604848 -0.758751
0.775162 0.169779 -0.00214991
0.673943 0.210563 0.00176421
0.689943 0.21321 0.00904078
2.04499 -0.672662 0.0385341
-1.16881 0.51548 -0.773323
-1.09713 0.533728 -0.823134
-1.14826 0.546687 -0.893314
-1.02693 0.707104 -0.998379
-1.37054 0.567458 -1.10369
-0.300973 0.419264 -1.1462
0.819122 -0.365411 -1.59703
-0.980644 0.805205 -1.78971
1.2563 -0.405116 -1.93471
1.97208 -0.406621 -1.80492
0.607425 -0.253363 -2.32793
1.47605 -0.299447 -2.37681
0.271979 -0.106298 -2.68166
-1.90641 0.351599 1.52237
-1.57106 0.322726 1.38315
-1.33249 0.323974 1.10082
-1.80533 0.384882 0.853679
-1.96595 0.365692 0.774708
-1.26596 0.319801 0.876423
-0.635553 0.199775 0.387439
-0.975615 0.325775 0.161013
-1.74483 0.383307 -0.183607
2.40613 -0.749449 0.725268
1.85923 -0.711852 0.563065
1.88902 -0.759703 0.345916
-1.51662 0.415898 -0.38157
-2.16089 0.680219 -0.62152
1.89144 -0.619896 0.0836299
-1.01195 0.524578 -0.915028
-1.08956 0.574205 -0.789379
0.374119 -0.289108 -0.777047
0.79243 -0.297487 -2.77081
-1.56477 0.199009 1.4811
-1.25342 0.559248 1.16203
0.193292 0.27663 1.36675
-0.68587 0.134828 0.943316
-1.93791 0.410745 0.519381
-0.0662307 -0.0849222 0.798547
-0.536338 0.211274 0.771663
-2.74706 0.539214 0.101343
2.5526 -0.866877 1.24456
0.284388 -0.148857 0.648716
-1.41321 0.322663 -0.0118907
-1.09735 0.46514 -0.0893291
0.757836 0.0740747 0.107349
1.89587 -0.602514 0.21665
1.90676 -0.636227 0.116782
-1.25869 0.382622 -0.600656
-1.07475 0.702564 -0.971516
-0.362177 0.365297 -1.0676
0.66182 -0.476124 -1.29719
0.0218401 0.26589 1.38753
-0.941187 0.279507 0.429543
-2.35072 0.391079 0.073611
0.321325 -0.204908 0.464483
1.84208 -0.68122 0.64198
1.9701 -0.668318 0.409401
-1.13678 0.349829 -0.237089
-1.80306 0.461034 -0.546601
-2.31113 0.777774 -0.931077
1.93659 -0.502679 -1.27966
1.40134 -0.41742 -1.89216
-1.44124 0.336179 1.09372
0.765459 -0.0744077 0.760451
0.53371 0.0278659 0.137562
-1.05583 0.381103 -0.118788
-2.43282 0.559245 -0.781886
-0.38333 -0.0231644 0.173256
-1.81516 0.476906 -0.195583
0.666665 0.0288277 0.197181
-1.63288 0.446467 -0.736682
1.96149 -0.620677 -0.302637
-2.30051 0.542483 -0.660728
-2.01295 0.279642 1.50095
0.943048 1.1901 1.7155
-2.71294 0.413494 0.165524
0.0378679 -0.145834 0.631494
0.258204 0.24323 -0.321255
-0.838135 0.527407 -0.79971
-1.67504 0.222581 1.17488
-0.29418 0.333932 -1.47036
1.01143 -0.0183759 -0.230031
-0.0103427 -0.209504 -2.11868
1.1355 -0.314287 -2.37202
-3.12937 0.194149 -1.08487
-3.15533 0.220801 -1.16467
-3.45311 0.316949 -0.959257
-3.75405 0.26809 -0.789527
-3.74958 0.259562 -0.644756
-2.12246 0.683077 -0.671617
0.785984 -0.356029 -1.50719
1.38322 -0.457972 -1.40235
0.453982 -0.341107 -1.08404
-3.17827 0.172203 0.155818
0.842899 -0.381768 -0.950689
-2.80673 0.416169 0.266412
-1.89907 0.308745 0.411516
0.170515 -0.0091065 0.048123
0.245029 -0.141879 0.24222
-2.4185 0.196953 1.01091
-1.82578 0.406577 0.854338
-2.38424 0.423852 1.03758
-2.477 0.370481 1.1153
1.78573 -0.506897 0.0641463
-1.35468 0.349442 1.20087
2.53835 -0.715323 0.203609
-1.63013 0.546502 1.82266
0.218621 0.328884 1.46005
-0.804884 0.343809 1.81956
3.0881 -0.802091 1.19165
-0.320537 1.97265 2.27766
0.0397303 -0.136016 -2.36708
0.815283 -0.293289 -2.34164
-3.18464 0.150556 -1.25209
-3.15833 0.175818 -1.1767
-1.81452 0.690865 -1.18381
-2.20374 0.784409 -1.05983
-1.93096 0.648864 -1.07846
-1.62549 0.61706 -1.24414
-0.0488889 -0.223455 -1.91124
-3.4356 0.219846 -0.823522
-3.07586 0.181912 -0.852895
-2.06083 0.78723 -0.684567
-3.8338 0.368489 -0.550399
-1.60506 0.460892 -0.873879
-0.355136 0.289861 -0.921937
1.7549 -0.51054 -1.56785
-0.499958 0.211815 -0.727282
-2.6294 0.389426 -0.0608423
-3.18509 0.207916 0.0872929
1.27313 -0.474349 -1.00351
-2.84153 0.275591 0.584274
-1.88977 0.297149 0.69043
-2.15331 0.218223 0.841897
-1.30702 0.284285 0.819066
-2.43787 0.411651 1.0517
-2.39744 0.448356 1.14518
1.30711 -0.62387 0.0909862
-1.11931 0.534744 0.992716
-0.871269 0.281269 0.982137
-1.71496 0.231272 1.15979
-1.56227 0.339951 1.13081
-1.46831 0.240014 1.2252
-1.78411 0.243369 1.22333
0.692518 -0.0744168 0.607649
0.763567 -0.0215596 0.623382
0.915752 -0.0030106 0.728642
0.852464 0.163886 1.24357
0.217868 0.257178 1.39777
0.417406 0.250359 1.19513
2.7008 -0.802855 0.736377
-0.609019 0.407879 1.80939
2.35391 -0.823285 1.24767
2.88076 -0.74556 1.47828
3.16143 -0.846994 1.54374
-0.519255 2.04287 2.55477
-0.706671 2.07074 2.51781
3.30156 -0.754293 1.6617
0.26934 1.92136 2.35758
1.39615 -0.371061 -2.47312
-1.4733 0.524105 -1.23422
1.01988 -0.287785 -2.19206
-2.12168 0.712356 -0.751871
-1.03381 0.564669 -0.93839
-2.12659 0.684759 -0.625664
-1.77694 0.47591 -0.559502
0.101905 -0.207294 -1.14604
-0.257789 0.223439 -0.592936
-1.1987 0.238535 -0.248571
1.27249 -0.427465 -1.00471
1.92496 -0.523637 -1.15019
-2.006 0.376178 0.407903
-0.739682 0.1987 0.195773
-2.42959 0.269281 0.637678
0.0227671 -0.00637314 0.160038
-0.711211 0.164155 0.450804
-1.97891 0.38214 0.695141
-0.695837 0.218932 0.458376
-1.67184 0.31744 0.707389
-2.18559 0.111374 0.844789
2.0363 -0.643349 0.0146425
2.52621 -0.682968 -0.106134
-1.2369 0.552479 1.01116
-1.78102 0.272245 1.16804
-0.896033 0.358597 1.07067
-1.68411 0.280787 1.15787
-1.46485 0.362378 1.2475
0.712179 -0.0925607 0.730426
0.715341 0.0158834 0.79442
-1.69589 0.198282 1.45341
0.710922 -0.100944 0.683879
1.89833 -0.691187 0.420374
2.21854 -0.763175 0.507113
0.724783 0.0391847 0.966696
-1.5582 0.435357 1.71159
-1.67551 0.520279 1.85466
0.928922 0.191137 1.29001
2.80075 -0.840852 1.01165
-0.144165 2.09528 2.43349
-0.300346 1.8785 2.66606
0.526396 -0.269729 -2.35348
1.95116 -0.40889 -2.20637
-1.08788 0.589107 -0.838325
-3.64947 0.208789 -0.312766
-1.67076 0.408688 -0.316374
-1.71916 0.390283 -0.24762
1.28013 -0.563411 -1.02203
0.705876 -0.306946 -0.798487
-1.12216 0.430974 0.0210912
1.65649 -0.563667 -0.792699
-0.651467 0.23978 0.118199
-0.254842 0.0218204 0.261032
-2.58903 0.273713 1.01621
-0.683563 0.265972 0.561869
-1.61789 0.313255 0.862059
2.52942 -0.777211 0.0288449
-1.52258 0.325193 1.16008
0.31104 -0.148505 0.850834
-1.61521 0.247773 1.454
0.0781054 0.287913 1.58419
-1.24144 0.452339 1.80372
2.20689 -0.732704 1.01964
0.62563 -0.27975 -2.5694
-3.30576 0.223247 -0.848608
-2.05735 0.692243 -0.755865
-1.00682 0.579994 -0.990924
0.90855 -0.500553 -0.649238
1.73416 -0.556449 -0.600727
1.74359 -0.504317 -0.531837
0.655077 0.175985 -0.0730487
-1.32308 0.387075 1.09462
1.09276 0.189775 1.06204
2.17714 -0.710927 0.904795
0.424285 0.228857 1.4832
-0.0833568 2.03446 2.39026
0.772763 -0.270673 -2.13588
-2.34376 0.68623 -0.71872
-3.80658 0.318164 -0.594136
-1.05514 0.598551 -0.974327
-3.28186 0.116087 -0.126658
-0.276692 0.037267 -0.358213
1.41337 -0.52333 -0.701984
-0.292052 -0.0364689 0.0419783
1.78948 -0.611962 -0.607933
0.62217 0.101138 0.00451769
2.03979 -0.566921 0.0302164
3.14539 -0.745756 1.88346
3.45868 -0.837816 1.83192
-3.67928 0.31827 -0.679014
-2.78244 0.551984 -0.349916
-1.54697 0.409818 -0.480764
1.67624 -0.401264 -1.63541
0.0216733 -0.11865 0.163491
1.32521 -0.659008 -0.0970556
-1.11176 0.462288 1.66231
-1.53746 0.576555 1.76153
0.343831 -0.247823 -2.51546
-1.45286 0.299689 1.09454
-0.942858 0.395358 -1.37595
-1.19945 0.390372 -0.518454
-0.2213 -0.0896225 0.0808729
-1.13142 0.546535 -0.644041
-1.697 0.307724 1.21636
-1.51122 0.204439 0.709232
-3.65912 0.176022 -1.09495
-3.71673 0.326569 -0.58549
-3.15263 0.28047 -1.21443
-3.08738 0.13671 -1.12814
-2.22433 0.650535 -0.547491
-1.11718 0.627446 -1.01357
-1.23054 0.69028 -1.01257
-1.16345 0.611839 -0.947416
-1.06565 0.488785 -0.747036
-0.309447 -0.155236 -1.7522
0.400821 -0.268936 -2.16774
0.608657 -0.252279 -2.17409
-1.43949 0.35453 0.5631
1.90719 -0.380596 -2.91248
-0.776753 0.119681 0.702554
-1.50566 0.442557 1.8858
-0.594064 0.141422 0.917947
0.764762 -0.434957 -0.575739
-0.899215 0.363253 1.63178
-0.444051 0.157471 1.08171
-0.0896481 -0.158502 0.982282
-0.313907 0.288358 1.53817
1.24497 -0.634929 0.213227
0.251447 0.229192 1.52419
0.125919 1.87126 2.33768
0.283699 1.95848 2.42687
-3.75914 0.203135 -0.681023
-3.05547 0.247983 -1.21333
-2.24508 0.673602 -0.648626
-2.11106 0.655649 -0.71799
-2.09867 0.625209 -0.654724
-2.67826 0.244333 0.813622
-0.204515 -0.108277 -2.11742
-1.54902 0.30095 -0.0751889
0.220127 -0.34891 -2.02526
-1.92099 0.404491 0.701816
-1.90751 0.357905 0.878099
-1.87687 0.383812 0.826978
1.19898 -0.282768 -2.98043
-1.71221 0.222451 0.928045
0.252499 -0.26277 -1.45527
-0.867591 0.308192 0.105496
0.957492 -0.268647 -2.08558
-1.6751 0.301942 1.22676
-0.703668 0.320557 0.135793
0.0383415 -0.316808 -1.01354
-1.13419 0.505953 0.903816
-1.41623 0.366941 1.13982
1.33957 -0.406432 -2.3261
-0.748891 0.212977 0.44184
1.91607 -0.394885 -2.97253
-0.980006 0.469458 1.08858
-1.54717 0.495275 1.77222
-0.565055 0.132669 0.876733
-1.08162 0.291569 1.64194
-0.184455 -0.00483714 0.486794
-0.432199 0.131827 0.980781
-0.811039 0.416717 1.58502
1.79313 -0.563945 -1.40185
2.03547 -0.52926 -1.60238
-0.236756 0.368741 1.5491
0.272744 0.331466 1.333
1.39186 -0.606656 0.408965
0.315254 1.96106 2.53265
2.36384 -0.812922 1.04207
-3.78224 0.23453 -0.404244
-2.29882 0.759604 -0.751589
-2.30414 0.827758 -0.780998
-3.18301 0.243572 -0.0136372
-0.882808 0.640725 -1.08429
-1.57458 0.492784 -0.273882
-1.03727 0.619888 -0.998775
-0.9057 0.563346 -1.00224
-1.21324 0.424542 -0.823475
0.264996 -0.148073 -2.59084
-1.85053 0.401697 0.378173
-1.80953 0.367817 0.435442
-1.83298 0.326799 0.593607
0.687721 -0.24492 -2.59789
-1.01296 0.287766 -0.183134
-2.16738 0.146799 1.34216
-0.85063 0.348261 0.05837
-1.23894 0.259252 0.643843
-1.88501 0.3512 1.57496
0.946764 -0.368899 -1.91274
-0.7197 0.178986 0.138465
1.12509 -0.447701 -1.83407
-1.31097 0.309655 1.17769
-1.24986 0.389828 1.10389
-1.10216 0.454028 1.01064
-1.15891 0.270317 1.10858
1.33833 -0.434218 -2.00166
0.281164 -0.437242 -0.853433
-0.480933 0.12482 0.930448
1.35596 -0.542846 -0.9697
-0.332342 0.411319 1.55469
0.973083 -0.118771 0.554483
-0.560554 2.07417 2.47902
0.701796 -0.00357267 0.968156
1.34125 -0.681131 0.424297
0.940032 0.124249 1.21273
1.66737 -0.73114 0.304777
1.1963 0.138223 1.14171
-0.0609628 1.92114 2.55252
1.71445 -0.634437 0.674051
2.46321 -0.763697 0.511705
2.45894 -0.744558 0.451289
-2.23524 0.698202 -0.661485
-2.13505 0.654739 0.261199
-1.04298 0.625009 -0.962015
-1.10828 0.470387 -0.814297
-1.02855 0.5287 -0.761951
-1.89112 0.425088 0.452345
-1.89711 0.402361 0.472849
0.0342111 -0.164966 -2.02146
-1.07297 0.460874 -0.0685091
-1.00928 0.562693 0.0114835
1.08204 -0.309438 -2.36031
-1.89052 0.282432 1.50748
-0.589525 0.250548 0.150322
-1.54456 0.219286 1.20267
-1.58757 0.400173 1.68051
0.701912 -0.335445 -0.839931
2.07783 -0.5999 0.112465
2.17652 -0.684911 0.922699
2.34268 -0.731798 1.06766
2.3718 -0.806812 1.23175
-3.59831 0.328444 -0.998709
-2.87116 0.624156 -0.564787
-3.13425 0.0202213 0.111333
-2.10742 0.640184 -0.701468
-0.613867 0.416801 -1.31128
-1.4265 0.383153 -0.409605
-0.378035 0.406093 -1.17211
-1.89847 0.360759 0.615971
-1.64007 0.327809 0.255791
-0.261917 0.373864 -1.09201
-1.8826 0.430252 0.814745
-2.01815 0.131375 1.35244
-1.78593 0.287404 1.39618
-0.992236 0.367872 0.881792
-0.629585 0.205075 0.51764
-0.56936 0.144967 0.65266
-0.55359 0.162995 0.656095
0.718737 0.179968 -0.0653483
0.708363 0.0992798 0.0993748
2.26016 -0.620483 -0.629982
2.23804 -0.741198 0.811921
2.4687 -0.733834 0.623543
2.27978 -0.751397 1.13251
2.29045 -0.784263 1.21469
-2.30486 0.817054 -0.844666
-2.17352 0.744287 -0.604331
-1.75022 0.461141 -0.5175
-0.847714 0.657958 -0.921808
0.490818 0.221763 -0.129255
0.649841 0.120624 -0.0461881
1.75826 -0.526264 -0.473708
0.706969 -0.0122526 0.932515
1.95829 -0.62792 -0.0678353
-1.38976 0.19884 0.826887
-1.92973 0.428797 1.63594
-0.366299 0.0271827 0.269396
-0.998734 0.329573 1.70519
-0.317183 -0.104553 0.549248
0.281183 -0.19395 0.568556
0.844222 -0.0935343 0.854277
0.786624 0.154738 0.907731
-2.71131 0.410352 0.181111
-1.51385 0.131361 1.15314
-1.33011 0.328804 1.08585
-0.41221 -0.0497837 0.204199
0.757623 -0.115243 0.141217
-3.16059 0.197867 -0.984068
-1.10905 0.246378 -0.136437
-2.07872 0.660654 -0.938667
-1.76049 0.611763 -0.325501
-3.72935 0.214611 -0.635114
-2.95897 0.858316 -0.52415
-3.12902 0.190709 -1.21433
-3.03184 0.269415 -0.860399
-2.85973 0.45278 0.303029
-2.82789 0.350085 0.363118
-1.88988 0.312113 1.54644
-1.75015 0.257374 1.17668
-1.59499 0.565458 1.83443
-1.14876 0.603935 -0.879652
-1.30187 0.264042 0.412302
-1.1422 0.212664 0.383554
-0.802056 0.80341 -1.68246
-0.959961 0.491318 1.63805
-0.912683 0.337155 1.58596
-0.681335 0.486881 -1.21639
-0.750338 0.264161 0.0836622
-0.558224 2.09744 2.4942
-0.328003 0.145848 -0.54745
-0.259022 -0.0384136 -2.01692
-0.274226 -0.110096 -1.92285
-0.267935 0.00293157 -0.387906
-0.160763 0.532068 -1.08171
-0.246535 -0.113502 -2.14711
-0.376977 2.06068 2.38248
0.178258 -0.257894 -2.45753
-0.191957 0.0540378 0.451408
-0.142567 -0.122708 0.954225
0.182446 -0.05292 0.0348826
0.424327 -0.302818 -1.12078
0.275145 -0.224285 0.84525
0.344686 0.233468 1.47559
0.194549 2.00789 2.18288
0.270833 1.9388 2.41604
0.376249 1.89688 2.5517
1.37002 -0.533082 -0.337111
1.73317 -0.371037 -3.15241
1.5385 -0.68595 0.327758
1.82016 -0.558328 -0.762204
-2.29018 0.737406 -0.785143
-2.40483 0.276911 1.05367
-2.18358 0.67944 -0.533042
-1.9318 0.687912 -0.686012
-2.10749 0.17173 0.827439
-1.90681 0.317607 0.597579
-1.86895 0.484971 0.456132
-1.79777 0.308998 0.665432
-1.78124 0.491156 -0.548481
-1.85016 0.336321 0.700509
-1.72222 0.28957 0.544303
-1.69741 0.392268 0.861514
-1.57062 0.189875 -0.115029
-1.59521 0.225322 1.18009
-1.42919 0.266954 0.248237
-1.50727 0.258627 1.6402
-1.38169 0.367045 1.11458
-1.24534 0.628581 -1.01415
-1.30898 0.453343 1.01521
-1.30247 0.172483 0.841833
-1.07809 0.575109 -0.966058
-1.09595 0.384419 1.54783
-0.665615 0.391623 -1.27317
-0.706177 0.195826 0.721374
-0.667414 0.0895394 0.367443
-0.461745 0.0625208 0.812291
-0.193557 -0.0554524 0.761098
0.709553 -0.206771 -2.87702
0.260577 1.93405 2.38872
0.6854 -0.449665 -0.593769
0.736564 -0.392143 -0.586622
0.772833 0.0600192 0.954324
0.995727 -0.322835 -1.83893
1.41666 -0.381438 -1.7479
1.37751 -0.503667 -2.2545
1.5444 -0.507613 0.283025
1.59518 -0.704675 0.247349
1.6966 -0.706795 0.67261
1.73069 -0.659776 0.465612
2.13099 -0.369711 -2.85882
2.10127 -0.616266 0.134998
2.18047 -0.666228 0.896703
2.52702 -0.682208 0.598247
2.79771 -0.768513 0.934312
-3.38991 0.18654 -0.526685
-2.66662 0.626874 -0.743948
-2.69751 0.46005 -0.175187
-2.46641 0.788551 -0.862624
-2.16698 0.723065 -0.716308
-2.08206 0.629268 0.194475
-2.10921 0.734559 -0.693327
-1.95081 0.479576 0.445985
-1.79039 0.390448 0.583126
-1.66278 0.502045 -0.645316
-1.54854 0.509469 -0.493666
-1.46087 0.222274 -0.166053
-1.22093 0.378501 -0.401363
-1.12215 0.552816 -0.812622
-1.08023 0.558757 -0.808948
-0.961052 0.599818 -0.962263
-0.970891 0.382853 0.0103038
-0.953887 0.335608 0.15639
-0.335033 0.480377 -1.0232
-0.26143 0.0311357 -0.168798
0.22518 -0.208521 -1.85633
0.789095 0.146167 -0.0551545
1.04717 0.102756 1.08502
1.4864 -0.418886 -1.32815
1.72688 -0.305919 -2.96518
2.23176 -0.681589 0.888592
-3.78971 0.273656 -0.491935
-2.06991 0.728724 -0.70458
-2.06305 0.469501 0.76983
-1.47143 0.42302 1.54643
-1.58949 0.384809 1.59719
-1.40308 0.403456 1.58059
-1.42502 0.279325 1.13812
-1.24925 0.4272 -0.766901
-1.03315 0.618729 -0.962845
-0.916443 0.332814 0.128417
-0.146845 0.0705962 0.278892
-0.0266575 -0.0711648 0.391419
0.207136 -0.312678 -1.71585
0.357838 -0.362319 -0.963023
1.10631 -0.268288 -2.14024
1.83531 -0.564013 -0.659013
2.1056 -0.798974 1.05111
2.43817 -0.740943 1.30949
2.85159 -0.845568 -0.12827
-1.94629 0.435953 0.559603
-1.88445 0.346229 0.64464
-1.60732 0.31904 1.19066
-1.2596 0.254127 0.720598
-0.892116 0.23506 0.231987
-0.832193 0.222965 0.439105
-0.693723 0.218563 0.0697077
-0.251819 0.368527 -1.13748
-0.185172 0.0226634 0.149523
0.862019 -0.224653 -2.90039
0.751912 0.0627914 1.05581
0.875384 -0.0145383 0.602242
1.19554 -0.590878 0.352811
1.11406 0.0881003 1.26028
1.47953 -0.461958 -1.17632
1.76985 -0.283226 -3.1647
1.60669 -0.724472 -0.131172
1.65258 -0.627969 0.770257
2.15761 -0.688231 0.781728
-2.9989 0.274546 -0.963674
-2.58112 0.173282 0.486456
-1.97741 0.707953 -0.824403
-1.82132 0.63398 -0.708465
-1.93888 0.413936 0.818443
-1.91933 0.386387 0.496572
-1.8557 0.381954 -0.0235825
-1.93274 0.376312 0.983126
-1.80784 0.391318 0.87908
-1.72624 0.364409 -0.280716
-1.46033 0.307247 1.29915
-0.753069 0.185447 0.198113
-0.448664 0.128182 1.04972
0.73721 -0.192236 -2.81098
1.29322 -0.227568 -2.87686
1.99923 -0.648896 0.129396
2.14988 -0.756097 0.859664
2.15737 -0.688875 1.60401
3.19752 -0.810084 1.83021
-2.77998 0.697216 -0.301726
-2.03042 0.761847 -0.68853
-1.29858 0.389991 0.0294731
0.279516 -0.192582 -2.7022
1.22724 0.133969 1.14662
3.14417 -0.822969 1.98439
-1.67597 0.39537 -0.29333
-1.349 0.216251 1.1093
-0.894972 0.258722 0.394312
1.88447 -0.605552 -1.02702
-2.0866 0.819278 -0.66443
0.404044 1.98885 2.1081
-2.11512 0.722489 -0.433198
-1.87136 0.640653 -0.479686
-4.11211 0.357694 -0.68192
-3.9463 0.32194 -0.697651
-3.98268 0.332197 -0.638085
-3.75773 0.24616 -0.57234
-2.45071 0.314007 1.04339
-3.58532 0.18904 -0.782831
-3.49675 0.3747 -0.821443
-2.70821 0.322487 0.180633
-2.64509 0.368877 0.0614759
-2.57706 0.363915 0.170376
-2.89906 0.796999 -0.505582
-2.66803 0.379018 -0.0699509
-1.63265 0.194037 1.3962
-1.64677 0.294021 1.44845
-1.92023 0.323133 0.991552
-1.2262 0.409469 1.80086
-1.37956 0.417858 1.14698
-1.55141 0.311435 0.417597
-1.30698 0.235485 0.296436
-0.909227 0.429433 0.935704
0.235494 0.317054 1.33031
-0.417098 0.101994 -0.601966
0.0704542 -0.0171834 -0.316073
0.763719 -0.00211502 0.999348
1.29283 0.149421 1.33607
0.548437 -0.461495 -0.396146
0.359232 -0.383142 -1.06657
-0.0549143 -0.203123 -2.14508
2.18412 -0.640148 0.904935
0.468263 -0.22055 -2.13131
1.26807 -0.391943 -2.78537
-3.70142 0.270793 -0.624398
-3.54183 0.261462 -0.783602
-3.48631 0.361728 -0.746904
-3.63351 0.253522 -0.921475
-3.59669 0.305854 -1.01275
-1.84124 0.376698 1.62794
-2.18906 0.249848 0.717809
-2.59956 0.34345 0.127866
-2.56358 0.410189 -0.0939514
-0.602296 2.05471 2.4117
-1.98001 0.414329 0.694101
-3.08262 0.216929 -1.24265
-1.69211 0.227078 0.888276
-0.323477 2.0771 2.67037
-0.315552 2.0753 2.32073
-0.274035 2.00231 2.34522
-2.05643 0.839204 -0.820486
-1.03663 0.383009 1.04242
-0.307727 0.302048 1.50932
0.237558 2.0036 2.29742
0.285312 1.89548 2.37374
0.356206 2.00887 2.26206
-1.18892 0.657892 -0.956875
-0.450027 0.0583964 -0.703846
-0.490208 0.121681 -0.749906
