-0.777868 0.319307 1.29854
0.0992269 0.0176552 0.965273
-0.0182799 0.0681369 1.16025
-0.0898013 0.0816148 1.20986
0.175302 -0.0396932 1.2232
2.15313 -1.07947 0.445242
1.42743 -0.329116 1.33587
2.83325 -1.36582 1.77679
2.71303 -1.32309 1.99423
-1.13229 0.713489 -1.10921
0.00899208 0.343476 -0.674331
-1.11301 0.38664 0.700808
-1.08535 0.348509 1.19097
-0.833324 0.287052 1.26606
-0.897823 0.438996 1.62728
0.137128 -0.00210366 1.21379
2.57006 -1.16223 0.0275986
3.01226 -1.31561 0.294174
1.37449 -0.247573 1.46686
2.96191 -1.39917 1.47095
2.78135 -1.34648 2.22466
-2.36908 0.413826 -1.57807
-1.62552 0.416399 -0.410028
-1.59556 0.356838 0.0572163
0.425032 -0.207976 -0.229579
0.399588 -0.178712 -0.200616
0.0917042 0.0614525 0.42555
-0.468394 0.45306 1.72682
1.12375 -0.0583768 1.61289
1.73027 -0.194291 1.63983
2.34133 -1.21703 2.30093
3.58844 -1.471 2.72579
0.503087 -0.228371 -0.0211283
-1.0689 0.349171 1.29175
-1.88233 0.665636 -0.00693158
3.60137 -1.48504 2.42485
-1.02427 0.740462 -0.876829
-0.471717 0.187278 0.7411
-0.792849 0.370217 -0.252199
-2.54472 0.469055 -1.42145
-2.54704 0.44917 -1.37599
-2.17291 0.363909 -1.49066
-0.979788 0.667608 -0.847681
-0.343837 0.454349 -1.21169
-1.18542 0.445188 0.384777
-0.994195 0.367669 0.406112
-0.537363 0.295726 0.0499413
-1.12299 0.391663 0.783639
-1.16495 0.400092 0.917968
-0.94343 0.347322 0.636466
-0.916586 0.299014 1.16793
-0.398443 0.460173 1.10297
1.01165 -0.631128 -1.37215
-0.756459 0.510606 1.91212
0.530221 -0.203199 -0.156161
0.043717 0.0505387 0.715592
-0.138703 0.234395 1.07759
1.68158 -0.803088 -1.89474
0.0500583 0.0129406 1.10282
0.745351 0.0575242 1.74465
1.37195 -0.316364 1.38001
-1.70291 0.384018 0.772564
0.037293 0.375971 -0.836142
-1.54403 0.287153 1.31524
-0.985375 0.31983 1.16257
1.02691 -0.568603 -1.76664
0.0873752 0.101293 0.26966
0.505664 -0.172371 -0.402324
0.5018 -0.298203 0.729528
0.281312 0.22527 1.70272
0.597168 -0.34647 1.02384
1.82604 -0.919488 -0.466807
1.60306 -0.228634 0.363537
2.05933 -1.01932 0.407089
2.84188 -1.20315 -0.4827
1.72117 -0.206803 1.60979
2.50936 -1.21361 0.89985
3.01451 -1.31628 0.310237
2.37964 -1.19379 1.22714
3.05759 -1.37605 0.722259
3.25008 -1.48352 1.70865
2.71065 -1.22341 2.55723
-2.54918 0.452681 -1.26185
-1.53464 0.627564 -0.850003
-0.793996 0.350063 -0.223126
-1.14551 0.447619 0.420589
-1.0897 0.3557 1.34948
0.860685 -0.55857 -1.69575
0.0906913 0.047649 0.451735
0.4642 -0.245808 0.437554
0.519195 -0.2677 0.747426
2.02144 -0.923216 -1.4249
0.291571 0.208073 1.73478
1.84873 -0.934475 -0.500788
2.09683 -0.973123 -0.775577
0.934425 0.0177667 1.64896
1.0799 0.00490766 1.63597
1.92595 -1.00981 0.518736
2.26032 -1.24072 2.34939
3.27483 -1.51501 2.30472
-2.36146 0.423259 -1.56087
-1.19418 0.710521 -1.217
-1.13595 0.724563 -0.835038
-0.729334 0.362489 -0.50031
-0.770569 0.349058 -0.436777
-1.4119 0.286549 1.00551
-0.961021 0.347967 0.990737
0.769183 -0.525754 -1.55803
0.475239 -0.0531571 1.52102
1.3651 -0.304556 1.40022
1.29223 -0.109859 1.59647
1.54228 -0.15509 1.60338
1.56733 -0.175531 1.57987
3.05097 -1.35507 0.706296
-2.30121 0.430699 -1.48218
-0.855376 0.608054 -0.866463
-1.75958 0.390032 0.369645
-0.349189 0.125784 0.58648
2.67304 -1.30948 1.53059
2.86325 -1.38647 1.90238
-1.01675 0.460273 0.396559
-1.26468 0.51747 1.59924
3.45897 -1.40066 2.62362
0.476457 -0.235492 0.0339958
2.72016 -1.19324 -0.377646
-0.483843 0.295288 0.0610709
0.401331 -0.251672 0.426742
3.60407 -1.53609 2.40314
-0.632625 0.314145 -0.395722
0.294894 0.135388 -0.915445
-0.292096 0.178289 0.650041
0.790306 -0.357612 0.765182
0.987107 -0.422211 -0.633442
-1.49763 0.611926 -0.874263
-1.73465 0.373336 0.61354
-1.44088 0.269516 1.00846
-0.785547 0.366182 -0.250239
-0.0835126 0.424131 -0.888209
0.461807 1.90081 2.74479
0.599697 1.88591 2.50519
0.009925 0.0398104 0.829661
0.125505 0.0487816 0.349797
0.151972 -0.000110797 1.08059
0.164818 -0.0358021 1.08382
1.01981 1.7214 2.66875
1.71691 -0.86622 -1.07523
-1.48555 0.607295 -0.871021
-1.63519 0.348001 0.624995
-1.14569 0.688666 -0.774242
-1.60884 0.277771 1.20819
-1.10966 0.382956 0.81108
-1.09664 0.375949 0.919284
-0.716416 0.345091 -0.318832
-0.944434 0.292476 1.17011
-0.58363 0.286985 -0.331677
-0.0118609 0.394955 -0.909271
0.552827 1.8848 2.72159
-0.123797 0.0931724 1.30009
0.0504777 0.00353353 1.10579
0.252568 -0.0588555 1.26467
1.039 1.76847 2.55119
0.874919 -0.560467 -1.75474
0.616756 -0.303852 0.620057
0.5867 -0.347203 1.07405
0.692763 -0.391124 1.04007
1.24783 -0.706187 -1.07436
1.33486 -0.695781 -1.51339
0.930503 -0.461549 1.13845
1.22213 -0.726289 -0.377648
1.56189 -0.457404 1.0307
1.99025 -0.932199 -1.06408
2.17375 -0.908395 -2.01994
1.9666 -1.05786 1.21018
2.20111 -1.10373 0.793009
2.39032 -1.18754 1.18124
2.41912 -1.1738 1.18797
2.53769 -1.28096 2.26212
2.99551 -1.3078 0.319573
3.03065 -1.36466 1.17263
3.23019 -1.50399 1.93666
3.26929 -1.49414 1.91341
-1.05892 0.361437 1.09565
-0.820396 0.336314 -0.172663
-1.01243 0.339231 1.05184
0.52716 -0.305948 0.405493
1.78549 -0.815263 -2.01679
1.50715 -0.827665 -0.309038
1.95826 -0.847219 -2.11567
1.73923 -0.921316 -0.164586
1.9885 -1.0642 1.26173
2.17178 -1.11551 0.92605
2.78038 -1.3516 1.79766
3.29793 -1.52111 2.32346
-2.3226 0.41978 -1.53485
-1.03366 0.651278 -0.783565
-1.09697 0.369784 1.15971
-0.968584 0.304579 1.27318
-0.160964 0.200692 -0.361074
-0.173112 0.353163 1.85269
-0.0190002 0.107346 0.390252
0.0636695 0.0729062 0.414872
2.33274 -1.03943 -1.18087
2.71491 -1.11713 -1.12849
-0.868108 0.394106 -0.319318
-1.001 0.31967 1.29203
0.329415 0.198815 1.69444
0.649932 -0.0698823 -0.630084
2.02802 -1.02886 0.276038
2.16506 -1.04254 -0.397863
-1.83187 0.680086 -0.0994281
-1.72432 0.670248 -0.525074
-0.632544 0.31719 -0.377538
-0.168582 0.189448 -0.221455
0.199314 -0.00265495 0.587365
0.695379 -0.0665884 -0.707838
1.42791 -0.391847 1.17431
2.58796 -1.21407 0.706275
2.62877 -1.2281 0.689761
2.70195 -1.30158 1.58659
-0.71171 0.342858 -0.353067
2.60234 -1.21965 0.599474
-0.902184 0.404603 -0.078767
0.432001 -0.229699 0.403937
0.425556 -0.265301 0.733029
0.52022 -0.275482 0.624639
1.14226 -0.507367 0.938263
1.12668 1.71541 2.3717
2.36505 -1.19197 1.42338
-0.297931 0.197711 0.440921
1.1714 -0.37611 0.515978
-2.55821 0.446819 -1.24667
-0.976634 0.30962 1.33733
-1.18821 0.42699 0.412661
0.730412 1.91005 3.10924
0.580994 1.89241 2.39851
0.676175 1.86277 2.71679
0.628475 1.87588 2.50578
-0.535702 0.446627 1.06935
-0.534119 0.423112 1.00468
-0.478019 0.188554 0.390037
0.0421836 0.0294937 1.07516
0.110075 0.00992228 1.0903
0.143056 -0.0241185 1.23863
1.29659 1.42388 2.63764
0.478637 0.142964 1.69808
-0.084276 0.419309 -0.9174
0.375221 -0.261329 0.87601
0.403918 0.0505905 -1.01946
1.42708 -0.408738 1.20991
0.817478 -0.564329 -1.55239
0.883431 -0.529929 -1.89988
1.24293 -0.625215 -2.00141
1.81343 -0.943082 -0.136833
2.3859 -1.12644 -0.0409213
2.18333 -0.934662 -1.93133
3.23805 -1.49338 1.89003
2.44167 -1.0101 -2.16777
-1.6085 0.291994 1.23203
0.136066 2.02948 2.52855
-1.13514 0.379425 1.16314
0.477593 1.9108 2.73762
-0.951599 0.296798 1.34406
-0.944398 0.304573 1.15292
0.647021 1.87774 2.67361
-0.505544 0.362783 1.16415
-0.315924 0.42519 1.01365
-0.310399 0.404234 0.996753
0.988345 1.7684 2.55892
1.00858 1.77791 2.57215
-0.112953 0.117294 1.30006
-0.1027 0.19003 1.05521
0.278716 0.233038 1.71928
-0.0279781 0.0593786 0.890017
-0.196942 0.1949 -0.209714
0.134972 -0.00339655 0.849171
0.127589 0.0788978 0.295914
0.00301314 0.358856 -0.748325
0.0996021 0.36097 -0.924028
0.53245 -0.280679 0.656371
0.542187 -0.276499 0.638312
0.573274 -0.30492 0.628602
0.78207 -0.357458 0.791774
0.812702 -0.546954 -1.59186
1.04052 -0.67955 -0.711109
1.07169 -0.702966 -0.704635
1.17601 -0.714149 -0.343205
1.22591 -0.76168 -0.132646
0.856361 -0.541754 -1.76528
1.11546 -0.632326 -1.70466
1.24638 -0.653446 -1.97647
1.81348 -0.939076 -0.165109
1.74179 -0.821858 -1.75616
1.98611 -0.951224 -0.861538
2.14329 -1.03987 -0.286457
2.67402 -1.27588 1.61384
2.39307 -1.14853 0.0236913
2.09335 -0.922688 -1.72012
2.37586 -1.06302 -0.717429
2.57899 -1.16419 0.0281182
3.22789 -1.46467 1.71789
-1.70473 0.386224 0.586834
-2.29878 0.39732 -1.5631
-2.25835 0.41083 -1.59765
-1.06382 0.327453 1.12096
-0.947035 0.30149 1.34116
-1.10694 0.398043 0.540642
-0.983965 0.346694 0.832731
-0.823734 0.266357 1.22336
0.0621198 -0.00590763 1.00079
0.233041 -0.0456821 1.25851
0.157784 0.0183385 0.769601
0.212689 -0.00781387 0.811643
0.209357 0.0198558 0.567668
0.110038 0.35982 -0.943992
0.370834 -0.225698 0.359422
1.73083 -0.233433 1.69879
1.08145 -0.698383 -0.742775
0.848593 -0.528515 -1.83852
0.878128 -0.544149 -1.9007
1.22687 -0.658701 -1.7755
1.92435 -1.00743 0.515527
1.78928 -0.904332 -0.690395
1.75352 -0.829857 -1.79117
2.80241 -1.36803 1.95754
2.76258 -1.3602 1.79539
2.39586 -1.12004 0.0718677
2.48235 -1.16478 0.307603
2.42661 -1.13764 0.100169
2.86682 -1.35267 1.77854
2.1605 -0.914815 -2.06219
2.71072 -1.17614 -0.885898
-2.75177 0.534666 -1.44001
-1.16752 0.389703 0.896217
0.0572697 -0.00607626 1.26794
-0.0423314 0.0770725 0.815774
0.239396 -0.0334421 1.09338
0.544438 -0.291898 0.400052
1.79769 -0.26585 2.40242
0.844164 -0.533501 -1.99033
1.96445 -1.0834 1.24786
1.33975 -0.695138 -1.42814
1.97918 -1.08328 1.27421
2.15877 -1.14999 0.945396
1.86304 -0.874955 -1.59827
2.76087 -1.33492 1.80366
2.55833 -1.21329 0.828404
2.8756 -1.38885 1.92712
2.36845 -1.01945 -1.20361
3.30514 -1.4929 1.92299
2.4822 -1.04014 -1.753
-1.06906 0.352171 1.12858
-1.07866 0.367034 1.00243
-1.00327 0.405276 0.396328
-0.465483 0.317205 -0.637522
-0.189277 0.165967 -0.144128
0.206726 -0.0215252 1.05098
0.544856 0.145345 1.7392
0.150087 0.0222009 0.594731
1.30616 -0.121225 1.59166
1.80509 -0.255251 1.5429
1.08326 -0.681765 -0.842718
2.77891 -1.3508 1.92401
2.63897 -1.27089 1.29754
2.77166 -1.35315 1.82762
2.33914 -1.06227 -0.507129
2.38415 -1.06634 -0.583229
2.15431 -0.925804 -1.79861
2.36173 -1.03577 -1.14088
2.62759 -1.12927 -1.14026
3.04481 -1.36184 0.709973
2.95004 -1.24453 -0.498199
3.64096 -1.49854 2.45783
2.9903 -1.23706 -1.06212
0.574777 -0.282991 0.318694
1.52884 -0.230337 0.348244
2.1502 -1.09347 0.843731
2.74143 -1.37507 2.29194
2.01205 -0.915355 -1.40156
2.41814 -1.13345 -0.0844281
2.48192 -1.20462 0.707794
-0.895583 0.358424 0.334219
0.517307 -0.284669 0.815968
0.41749 -0.225773 0.369716
2.62197 -1.1477 -1.01099
1.17998 -0.292735 0.364947
0.717257 1.90541 3.09706
0.255138 1.99484 2.54395
0.664821 1.85898 2.72895
0.593451 1.89943 2.43663
-1.68514 0.465654 0.961383
1.01351 1.75556 2.60367
1.02088 1.75178 2.59438
-0.986687 0.316693 1.27718
-1.04601 0.343885 1.15209
-0.399102 0.428751 1.68706
-2.23847 0.305004 -0.369333
-2.26964 0.330187 -0.413831
-0.638261 0.379941 1.15101
-0.575543 0.407727 1.15003
-1.05301 0.385164 0.631922
0.104353 0.266266 1.82252
-0.411413 0.460849 1.10837
-0.972484 0.350964 0.614717
-0.923881 0.3767 0.393066
-2.61435 0.474474 -1.42395
-0.13514 0.250351 1.11318
0.627622 0.104919 1.76481
0.667599 0.0769458 1.80108
-0.00970602 0.0516713 1.11558
-2.28721 0.405891 -1.43826
-2.29368 0.389452 -1.54768
-1.15104 0.704008 -0.814952
-1.20775 0.708546 -0.936765
-1.2039 0.728657 -0.951979
-1.09168 0.743587 -0.837228
-1.04452 0.727675 -0.803412
0.243358 -0.00207629 0.813341
1.10178 -0.0144153 1.68677
-0.696922 0.377625 -0.567579
0.691178 -0.372196 1.03748
-0.731587 0.565508 -1.17767
1.38729 -0.338614 1.33138
2.22686 -1.22607 2.46254
2.22471 -1.20536 2.41373
2.26805 -1.23281 2.38664
0.597837 -0.165343 0.123269
1.42241 -0.420532 1.06614
0.535732 -0.19267 -0.171302
0.0872334 0.377579 -0.898974
2.63564 -1.32327 2.12547
0.680048 -0.0682655 -0.678181
2.09532 -1.09422 1.15535
1.21398 -0.724507 -0.384289
2.04546 -1.03677 0.150293
1.80242 -0.937566 -0.127667
2.68394 -1.25057 0.846301
2.59913 -1.21123 0.477359
1.82656 -0.913051 -0.584169
1.81262 -0.89754 -0.611143
0.837383 -0.527693 -1.96285
2.41714 -1.10606 0.063255
1.26098 -0.640118 -1.98546
1.86907 -0.851073 -1.57582
0.157463 2.01991 2.60482
-1.65384 0.384447 0.770084
-1.42659 0.261382 1.00192
-0.98025 0.327923 1.18306
-0.146697 0.339193 1.73206
-0.140625 0.341526 1.7401
-2.68965 0.479823 -1.02603
-1.17001 0.450485 0.430643
-0.479606 0.34894 1.17516
-1.25137 0.632685 0.144839
-2.79243 0.530112 -1.41379
-2.50156 0.502024 -1.60872
0.086328 0.0110809 1.13419
0.228641 -0.00894681 0.812099
-1.21967 0.736577 -1.02183
0.502971 -0.316291 1.16023
0.301307 -0.252879 0.89278
-0.0746759 0.112132 0.330639
-0.778056 0.403599 -0.551993
1.81884 -0.282472 2.41493
0.387855 -0.276348 0.853903
0.646852 -0.225902 0.814389
0.55178 -0.248942 0.659964
0.867766 -0.419411 0.839868
1.42257 -0.409395 1.21762
0.812174 -0.383057 0.445402
0.848403 -0.353239 0.463205
1.43086 -0.414499 1.15908
-0.020767 0.344542 -0.761885
0.994184 -0.390854 0.510674
1.88772 -1.03806 1.2697
2.88247 -1.37642 2.22175
2.39616 -1.21085 1.46667
1.23582 -0.758608 -0.184406
1.18296 -0.71823 -0.326261
2.81482 -1.33588 1.54918
1.10236 -0.673373 -0.713904
3.29987 -1.50337 1.93623
1.18664 -0.699807 -1.01976
2.84369 -1.32402 1.11543
1.23801 -0.702657 -1.10143
1.32279 -0.729971 -1.41058
1.13812 -0.628158 -1.73034
3.29745 -1.43622 0.780619
1.97818 -0.931336 -1.05446
-1.6264 0.35654 0.782829
-1.60102 0.367337 0.794486
0.97319 1.79955 2.33799
-1.65409 0.38637 0.604472
-0.926886 0.307736 1.32612
-1.16152 0.398696 0.906404
-0.939828 0.302463 1.14359
-1.66757 0.47018 0.283368
-0.499763 0.323175 1.20813
-1.0389 0.383216 0.614011
-1.18114 0.428504 0.456262
-1.204 0.446287 0.404446
-0.312548 0.369498 1.10211
-1.74429 0.664363 -0.46968
-2.40431 0.396884 -1.10102
-0.201409 0.284751 1.12631
0.467245 0.0183945 1.53034
-2.31962 0.41266 -1.58676
0.736151 0.0708627 1.66609
-0.0131126 0.0659064 0.854614
-0.00147871 0.0681243 0.542357
-0.0390199 0.10362 0.390552
-0.109579 0.103661 0.310698
0.0155919 0.083389 0.434377
0.343908 -0.26416 0.863088
-0.0710887 0.134365 0.281976
-0.0386732 0.144979 0.24988
0.513972 -0.251303 0.699415
-0.460752 0.345073 -0.723188
-0.360328 0.285637 -0.599948
2.27959 -1.21851 2.37035
0.0101917 0.351748 -0.822459
-0.0274141 0.393252 -0.948179
0.534323 -0.192164 -0.208795
0.112687 0.353728 -0.850442
1.91371 -1.03124 1.29961
2.38897 -1.23596 1.85383
0.201763 0.292186 -1.1115
2.83367 -1.3454 1.91119
2.36538 -1.17377 1.26022
1.35554 -0.80605 -0.0905199
2.21349 -1.11548 0.932419
2.23928 -1.13403 0.886991
1.9545 -1.01712 0.481219
1.04299 -0.688785 -0.682574
2.84697 -1.32445 1.54553
1.2898 -0.726651 -0.472318
1.28607 -0.753194 -0.69484
2.09104 -1.03006 0.254018
2.58596 -1.21023 0.811487
1.21366 -0.693496 -1.20218
1.18099 -0.682456 -1.2316
1.82003 -0.949045 -0.463998
2.43889 -1.13528 0.0389108
0.834606 -0.508803 -2.15797
2.13716 -1.02453 -0.466547
2.56399 -1.16452 0.0249026
2.5139 -1.15367 -0.126305
3.11804 -1.36357 0.633082
3.03614 -1.31115 0.519375
2.32741 -1.07843 -0.510182
1.97984 -0.922509 -0.996901
3.08412 -1.32979 0.349447
1.76066 -0.813486 -1.75638
2.32053 -1.03305 -1.29432
2.74156 -1.1679 -0.910676
2.68474 -1.15556 -1.08736
2.50703 -1.07098 -1.46655
2.44198 -1.0699 -1.63194
2.9441 -1.18386 -1.15962
-0.935215 0.297463 1.20834
-1.09549 0.376091 0.991052
-1.67472 0.444455 0.251575
-1.06457 0.378877 0.799544
-0.166201 0.340401 1.71336
-1.11369 0.382324 0.686689
-2.96395 0.597118 -1.394
-1.13781 0.454052 0.339853
-2.76131 0.537119 -1.43267
-2.43038 0.422643 -1.46627
0.472671 0.0235554 1.53266
0.177087 0.0010797 1.06769
-1.03332 0.684413 -0.753135
0.0413048 0.0774822 0.516956
-0.108389 0.12219 0.328113
0.058408 0.0573292 0.501539
1.53822 -0.166152 1.62728
0.429466 -0.280237 0.218161
1.39821 -0.414151 1.17991
-0.0708272 0.446326 -0.937467
2.64056 -1.31905 2.25282
1.97318 -1.07174 1.34949
2.79009 -1.37545 2.25628
2.85194 -1.389 1.87965
2.07351 -1.07702 0.879049
2.3369 -1.17503 1.17821
2.12968 -1.09809 0.841849
2.15397 -1.11098 0.782314
1.38073 -0.764551 -0.412775
1.54729 -0.837802 -0.366871
3.20215 -1.47832 1.75706
1.52679 -0.829005 -0.416813
1.10896 -0.640223 -1.30562
0.817085 -0.521837 -2.06736
2.37378 -1.08865 -0.497925
2.76112 -1.16761 -0.85009
2.6052 -1.10121 -1.10565
-0.559959 0.46623 1.91112
-1.00905 0.331696 1.27352
-1.38924 0.304307 0.754267
-0.141545 0.303914 1.85633
-0.9958 0.342302 0.963126
-1.10824 0.383728 0.76858
-1.03512 0.373958 0.753568
0.0167818 0.0254419 1.02092
-0.0797011 0.0907751 0.790472
0.0126701 0.0499584 0.700097
0.095235 0.0372801 0.697579
1.27811 -0.0931183 1.77492
0.469978 -0.291787 0.932109
0.842692 -0.393333 0.51489
0.00933343 0.390718 -0.960504
1.60289 -0.442624 1.07257
2.74006 -1.29722 1.6926
0.936649 -0.61095 -0.672996
1.05523 -0.628377 -1.25624
3.10264 -1.3621 0.835
2.30625 -1.05363 -0.783904
2.66105 -1.12842 -1.13904
-0.330845 0.394153 1.76035
-1.5553 0.387507 -0.0422549
-0.682352 0.333476 0.510437
0.513242 0.156662 1.83334
0.716363 0.0797849 1.89953
-0.091457 0.0910719 0.588607
-1.10562 0.691438 -0.776945
-0.0711949 0.106267 0.509603
1.3611 -0.110025 1.63269
1.40544 -0.226809 1.56157
1.94551 -0.980763 0.618069
2.96637 -1.34251 0.715762
2.46693 -1.13176 -0.0655551
1.17854 1.57663 2.45199
-1.61252 0.42545 0.171649
-0.0568015 0.0581979 0.871096
-1.03208 0.676521 -0.789411
0.63404 -0.366806 1.04735
-0.517842 0.304365 -0.431319
2.89327 -1.28904 0.0564928
0.987692 1.77225 2.66424
-0.0245373 0.0579368 0.99513
0.425981 -0.30249 0.7427
0.107684 0.330095 -0.841744
0.115131 0.333557 -1.25671
0.806969 -0.330546 0.931151
0.116586 0.301739 -0.611632
-0.396517 0.28852 -0.518596
-0.687456 0.34468 -0.0110361
1.28099 -0.473686 0.706186
0.212333 2.01808 2.50252
0.993552 1.75577 2.67272
0.556307 1.89655 2.49645
0.581607 1.8961 2.39803
0.528666 1.92726 2.39703
-0.354365 0.414333 1.76025
-1.60636 0.293033 1.21517
-1.01758 0.325324 1.31096
-1.15999 0.377992 1.16166
-1.65745 0.466098 0.963903
0.483887 0.138953 1.81688
0.276115 0.213337 1.70622
-1.08575 0.366447 1.16674
-1.02987 0.338212 1.15075
-1.01044 0.332965 1.16184
-2.03114 0.531377 0.353519
2.23027 -1.19617 2.24781
-2.01231 0.552379 0.280163
-1.11715 0.420456 0.652708
-1.06719 0.404985 0.625394
-1.01293 0.372576 0.642807
-0.950072 0.357165 0.61551
0.0492585 0.0224304 0.987369
2.24025 -1.17794 1.79908
2.51577 -1.2624 1.89216
-2.52724 0.397146 -0.421979
-2.38165 0.334391 -0.433673
2.4206 -1.22021 1.73922
-0.0846938 0.0851154 0.580279
0.132022 0.0216498 0.609497
2.68888 -1.31368 1.74934
2.69557 -1.30209 1.73202
2.9431 -1.38221 1.72426
-2.4299 0.426678 -1.08967
-2.7268 0.517147 -1.41129
-2.54688 0.455073 -1.41386
-1.069 0.720896 -0.795556
2.36145 -1.16498 0.694124
-1.15299 0.707115 -1.16354
-0.962341 0.624928 -1.17464
-0.772635 0.679313 -1.60239
2.73124 -1.17488 -0.858946
0.523756 -0.426661 -2.08747
0.724559 -0.494427 -2.03056
3.02776 -1.24683 -0.824347
1.35761 -0.689166 -1.84487
0.330198 1.98465 2.62542
0.387624 1.96803 2.58688
0.255416 1.97952 2.54308
0.613487 1.87639 2.69138
0.560067 1.90268 2.48705
1.0051 1.76824 2.56733
-0.0989912 0.30616 1.68109
1.80914 -0.273932 2.40339
0.273864 0.207835 1.73298
-0.938068 0.309192 1.15443
0.506529 0.159712 1.69313
-0.661783 0.319219 1.20556
0.818997 0.0328664 1.79859
-0.493031 0.347032 1.16104
-0.140738 0.116008 1.28273
-0.344253 0.504194 1.03978
-0.385742 0.458508 0.963495
-0.383143 0.436456 0.929509
2.85258 -1.36002 2.25959
-1.18694 0.44827 0.350808
1.58771 -0.186505 1.57149
2.92533 -1.39884 2.24031
3.13599 -1.44111 2.22102
-2.25576 0.318845 -0.389968
1.43515 -0.386558 1.27103
2.69223 -1.28933 1.63574
1.20789 -0.517612 0.897858
2.01201 -1.10781 1.27073
2.66998 -1.30821 1.50356
2.65821 -1.29393 1.49437
3.20584 -1.47496 1.73689
0.13152 0.0675496 0.230062
-2.53153 0.433045 -1.0799
2.59392 -1.24335 1.28735
2.76058 -1.30266 1.31822
0.984888 -0.385539 0.453257
2.08132 -1.07312 0.95705
-2.1134 0.323804 -1.08134
-1.1352 0.676412 -0.662951
1.91783 -1.03376 0.750567
1.97752 -1.03663 0.759023
-0.310172 0.253724 -0.324062
-0.801641 0.416053 -0.58542
-1.07697 0.692425 -0.791719
2.12182 -1.0837 0.70895
-2.47176 0.460057 -1.51143
1.57848 -0.211224 0.397252
0.511198 -0.208681 -0.16784
-0.900255 0.630953 -1.19295
-0.684654 0.540204 -1.18739
2.06404 -1.01764 -0.0349941
1.1323 -0.704297 -0.747861
1.87412 -0.916074 -0.529803
1.2807 -0.730183 -0.879076
2.16201 -1.04493 -0.456947
0.98768 1.75829 2.65052
-0.805498 0.559524 1.76135
-0.171241 0.323394 1.83423
-0.972384 0.303092 1.33934
-1.19707 0.374031 1.18753
-1.08123 0.343401 1.21092
0.298047 0.193424 1.73268
-1.69889 0.396346 0.777138
-0.568611 0.392756 1.1725
-0.543334 0.360135 1.16423
2.24932 -1.22339 2.40769
2.68165 -1.20248 2.53551
-1.02705 0.359712 0.819302
2.83172 -1.25843 2.57124
-0.404294 0.486082 1.04067
-0.0747395 0.0784312 0.832215
-1.10604 0.483047 0.34274
1.67461 -0.21522 1.58022
-0.957493 0.385849 0.397581
-0.96912 0.391665 0.328416
0.148162 0.00660951 0.85698
0.491454 -0.315168 0.965065
2.46091 -1.2285 1.51512
-0.0457367 0.135176 0.249278
1.99654 -1.06211 1.02343
-0.500041 0.309586 -0.406946
-1.0284 0.638557 -0.671806
2.18366 -1.1139 0.776849
2.91932 -1.33729 1.11658
-0.989902 0.692694 -0.835768
3.21688 -1.3919 1.1077
0.543339 -0.183835 -0.198452
-2.31237 0.392952 -1.58816
2.66081 -1.24146 0.716348
1.30313 -0.752119 -0.150168
-0.708728 0.58188 -1.15236
1.85789 -0.961836 0.0038654
1.7495 -0.930704 -0.141809
1.77746 -0.937512 -0.138724
-0.439333 0.503826 -1.21938
0.912961 -0.621759 -0.657341
2.16133 -1.05054 -0.263932
2.86284 -1.16038 -1.83316
-0.140174 0.334465 1.83473
0.0945082 0.257048 1.92949
-1.05659 0.314477 1.36048
-1.11092 0.353147 1.29944
0.446013 0.153517 1.79979
-0.856277 0.265919 1.21359
-1.08722 0.360432 1.04477
-1.03169 0.353718 1.04321
-1.16853 0.377072 0.982974
-0.978512 0.350839 0.887972
0.065307 0.0159672 1.25287
2.58484 -1.31782 2.24
1.68294 -0.214817 1.69934
-0.0264841 0.0513521 0.914215
3.18445 -1.46821 2.38917
0.144815 0.0275553 0.80791
0.0503206 0.0599609 0.749096
-2.31188 0.338715 -0.45201
-0.00781766 0.0508164 0.591349
0.00493159 0.0657876 0.43861
0.686871 -0.233049 0.724216
0.364062 -0.207431 0.34022
-2.69553 0.513683 -1.44597
-1.18907 0.699751 -0.734344
-2.35626 0.416171 -1.58186
3.04586 -1.35672 0.902873
2.7282 -1.246 0.664841
3.04822 -1.35995 0.799498
1.33251 -0.745689 -0.657703
2.49885 -1.14967 -0.19631
2.00621 -0.988738 -0.777219
3.00483 -1.22509 -0.833615
1.85719 -0.862017 -1.59674
2.68898 -1.04776 -1.81573
-0.641289 0.48657 1.87347
0.520201 0.131148 1.8057
-1.63642 0.379397 0.835694
-1.58614 0.348739 0.832949
-1.02497 0.363003 0.87738
1.1048 -0.0651515 1.77704
1.30352 -0.075433 1.58315
1.73426 -0.227847 1.70892
-0.0627397 0.0856312 0.795794
0.917107 -0.424684 1.02519
1.53424 -0.472184 1.02663
3.34559 -1.51167 1.65949
0.779899 -0.35306 0.410217
-0.296585 0.233851 -0.476057
-2.44552 0.469715 -1.55748
1.14017 -0.231901 0.057792
0.0847106 0.355564 -0.881611
0.00373157 0.386975 -0.928979
0.816928 0.0408325 -0.868953
0.986806 1.75121 2.669
2.79404 -1.35939 2.21856
3.60436 -1.48013 2.52579
-1.11402 0.429665 0.32585
0.613845 -0.345073 1.07044
0.427025 -0.282181 0.926681
-0.0661406 0.0956901 0.530743
0.436973 -0.253279 0.452822
-0.771608 0.369249 -0.566361
-1.16468 0.718488 -0.746153
0.314494 -0.160456 -0.150414
2.4963 -1.20909 0.829039
2.18164 -1.03607 0.10119
-0.977297 0.305858 1.27041
0.555103 0.129729 1.8128
1.17224 -0.069455 1.75801
0.0183198 0.10442 0.228207
1.46634 -0.436069 0.68148
-0.566847 0.32163 -0.591393
0.517026 -0.117092 -0.589271
2.59669 -1.15216 -0.271019
-0.502009 0.456897 1.96879
0.841571 0.0348431 1.57303
1.20862 -0.466999 0.179178
2.8457 -1.26313 0.0682523
-0.510665 0.240225 0.0516305
-1.04544 0.672047 -0.528784
0.0926117 0.252041 -0.627286
-0.165496 0.319677 -0.624869
-0.551265 0.287004 0.451236
-0.849242 0.498741 -0.26237
1.03943 -0.309527 0.13838
0.629718 1.87408 2.73426
0.56306 1.89058 2.72287
0.653463 1.85603 2.67753
1.01036 1.75394 2.58783
1.00314 1.76644 2.55001
0.579789 1.89644 2.40784
2.28603 -1.24044 2.4125
1.83996 -0.292737 2.40779
0.995795 1.80045 2.36104
2.27202 -1.22098 2.38093
2.25834 -1.21051 2.38967
3.20824 -1.47175 1.77854
3.34514 -1.48788 1.70663
-0.705706 0.525948 1.89136
-0.78059 0.525804 1.89886
0.836091 0.0484358 1.79407
0.556241 0.142938 1.82178
0.4569 0.144038 1.82568
0.564681 0.122096 1.79554
0.549485 0.119547 1.80081
0.747034 0.0646544 1.77202
-0.953242 0.594321 1.83371
0.541893 0.106496 1.68366
0.646284 0.109917 1.66801
0.231981 0.242609 1.68087
3.01765 -1.38709 1.4446
1.18941 -0.0476888 1.54438
2.006 -1.08056 1.26959
1.85965 -1.02371 1.27044
2.42418 -1.19024 1.18926
1.40544 -0.39756 1.28727
-1.00098 0.318843 1.34787
-1.61849 0.301135 1.20288
-1.15937 0.377469 1.20706
-0.465337 0.351352 1.18347
-0.888496 0.282777 1.17176
-1.06317 0.330538 1.17084
-1.14775 0.369819 1.16647
-0.496935 0.355721 1.16964
1.53866 -0.463687 1.03299
0.619216 -0.337593 1.03878
1.89044 -1.03724 0.947756
2.15045 -1.11698 0.934933
-0.403004 0.467811 1.07234
1.44113 -0.520416 0.976174
-1.40748 0.280623 0.976485
-1.66603 0.450129 0.978575
3.04574 -1.35903 0.752512
-1.67223 0.442155 0.95657
0.344236 -0.266423 0.853578
-1.61203 0.46053 0.911767
0.182397 0.00391912 0.816538
-1.78047 0.400759 0.84823
0.601334 -0.199791 0.756926
-0.534705 0.184317 0.764734
-1.14501 0.400742 0.684466
-1.89871 0.446653 0.65879
2.48852 -1.20448 0.481586
-1.08309 0.37673 0.643427
-1.04586 0.401369 0.62852
0.0370591 0.0543173 0.561628
-1.68363 0.392033 0.569796
-2.0399 0.529643 0.353919
-1.15941 0.475917 0.340229
-0.0336092 0.140333 0.264673
-1.97424 0.533317 0.230676
-1.83626 0.488365 0.0811468
-0.540624 0.281516 0.0534911
-1.68371 0.499434 -0.204211
-1.67086 0.465108 -0.214714
-1.67126 0.481956 -0.281542
-0.256248 0.207245 -0.270331
-0.283989 0.224475 -0.28094
-0.675101 0.329914 -0.297598
2.23321 -1.05523 -0.490637
-0.464358 0.272253 -0.338079
2.32593 -1.08079 -0.525503
-0.574521 0.332283 -0.495093
1.6057 -0.827988 -0.726755
1.61036 -0.856025 -0.727485
1.39175 -0.76821 -0.778801
2.0105 -0.965131 -0.818874
0.674457 -0.0507038 -0.666785
1.17519 -0.692174 -0.887954
-1.81911 0.891604 -0.729577
-1.1999 0.737657 -0.739595
1.97828 -0.930374 -0.958611
-1.04819 0.70171 -0.779964
-1.10254 0.702789 -0.789156
-1.05748 0.718334 -0.784529
-0.943043 0.680228 -0.803862
-1.06073 0.697527 -0.815755
-1.13034 0.69861 -0.863332
-1.24906 0.75953 -0.836322
-0.00737072 0.410621 -0.854968
1.82572 -0.889086 -1.10346
-2.15113 0.352449 -1.11995
-2.0542 0.285719 -1.11906
0.133358 0.381463 -0.946555
2.34152 -1.02403 -1.15083
0.193897 0.314828 -1.01175
-2.93082 0.572269 -1.35995
1.4769 -0.716134 -1.2849
-3.0567 0.618266 -1.4104
-2.5729 0.473954 -1.38208
-2.46215 0.458469 -1.41885
-2.51513 0.454265 -1.4084
-2.38982 0.423625 -1.48896
-2.50517 0.463079 -1.49421
-0.89475 0.646425 -1.24598
0.586971 -0.478687 -1.48984
-0.181924 0.419164 -1.29825
1.2117 -0.671824 -1.52231
0.933071 -0.583549 -1.54909
2.72839 -1.11021 -1.53405
0.688081 -0.515631 -1.6863
1.28146 -0.707993 -1.71918
1.25919 -0.697118 -1.73832
-0.669021 0.629992 -1.59541
-0.696688 0.656846 -1.62276
2.85551 -1.13756 -1.93452
0.727795 -0.526148 -2.02103
0.863461 -0.515058 -2.14512
0.858845 -0.530354 -2.14417
3.06253 -1.17733 -2.20715
1.14539 1.77701 2.91198
0.988932 1.77306 2.67162
3.41595 -1.40673 2.54081
2.17382 -1.19517 2.42316
2.93751 -1.40959 2.35596
0.989336 1.78756 2.34871
3.26098 -1.49587 2.32089
3.16765 -1.51123 2.28307
2.83781 -1.38333 2.31914
2.83014 -1.37674 2.26676
1.8112 -0.26781 2.26118
2.88637 -1.41207 2.18832
2.75408 -1.32663 2.09825
3.30355 -1.53308 2.04627
2.78628 -1.38354 1.96386
3.46198 -1.53642 1.92548
3.19295 -1.4651 1.89093
1.33131 -0.126931 1.82273
0.58489 0.121588 1.78305
-0.370769 0.404014 1.75116
-1.02478 0.592176 1.78927
0.228764 0.243931 1.70901
-0.913763 0.56161 1.7657
1.19035 -0.0815663 1.64123
-0.377855 0.401493 1.7288
0.338231 0.19489 1.68063
1.50834 -0.127498 1.5986
1.49754 -0.122136 1.59725
1.33487 -0.0844033 1.57901
2.39642 -1.20829 1.49154
2.19208 -1.14848 1.45246
2.97593 -1.40504 1.40633
2.80246 -1.32067 1.2967
2.43148 -1.16081 1.15763
-1.03066 0.331163 1.31891
2.34628 -1.14419 1.11355
-1.43284 0.259277 1.23755
2.5267 -1.20869 1.02341
-1.16449 0.374339 1.20555
0.0353949 -0.004368 1.12842
-0.40597 0.4688 1.12565
0.699006 -0.389547 1.03867
3.12318 -1.37186 0.906074
2.22946 -1.13183 0.919754
0.55844 -0.224842 0.812319
2.63457 -1.22838 0.656122
-1.41731 0.264799 0.739504
-0.511467 0.189894 0.730804
-1.06188 0.381862 0.671886
-0.972744 0.366757 0.634202
0.97016 -0.38997 0.456009
2.6486 -1.20861 0.350903
0.572328 -0.233697 0.0808355
-0.65007 0.266189 0.11567
1.7944 -0.9189 -0.0824696
-0.196829 0.291707 0.0327838
2.17012 -1.02696 -0.354148
2.35392 -1.07797 -0.516467
1.85835 -0.927752 -0.551489
-1.60272 0.441568 -0.445525
-2.58691 0.448981 -0.681244
-2.53731 0.423564 -0.682995
-2.54467 0.432972 -0.709399
2.09474 -0.986946 -0.777767
-1.05002 0.654343 -0.67639
-1.16729 0.735753 -0.764035
0.808368 0.0430253 -0.883677
-1.01834 0.712294 -0.862531
-2.03385 0.281285 -1.12089
0.0464101 0.372228 -0.880959
2.69018 -1.13548 -1.14517
1.54072 -0.788928 -1.17009
1.79193 -0.848951 -1.2938
-2.18806 0.376326 -1.38708
-2.53403 0.463603 -1.37673
2.24721 -1.01142 -1.32307
-2.41311 0.458336 -1.41786
2.09398 -0.947675 -1.40252
-2.37048 0.421709 -1.49404
-2.46865 0.465198 -1.53678
0.819242 -0.529204 -1.53142
3.09433 -1.21971 -1.50237
-1.54095 0.851011 -1.35153
0.801805 -0.521333 -1.82667
-0.355237 0.556791 -1.64905
1.20314 -0.639284 -2.02573
1.14196 -0.598425 -2.0668
0.498352 -0.405868 -2.101
3.6266 -1.51103 2.74135
0.879909 1.78836 2.54145
3.74293 -1.51814 2.52927
2.39145 -1.26711 2.44639
3.45505 -1.56777 2.3655
2.85181 -1.41618 2.34779
3.10261 -1.47036 2.31564
2.31481 -1.24509 2.33205
2.22795 -1.20315 2.2237
2.79683 -1.33951 2.09971
0.701366 0.0694665 1.87284
2.7061 -1.32203 1.6456
0.282577 0.228078 1.681
-0.0980894 0.313139 1.68222
3.02582 -1.39112 1.30971
2.07099 -1.08851 1.28632
2.32571 -1.17886 1.234
1.4244 -0.402849 1.1431
2.26966 -1.15047 0.911041
2.68748 -1.21291 0.705012
0.510747 -0.254117 0.68395
0.578625 -0.253917 0.663923
0.736617 -0.32838 0.430864
-1.00099 0.374745 0.409817
-0.0642729 0.132213 0.260562
-1.68225 0.42912 0.0627907
2.28822 -1.07983 -0.19695
2.9036 -1.25848 -0.257869
2.49104 -1.12008 -0.255135
1.5315 -0.830881 -0.386516
-2.42943 0.342317 -0.408822
2.9799 -1.26895 -0.815256
2.92024 -1.20772 -0.898729
-0.548164 0.305155 -0.770586
-1.30355 0.768248 -0.871472
1.87515 -0.90237 -1.09978
0.777287 0.0717675 -0.879273
-0.0371437 0.42189 -0.935987
-2.32079 0.383391 -1.50226
1.47488 -0.729587 -1.50581
-2.35186 0.420595 -1.63261
-0.606394 0.636649 -1.63054
-0.229924 0.498363 -1.65032
1.77468 -0.802963 -2.03884
3.02826 -1.16509 -2.17777
3.51951 -1.57422 2.37883
2.89644 -1.42126 2.11507
2.72908 -1.32942 1.51681
-0.525442 0.362458 1.16841
-0.420169 0.420656 1.14057
-0.149716 0.209761 1.09571
-0.383636 0.470956 1.10299
-1.58131 0.356018 1.03889
0.102008 0.0339349 0.954364
2.62993 -1.20769 0.508347
0.602057 -0.313431 0.297836
-1.1558 0.451808 0.346397
-1.697 0.460668 -0.0151041
-0.806393 0.348099 -0.174452
-2.43897 0.358224 -0.445537
1.80147 -0.955351 -0.488192
-0.288406 0.221143 -0.497405
-1.85968 0.872844 -0.673043
0.0948751 0.353906 -0.830558
0.00687585 0.413966 -0.901054
-0.0494757 0.430711 -0.905254
-1.26971 0.713805 -0.962435
1.15953 -0.669837 -1.22679
1.61693 -0.800695 -1.40751
-2.34529 0.387962 -1.45789
-0.484537 0.495639 -1.20974
1.93201 -0.894248 -1.43774
-2.49978 0.487077 -1.60254
1.49726 -0.761149 -1.71219
1.52466 -0.713919 -2.10303
0.222523 0.221772 1.70251
-1.21024 0.505147 1.68552
-1.15353 0.361326 1.42752
1.455 -0.426715 1.17509
-0.835214 0.272741 1.09987
0.974164 -0.450241 1.02088
1.51478 -0.295812 0.453432
0.542696 -0.284578 0.203765
-1.76487 0.724912 -0.0866683
1.52222 -0.842533 -0.296797
1.61953 -0.863376 -0.744427
-1.13661 0.72842 -0.975015
-1.27744 0.742344 -1.02634
-1.49852 0.617602 -1.09803
0.238268 0.273956 -1.13946
-2.35132 0.438302 -1.65012
0.871389 -0.563593 -1.68577
0.419266 0.311385 -1.52469
0.146445 0.523288 -1.61588
2.79402 -1.3598 2.42856
2.48332 -1.28202 2.00638
1.58152 -0.435987 1.11406
0.19455 -0.0219874 1.10989
-0.533838 0.38729 1.11608
-0.485653 0.466486 1.08981
-1.14533 0.40305 0.880103
0.419279 -0.241096 0.350171
-1.3795 0.435976 -3.26609e-05
-1.48324 0.360269 -0.0734872
-0.523809 0.292947 -0.574225
-0.825612 0.623518 -0.859602
0.417499 0.101858 -1.18363
3.00781 -1.199 -1.48714
0.889748 -0.600276 -1.55376
0.817499 -0.552512 -1.702
3.78029 -1.45268 2.72392
1.07397 1.83208 2.16866
-0.205116 0.182441 1.06837
2.64405 -1.23907 0.667328
2.44237 -1.17104 0.396796
-0.0121267 0.27809 -0.00382091
-1.08797 0.640793 -0.702879
0.338711 0.184186 -0.941154
3.78171 -1.54127 2.47361
1.39409 -0.318281 0.521617
-0.487622 0.213922 0.298737
-1.07412 0.456584 0.115401
-0.123685 0.380842 -0.801799
1.50733 -0.176353 1.52944
1.49173 -0.3431 1.45752
1.73284 -0.918125 -0.452763
-0.27238 0.268073 -0.398338
3.61045 -1.5287 2.43258
-0.255084 0.362593 1.948
-1.0575 0.622089 -0.229864
-0.40078 0.263988 0.911744
-0.782671 0.436718 0.33923
2.47487 -1.11821 -0.363276
-0.853722 0.562492 -0.447536
1.21394 -0.639067 -2.02794
0.202439 0.508572 -1.48171
0.812908 -0.510496 -1.82807
0.744138 -0.524865 -1.6524
2.47914 -1.0511 -1.65089
-0.311359 0.448776 -1.19989
-2.78737 0.524095 -1.41638
2.4612 -1.04838 -1.47098
0.0340819 0.396697 -0.913893
-2.11714 0.316391 -1.11265
-2.39407 0.386559 -1.1021
2.89333 -1.20859 -1.15597
-1.1158 0.66735 -0.678838
-0.750426 0.386596 -0.616723
-2.57412 0.448791 -0.672002
2.02571 -0.951532 -0.787988
2.37325 -1.06624 -0.763792
1.82608 -0.914386 -0.703356
-0.772873 0.414482 -0.450808
2.53742 -1.15965 -0.207608
-0.707377 0.255044 0.0987001
2.7606 -1.26892 0.407381
-1.78123 0.408754 0.846695
0.70495 -0.21686 0.773248
-0.176023 0.227073 1.10965
0.0264366 0.0276598 1.10071
-0.543724 0.371066 1.14613
-0.680803 0.348556 1.18841
1.40738 -0.470609 1.02274
1.50869 -0.4636 1.07234
2.78859 -1.28316 0.931192
-1.55749 0.263536 1.28402
1.97274 -1.08498 1.23089
2.75016 -1.30797 1.31506
0.286461 0.189775 1.7181
0.27311 0.197357 1.72409
1.55313 -0.164104 1.61127
-0.64888 0.500977 1.85999
-0.674621 0.508394 1.89788
-0.605085 0.47142 1.88661
0.109548 0.255308 1.80649
1.44408 -0.170599 1.77107
2.62848 -1.29973 2.14492
2.23525 -1.19009 2.22176
2.21429 -1.19912 2.25529
2.33252 -1.2472 2.30918
0.15203 2.05051 2.51581
0.58962 1.89807 2.50545
0.985244 1.77137 2.55186
1.20692 -0.636177 -2.03601
1.15591 -0.590642 -2.00446
1.65229 -0.775627 -1.89451
1.74248 -0.82088 -1.89915
-2.41125 0.43617 -1.47265
-2.63277 0.493228 -1.44657
-2.2527 0.358842 -1.12087
0.034516 0.361203 -0.896806
-2.86438 0.518552 -1.07578
-0.561959 0.344267 -0.750093
2.8561 -1.21745 -0.852562
2.8557 -1.22493 -0.823859
1.09444 -0.669878 -0.750957
-0.615932 0.347151 -0.50485
1.46657 -0.805079 -0.705644
-2.54509 0.369149 -0.418993
1.33748 -0.768217 -0.409748
1.11229 -0.728895 -0.37527
2.16911 -1.02601 -0.255347
1.5271 -0.851549 -0.142419
-1.68024 0.426243 0.0735867
2.44644 -1.10998 -0.132217
-1.68686 0.454328 0.342478
0.620897 -0.319284 0.389806
0.513904 -0.242294 0.480192
-1.59638 0.335766 0.63449
0.574025 -0.248146 0.674367
0.519687 -0.265728 0.696916
0.649472 -0.204671 0.713951
-1.52917 0.31951 0.948166
0.652863 -0.274485 0.861063
3.05128 -1.37024 0.744648
-1.02381 0.338898 1.15093
2.28283 -1.15278 0.909034
2.70227 -1.24742 0.895126
0.409644 -0.277005 1.10895
2.92278 -1.38075 1.20827
1.14724 -0.0270649 1.55583
2.18077 -1.15644 1.45322
0.883589 0.0450406 1.67099
-0.106366 0.301589 1.74378
1.5045 -0.148789 1.62083
0.0375549 0.287422 1.83072
1.33034 -0.119682 1.82517
2.41456 -1.27849 2.44046
2.57868 -1.32472 2.43231
2.40653 -1.01737 -1.70127
-2.66934 0.493892 -1.0503
-1.00424 0.616578 -0.650741
-0.806811 0.395784 -0.444661
-2.35044 0.332022 -0.446207
0.589145 -0.277196 -0.015379
0.629449 -0.299029 0.016727
-1.76892 0.442635 0.209745
2.25178 -1.06679 0.0558043
2.07141 -1.02355 0.249345
0.533208 -0.27685 0.403846
0.824914 -0.355434 0.446673
-0.372139 0.259614 0.603653
2.54386 -1.23654 0.720534
2.7344 -1.32164 1.57244
1.31752 1.29518 2.26699
3.21561 -1.50952 2.3797
3.66156 -1.49635 2.49201
2.73436 -1.22415 2.60968
1.03451 -0.52755 -1.96739
1.12379 -0.595001 -1.71788
1.32493 -0.724668 -1.59284
2.98806 -1.16155 -1.17532
-0.682468 0.318421 -0.328188
0.66335 -0.318261 0.0182162
0.0571656 0.0966939 0.307082
-0.531608 0.332526 1.19084
1.46519 -0.432892 1.24294
-1.14351 0.356027 1.42693
0.423856 0.00936958 1.56232
1.02767 -0.0124062 1.80185
3.37985 -1.43315 2.76083
2.13243 -0.940369 -1.65097
-2.16702 0.310835 -1.12472
1.31716 -0.804202 -0.408553
-1.15805 0.615731 0.0929983
2.49898 -1.20775 0.442459
-1.04212 0.365737 0.836249
-0.520517 0.433142 1.14654
2.05648 -1.07818 0.999399
1.47137 -0.121918 1.62369
-0.803065 0.699154 -0.884929
2.58163 -1.1318 -0.934807
0.29694 -0.156667 -0.149719
-0.494409 0.271027 0.0479819
2.45906 -1.12226 0.0400567
0.614533 -0.339979 0.882173
2.5853 -1.20634 0.757754
3.16377 -1.47072 2.34027
2.76245 -1.41369 2.41787
0.9724 -0.590247 -1.67703
0.527134 -0.352357 0.939184
-0.193082 0.270012 1.0954
-0.271897 0.318274 1.15985
-1.0692 0.323686 1.26673
2.30629 -1.16126 1.43116
3.80601 -1.57216 2.48538
0.0607773 0.266997 -0.869525
-0.277267 0.294173 -0.402748
-0.00554612 0.0365346 1.24409
1.24569 -0.0794815 1.53536
-1.00594 0.663258 -0.780436
0.350035 0.292814 1.93183
-0.412361 0.282113 0.930191
-2.62906 0.471607 -1.08167
-0.313531 0.451531 -1.20715
0.0290652 0.410349 -0.890214
0.145918 0.350292 -0.923326
1.57141 -0.77808 -1.71712
1.46033 -0.759996 -1.56031
-1.67094 0.457008 -0.174878
-1.67369 0.447649 -0.132422
-0.53968 0.294094 -0.35011
1.60498 -0.79235 -1.29304
2.34117 -1.01246 -1.43024
-2.02388 0.538969 0.363865
-0.458713 0.275996 -0.0238668
-0.621652 0.297001 0.05541
1.99366 -0.937395 -0.805667
2.08418 -0.960269 -0.741991
-1.00525 0.356452 0.811149
-0.942946 0.327622 0.918482
0.560473 -0.287862 0.43863
-0.355109 0.451706 1.10883
2.34583 -1.09836 -0.19996
1.83502 -0.945108 -0.00738744
-0.138131 0.222248 1.11295
0.136147 -0.0180736 1.25289
1.4353 -0.433278 1.17263
1.47122 -0.442583 1.13261
0.141768 2.04196 2.5327
1.71457 -0.217253 1.72712
0.3843 1.96127 2.59313
1.80527 -0.253171 2.40136
2.66888 -1.34597 2.34032
-0.932027 0.740717 -1.58122
-0.97583 0.627282 -0.623978
-1.6763 0.437368 0.0446891
-0.167767 0.198192 -0.3752
-1.72961 0.477403 0.215239
1.19811 -0.70276 -1.0447
-0.105662 0.0967297 0.610344
0.503891 -0.255081 0.696002
3.38035 -1.41522 -0.0673069
2.14303 -1.14771 1.51234
0.089519 0.372593 -0.933694
1.50803 -0.732939 -1.70704
1.95138 -0.898932 -1.39881
-0.349115 0.230348 -0.293828
0.565818 -0.26266 0.00585036
0.532394 -0.23327 0.0225474
1.49947 -0.317222 0.238802
-0.00236164 0.0560226 0.841433
-0.560647 0.388807 1.10608
-0.0741272 0.0946098 1.14923
2.09636 -1.05456 0.783159
1.43009 -0.306076 1.32573
2.55939 -1.23926 0.901334
3.33136 -1.47622 1.43196
2.69912 -1.33714 1.96791
2.52155 -1.29168 2.42497
3.77238 -1.53132 2.74284
-1.38745 0.647904 -0.862988
-1.00475 0.652361 -0.643639
-0.0683359 0.368377 -0.670363
0.692243 -0.0558303 -1.06656
1.552 -0.450698 1.09429
2.60929 -1.29676 1.7445
3.53745 -1.45721 2.65791
-1.12322 0.696988 -1.1254
-1.63448 0.436929 -0.389658
-0.502995 0.257741 0.0101952
-0.496581 0.249772 0.136523
0.0455127 0.013452 1.11888
-0.543123 0.459374 1.72921
0.629142 1.87279 2.58804
2.96446 -1.40042 1.98535
3.39734 -1.41728 2.60002
-1.12403 0.708279 -1.03592
1.39795 -0.770882 -1.5767
-0.401729 0.205607 0.618305
1.53479 -0.166964 0.358752
1.7795 -0.299626 1.51486
0.383583 0.130554 1.61667
2.14474 -1.05163 1.59548
-1.63572 0.560918 -0.700125
-0.887247 0.291465 1.22
-1.04755 0.325357 1.30643
1.49602 -0.393904 1.23574
3.63507 -1.5504 2.4734
-0.421647 0.279135 -0.408356
0.806187 -0.383801 0.730721
-1.12144 0.231018 0.522736
0.768637 -0.315907 0.0819015
0.938031 -0.303911 0.255009
-0.983535 0.685155 -0.868911
-0.859351 0.38392 -0.312986
0.14523 0.320316 -0.922509
-0.797088 0.378781 -0.251047
-0.821675 0.362883 -0.193358
0.890243 -0.527299 -1.8492
-1.71133 0.395686 0.798543
-1.03413 0.426751 0.381801
-1.07318 0.343126 1.17772
0.0570967 0.0101326 1.23359
2.66071 -1.12324 -1.13861
1.40272 -0.331362 1.3366
1.55333 -0.144953 1.63587
3.24055 -1.48641 1.73291
-1.0477 0.692536 -0.828193
0.266486 0.344637 -0.969806
-1.6973 0.405814 0.331335
-0.574408 0.318444 -0.356772
1.79293 -0.82467 -2.02418
-0.01778 0.10361 0.352943
0.130469 0.0452906 0.340968
-0.0226443 0.084287 0.559063
0.522146 -0.217963 0.0640384
0.232842 -0.0302172 0.813493
0.182954 -0.021929 1.0662
2.82606 -1.20188 -0.835075
2.16609 -1.08349 0.431262
2.67249 -1.29812 1.54574
-1.13951 0.724166 -0.825402
-1.5531 0.393017 -0.340308
-0.744502 0.369371 -0.502912
-0.0244725 0.32057 -0.740501
-0.711824 0.316492 0.307374
-0.449383 0.45215 0.917843
-0.433468 0.460956 1.14564
0.0679659 0.0351784 0.589571
2.37179 -1.01233 -1.39545
0.0140062 0.0567804 1.05185
-0.00464019 0.0658709 1.12554
0.589461 -0.209766 0.670841
0.99349 1.73583 2.68988
2.62648 -1.24218 0.893225
-1.89958 0.429658 0.660451
-0.53976 0.299047 0.0173104
-0.517788 0.291894 0.0696556
-0.986624 0.332627 0.999211
0.0437841 0.0784968 0.581711
1.84718 -0.921344 -1.1006
0.165684 0.0310087 0.595004
1.34366 -0.308733 1.38021
-0.129751 0.461339 -0.858476
-1.61764 0.356938 0.441372
-1.51515 0.367049 0.535133
-1.57794 0.275536 1.18404
-1.05136 0.33213 1.28325
-0.334624 0.407555 1.73175
1.43173 -0.13434 1.64561
3.61436 -1.49889 2.69198
-1.10632 0.687476 -0.785649
0.786158 -0.522878 -1.65599
-1.01922 0.410489 0.378938
-1.14455 0.38602 1.40813
1.50266 -0.374596 1.33688
-1.69952 0.403999 0.774303
-0.719551 0.339768 -0.300656
-0.308027 0.200723 -0.276685
0.855842 -0.553115 -1.7381
0.0287468 0.0429741 0.846249
0.545214 -0.275862 0.654685
0.592784 1.88399 2.68646
0.488086 0.146537 1.82102
3.23574 -1.48033 1.73423
-1.67095 0.395871 0.771981
-0.810442 0.377895 -0.246897
-0.684679 0.326292 -0.330235
-1.17714 0.404768 0.660511
-0.961013 0.346291 0.931973
-0.900149 0.335434 0.877728
-1.06119 0.335511 1.15602
-0.981425 0.328883 1.05772
-1.08302 0.375703 1.18811
0.0357209 0.105146 0.338984
0.117344 0.0513894 0.462742
0.120288 0.00718114 0.869988
0.211983 -0.00539353 0.814519
0.174844 -0.0204368 1.102
0.109212 0.241528 1.83945
0.463021 0.0190888 1.57423
0.549479 0.141079 1.82556
2.20513 -1.13592 0.799522
2.42334 -1.18092 1.01543
3.24998 -1.46589 1.71496
-2.36783 0.424102 -1.56793
-0.996959 0.328816 1.18215
-0.729381 0.532712 1.9243
1.14428 -0.625432 -1.71591
0.146968 0.0464264 0.398518
-0.00288247 0.0315843 1.09634
1.73858 -0.866417 -1.15237
1.48572 -0.209983 0.33725
2.11686 -1.03412 -0.205721
1.4153 -0.276386 1.46868
3.00797 -1.29032 0.283694
-0.352401 0.274331 -0.608205
0.709174 -0.0633968 -0.696435
2.64183 -1.13239 -1.04809
-0.714483 0.315134 0.30361
-0.541871 0.272994 0.270589
3.7213 -1.48367 2.65321
-1.9154 0.746117 -0.677212
-0.834538 0.27416 1.26582
0.115049 0.355922 -0.966034
0.436127 -0.264734 0.676157
-1.30929 0.401007 0.181864
-0.756264 0.150759 1.05836
0.225566 0.095442 -0.234231
-0.854161 0.388353 -0.301914
-0.790498 0.370158 -0.224546
0.151185 2.03949 2.52192
-0.322123 0.147266 0.513952
0.0996531 0.237314 1.81129
0.841057 -0.549752 -1.82882
1.23844 -0.716954 -1.08405
1.36671 -0.120201 1.68866
1.58844 -0.454428 1.03903
2.21305 -1.17583 2.33809
-0.76111 0.343851 -0.222487
-1.01113 0.35543 0.761707
-0.958179 0.301824 1.28991
-0.908705 0.320444 1.18622
-0.266506 0.259062 -0.57672
0.0305394 0.0215762 1.29181
0.883995 -0.551127 -1.7252
1.54076 -0.832678 -0.359705
1.5432 -0.847105 -0.297431
2.1478 -1.10653 0.906939
-2.28536 0.396128 -1.51641
-1.07649 0.339067 1.14237
-0.166175 0.190667 -0.36099
0.00920417 0.0702318 0.787759
0.021802 0.0265449 1.0717
0.185649 -0.00181163 0.511695
0.225487 -0.0241088 1.05388
0.368922 -0.23112 0.418545
0.391933 -0.283173 1.07425
2.53867 -1.25096 2.06317
2.87609 -1.37462 1.89937
-0.85796 0.391568 -0.134649
0.806512 -0.524763 -1.76368
1.76467 -0.857599 -1.18181
1.4089 -0.307097 1.3943
2.60493 -1.22856 0.711075
0.502883 -0.273434 0.742162
2.9773 -1.29217 0.0768389
2.62088 -1.291 1.5053
-0.696788 0.351878 -0.366041
0.0677484 0.35335 -0.843013
0.523138 -0.270281 0.621871
-1.51333 0.61341 -0.701122
-0.788394 0.284289 1.08644
-0.524282 0.365717 0.427337
0.431726 -0.237296 0.407235
1.18573 -0.379224 0.598105
-1.74914 0.395482 0.481915
-1.7431 0.389065 0.607155
-1.1811 0.407851 0.916818
-1.05792 0.336805 1.07315
0.570581 1.89545 2.71197
-0.103854 0.104851 1.28212
0.284275 -0.159735 0.347705
1.22357 -0.659344 -1.78671
1.30422 -0.756007 -0.671374
1.51637 -0.832962 -0.385116
1.95174 -1.00827 0.621682
1.96875 -0.929908 -1.05481
2.05 -1.02863 0.386943
2.09309 -0.919445 -1.72573
-2.5473 0.436419 -1.27055
-2.51339 0.419953 -1.10755
-2.30889 0.396124 -1.48328
-0.751314 0.323577 1.11338
0.0109209 0.115352 0.230291
1.23668 -0.508636 0.925365
1.33029 -0.708604 -1.41048
1.51118 -0.821021 -0.361877
1.95513 -1.08411 1.27256
2.12094 -1.11844 1.28899
2.12044 -1.12413 1.28443
2.06397 -0.930261 -1.37436
2.26242 -1.21478 2.44217
2.36608 -1.1233 0.0814141
2.51916 -1.28872 2.28308
2.78892 -1.35342 1.89679
-2.74281 0.520006 -1.46008
-2.53363 0.433793 -1.04788
-0.996119 0.338372 0.978799
0.123902 0.0480181 0.393886
0.474329 0.0077539 1.60018
0.500131 -0.244976 0.15143
0.503088 -0.222892 0.107725
1.22069 -0.745972 -0.377031
1.23979 -0.709859 -1.15111
1.92918 -0.99685 0.477738
1.9743 -1.05202 1.20684
2.37006 -1.06783 -0.584905
2.5285 -1.2872 2.27592
2.52044 -1.2792 2.22296
2.54868 -1.29617 2.22768
2.78067 -1.33985 1.75092
2.86358 -1.38947 1.93
-0.886134 0.284804 1.17589
0.825844 -0.519506 -1.77425
1.36242 -0.286675 1.40464
1.88766 -0.29408 2.44364
1.70716 -0.851438 -1.22203
2.03319 -1.04869 0.101163
2.16723 -1.02702 -0.385318
2.6333 -1.2848 1.51656
0.167681 -0.00949521 1.04914
2.3122 -1.04465 -1.16289
-0.00253628 0.0864249 0.782665
2.15746 -1.1263 1.34658
3.32845 -1.4221 2.64568
2.61164 -1.22325 0.726198
-0.12405 0.170612 0.076941
1.09641 1.74057 2.79173
0.701858 -0.0691189 -0.390265
1.45652 -0.457567 1.2568
1.53871 -0.414806 1.21745
0.254065 1.98884 2.5479
-0.51248 0.356738 1.13701
0.98723 1.78369 2.53421
-1.1521 0.702466 -0.770711
1.04004 1.76832 2.53827
-0.305489 0.366551 0.960202
0.0779151 0.0183751 1.09067
0.17466 -0.0411454 1.24298
-0.305389 0.229577 -0.293064
0.119249 0.0676489 0.345666
-0.106248 0.408227 -0.904144
-0.00847706 0.402385 -0.883682
0.804494 -0.576436 -1.56021
1.28709 -0.760242 -0.634138
1.30507 -0.732596 -0.64664
1.91123 -1.00333 0.672919
1.42366 -0.743295 -1.3048
2.05553 -1.06997 0.303966
1.6756 -0.815116 -1.83009
1.69316 -0.789928 -1.83715
3.02494 -1.35573 1.20308
2.4689 -1.02911 -1.62106
4.11848 -1.76572 2.7385
0.642605 1.86313 2.66721
-2.32009 0.400438 -1.48595
-1.56853 0.37459 0.037512
-1.08566 0.399863 0.663486
-1.09088 0.39173 0.539185
-0.807796 0.386774 -0.544743
-0.0193527 0.0413783 1.06232
0.459792 0.158012 1.78369
-0.462876 0.321135 -0.701122
0.0433645 0.0674637 0.532354
0.54011 -0.211911 0.805109
0.378395 -0.216372 0.360727
0.681909 -0.368727 1.04285
1.06114 -0.672263 -0.725251
1.61002 -0.204066 0.360563
0.858983 -0.551282 -1.72097
0.855041 -0.52154 -1.83763
1.52469 -0.845013 -0.377736
1.3179 -0.689258 -1.51599
2.40223 -1.18329 1.16854
2.77886 -1.37288 2.25655
2.42328 -1.17448 1.20316
1.8398 -0.933655 -0.547443
2.82518 -1.33984 2.1163
2.83514 -1.38043 2.10122
2.68862 -1.30862 1.66927
2.8007 -1.34749 1.91818
2.87373 -1.38498 1.95413
2.45706 -1.16962 0.306917
-1.72166 0.657367 -0.468557
-0.923484 0.34994 0.656357
0.0416857 -0.00510279 1.11636
0.143161 -0.0151311 1.11067
0.242851 -0.0401737 1.26408
0.199938 0.00727496 0.601606
0.361798 -0.230089 0.387503
1.0877 -0.483221 0.834831
1.23833 -0.536694 0.919611
0.807313 -0.533661 -1.66724
0.848355 -0.532877 -1.62272
2.23902 -1.21884 2.33254
2.25521 -1.21596 2.33061
1.31217 -0.768438 -0.442107
2.52177 -1.27966 2.2366
1.74313 -0.892871 -0.158938
2.1493 -1.12594 0.959379
1.3364 -0.70501 -1.41979
1.24252 -0.674477 -1.76389
2.20192 -1.11276 0.911692
1.85624 -0.92271 -0.552215
1.83824 -0.857865 -1.62912
1.89872 -0.862087 -1.54526
2.50564 -1.13798 -0.129384
2.37612 -1.08216 -0.506182
3.26095 -1.4817 1.92122
3.0912 -1.36112 0.953381
3.09093 -1.35418 0.903573
2.95591 -1.29093 0.318347
2.98766 -1.22747 -0.919324
-1.13537 0.391277 0.963148
-0.00337303 0.0419466 1.02122
-0.0185935 0.0455079 0.942131
0.0341138 0.0467011 0.902155
-0.384724 0.626635 -1.6244
1.47184 -0.800158 -0.807125
2.72777 -1.31628 1.73613
2.77552 -1.34815 1.78263
2.571 -1.22682 0.98079
2.64357 -1.24226 0.69825
