-0.00154105 0.177615 0.255692
0.90576 -0.0572852 1.6743
-0.71324 -0.124985 0.437132
-0.716941 0.166815 1.03271
-2.11614 0.393115 1.73962
-0.85274 -0.0251846 -0.210448
-0.644042 -0.095685 -0.121858
-0.521941 -0.123384 0.302512
-1.53074 0.200115 2.79977
0.18976 0.289115 -0.507518
0.893659 -0.0628852 1.48185
0.98226 -0.092185 1.63144
1.38826 -0.0939846 1.29856
1.44916 -0.0220851 1.28854
1.39066 -0.0242853 1.41693
1.98996 -0.396684 0.941448
2.56356 -0.775085 0.882613
-2.14954 0.405315 2.22182
-1.13884 0.0843154 1.95075
-0.476842 0.685014 2.01928
1.03216 -0.108385 1.44301
1.17886 -0.0972853 1.63119
1.09066 0.0838156 1.92753
2.54066 -0.775385 0.754155
2.14956 -0.458985 1.62906
-1.82664 0.289315 0.388572
-2.05574 0.356515 0.781648
-0.938141 0.011015 0.802189
-0.542142 0.724314 1.98253
-0.158541 0.694814 3.29105
1.91726 -0.376884 0.947959
-0.554942 0.509515 0.786341
0.0946598 -0.025485 0.918675
2.09786 -0.416585 1.30862
-1.79324 0.293116 2.44314
0.18256 -0.0364847 1.11582
0.676859 -0.014285 -0.458018
-1.70974 0.249815 -0.555888
-0.695941 -0.0701847 -0.588878
-1.53084 0.201116 2.79948
-0.868241 -0.00998492 0.737726
-0.160141 -0.229585 -0.702428
0.21236 0.147115 0.0989218
1.39076 0.00981527 1.4473
1.50046 -0.0130844 1.27035
1.90626 -0.0716848 2.302
-1.67484 0.247115 0.0179519
-1.27354 0.112616 0.577842
-1.01094 0.0255156 0.868303
-1.14794 0.0855151 1.93091
-0.14164 0.0520154 1.62073
1.24616 -0.160584 0.153872
1.38016 -0.207885 -0.0102181
-2.04314 0.349815 0.7403
-1.69794 0.251115 0.0555819
-1.70124 0.251015 1.36933
-0.959341 0.00931554 0.0826519
0.17606 -0.0280847 0.545892
1.01556 -0.102885 1.16332
1.03276 -0.122684 1.50988
2.10836 -0.220284 -0.476418
2.04726 -0.412385 0.771776
3.41246 -1.35808 -1.03578
-2.25534 0.434015 -0.193538
-1.82964 0.284616 0.640332
-1.84604 0.286515 0.704517
-1.80684 0.282615 0.650572
-1.29494 0.111315 0.566322
-1.22834 0.0975152 0.358932
0.16106 -0.0284852 1.15072
1.48646 -0.274785 1.12306
2.03716 -0.407084 0.706643
-2.15324 0.382916 1.01462
-1.82934 0.288816 0.399742
0.00185975 -0.287985 -0.804568
1.39006 -0.261684 1.07564
0.712759 0.197315 1.90968
0.209459 -0.0594844 1.0329
-0.520442 0.529814 1.87146
2.86066 -0.688085 -0.102208
-2.09434 0.398915 1.94834
-1.97324 0.341115 0.0163519
-1.60594 0.209915 2.76059
-1.54204 0.194716 0.350092
-1.46354 0.171616 1.50869
-1.39144 0.143015 -0.0556981
-1.38954 0.142615 -0.0183281
-1.38434 0.141416 -0.0837382
-1.21724 0.104415 1.67464
-1.14714 0.0850154 1.93116
-0.951441 0.00251489 0.106342
0.91416 -0.0683851 0.920229
0.93996 -0.071785 0.932952
0.83176 1.78175 2.97343
1.08816 -0.120885 0.948983
1.43456 -0.0215845 1.32563
1.52926 0.0519152 2.01177
1.86326 -0.179985 -0.934368
2.03276 -0.409884 0.925927
2.55166 -0.680085 1.20322
2.73516 -0.641685 -0.234138
-2.19094 0.414915 2.25086
-1.94674 0.338215 1.6408
-1.60614 0.216715 0.718724
-1.29614 0.131315 0.857265
-1.01154 0.0214148 0.922833
-1.00194 0.0231152 -0.284718
-0.95364 0.00911527 0.0757418
-0.94714 -0.00328442 -0.789378
-0.571641 0.711315 2.11835
-0.561042 0.705915 2.16888
-0.694941 -0.0671844 -0.535368
-0.506541 -0.131285 0.283512
-0.238341 -0.205385 0.0731318
-0.129841 0.0515156 1.60036
0.289761 -0.0804844 0.854819
0.351059 -0.0996847 0.740164
0.81826 -0.00408453 0.567452
0.92276 -0.0728845 0.88435
1.05436 0.0709153 -0.448658
1.70956 -0.302185 -0.233888
1.71786 -0.307485 -0.399268
1.72226 -0.297385 -0.210998
2.47246 -0.751785 1.14614
-2.17634 0.398815 1.80367
-0.98424 0.0213156 0.129022
-0.983341 0.0127154 0.0807718
-0.831341 -0.0348844 -0.884558
0.57126 -0.171585 1.27456
0.929859 -0.0752849 1.35498
2.20116 -0.481785 1.51362
2.20176 -0.476785 1.63757
-1.74564 0.267116 1.16184
-1.59454 0.192915 0.681354
-1.24224 0.118916 0.563522
-0.743741 -0.0494851 0.488912
-0.27834 0.0945149 1.39713
0.112761 0.490515 2.03826
0.816059 -0.0386848 1.25241
1.24026 -0.161785 0.158522
1.98376 -0.396385 0.821795
2.01946 -0.389484 0.684922
-2.12354 0.394116 0.110062
-1.97014 0.340816 -0.0509182
-1.94564 0.335715 -0.0886582
-1.38134 0.140215 -0.0862882
-0.718041 -0.0749845 -0.528148
-0.521441 0.524115 0.807061
-0.155241 -0.232184 -0.638448
-0.0655403 0.549115 2.12776
0.17486 -0.045185 0.645952
0.23596 -0.0569848 0.589382
0.834659 -0.0527849 1.41207
0.864059 -0.0553846 0.991863
1.18456 -0.159385 0.226452
2.01156 -0.219085 -0.271068
2.19046 -0.400784 0.256662
-1.73984 0.276216 1.08196
-1.57234 0.203615 0.245122
-1.03254 0.0291148 -0.246858
-0.632842 0.758675 2.96786
-0.0796395 0.573315 2.92804
0.29306 -0.0144844 0.619712
0.94906 -0.0824852 1.04136
1.44316 -0.205484 -0.289858
1.90436 -0.369785 0.98782
-0.666741 0.776165 2.95948
0.786659 -0.0131845 0.220652
1.18746 -0.111384 1.56246
0.832359 0.0167151 0.239402
1.39406 -0.172385 0.943528
1.19936 1.98559 3.07153
2.00736 -0.370684 -0.303058
2.49586 -0.714785 1.24337
1.80176 -0.332285 -0.176718
2.70096 -0.613385 -0.348688
-1.88014 0.307716 1.95195
-1.72444 0.257815 1.06922
-1.98754 0.345915 0.0482919
-1.22414 0.105415 1.73584
-1.21624 0.104216 1.72398
-1.17344 0.0869151 1.34571
-1.10104 0.0653153 0.825101
-0.99934 0.0247155 0.904263
-1.01084 0.0304156 0.853821
-0.852841 -0.0168848 -0.210928
-0.751641 -0.0632848 -0.685278
-0.58594 -0.104185 -0.843928
-0.24984 -0.202285 -0.704018
0.917459 0.235915 2.2204
1.23726 -0.163285 0.200332
0.910459 0.105516 -0.891038
1.49916 -0.314885 -0.0273381
2.03546 -0.180385 -0.239008
2.76096 -0.631185 0.133612
-2.12274 0.407815 1.92166
-1.61224 0.213315 1.64293
-1.84244 0.290415 0.417592
-1.68634 0.240015 -0.503838
-1.67984 0.234315 -0.520588
-0.986641 0.0184155 0.110052
-1.09674 0.0515156 -0.635628
-0.518441 -0.129684 0.294672
0.26506 -0.0747852 0.929133
0.40756 0.0181151 -0.268978
0.83066 -0.0487852 0.928933
1.42856 -0.192685 1.67605
1.45216 -0.00598521 1.33037
1.67076 1.82494 2.62394
1.71836 -0.304685 -0.280588
-1.74154 0.260615 1.12398
-1.73994 0.264015 1.07922
-1.57184 0.206315 0.735098
-1.15784 0.0914155 1.32223
-1.30164 0.118815 0.371352
-0.95924 0.00951486 0.0769018
-1.06844 0.0570155 -0.665188
-1.08764 0.0499154 -0.721348
-0.99964 0.0129157 -0.489538
-0.34404 -0.180685 -0.868898
0.85886 -0.0543851 0.987892
1.04096 -0.115385 1.45502
0.985359 -0.102485 1.22096
0.813759 -0.00248524 0.576102
1.03976 -0.112784 0.926874
0.885759 0.149915 -0.487298
1.98226 -0.394285 0.89013
2.14186 -0.446785 0.948937
2.15906 -0.451984 0.933394
1.88466 -0.365285 0.00599186
1.86476 -0.187185 -0.856988
2.56216 -0.743185 0.526022
-2.11534 0.378915 0.893507
-2.02844 0.343616 0.79237
-1.75054 0.267215 1.16268
-1.81394 0.284115 0.71231
-1.13064 0.058815 -0.667808
0.952659 -0.0770845 1.01355
0.859659 -0.0313844 0.655412
1.03546 -0.109585 0.718151
0.534559 0.0581151 -0.886768
1.48516 0.0458155 1.35157
2.17826 -0.467885 1.66513
2.05416 -0.423085 1.08324
2.45596 1.5821 2.71049
2.76006 -0.579885 -0.521348
-2.17804 0.403115 1.73329
-1.80814 0.304216 2.43074
-2.11424 0.391815 0.260362
-1.70084 0.240615 -0.532718
0.58226 -0.170285 1.29422
1.10336 -0.128185 0.952902
1.91156 -0.376785 0.936418
1.87156 -0.297584 0.319682
0.0928592 0.193316 -0.418938
0.791059 -0.0360851 1.45594
2.81016 -0.689585 0.176202
-0.614741 0.460715 0.932046
1.29986 -0.158785 0.758504
-0.604741 0.751995 2.71772
1.33026 -0.156585 1.32926
0.87886 0.0282155 -0.0502882
-1.59084 0.214115 1.64206
-1.21404 0.105815 1.72685
-2.15184 0.401415 -0.0145981
-1.18164 0.0892153 1.30379
-1.89524 0.320115 -0.366728
-1.03444 0.0354148 0.836195
-1.29654 0.112015 0.391922
-0.897541 -0.0124845 0.665652
0.91206 1.82508 2.756
-1.00724 0.0207148 0.0687019
-0.972139 0.0192156 0.0994119
-1.01504 0.0177155 -0.470178
1.43016 -0.190585 1.68726
1.47816 -0.0120849 1.28919
-1.34744 0.133715 0.83951
0.108059 0.499915 2.1896
-1.57144 0.210015 -0.168468
-1.21944 0.100815 0.195122
-0.608941 -0.104685 0.367712
0.17786 -0.0297851 1.14199
1.34896 0.111315 2.18938
1.06906 -0.117285 0.960313
-2.19644 0.419315 2.49605
-1.29164 0.251215 3.19085
-1.93854 0.349415 1.93195
-1.96134 0.346315 1.7546
-0.472741 0.680814 2.24489
-1.14894 0.0950156 1.32242
-1.22324 0.113715 0.604262
-0.98484 0.0253153 0.665052
-0.95574 0.00701528 0.320662
1.07466 1.89898 2.95137
1.04346 1.89351 2.88491
0.38826 -0.128485 0.896023
-0.706841 -0.0722847 -0.644268
0.840759 -0.0438852 0.762326
1.51296 0.0140153 1.30511
2.07236 -0.441185 1.16948
2.55296 -0.705585 1.13789
-2.18664 0.409515 2.26111
-2.19774 0.406615 1.47979
-1.64704 0.227815 1.945
-1.33664 0.128615 0.0513719
0.761759 0.280015 2.21844
1.15476 0.168716 2.14169
0.25786 -0.072485 0.793483
1.03236 -0.107785 1.4488
2.02426 -0.116384 2.22135
2.08906 -0.426185 0.907447
2.12476 -0.250185 -0.845238
-1.58854 0.217216 2.83841
-1.97124 0.355415 1.87482
-1.82084 0.285515 0.377882
0.867359 -0.0581846 1.32558
0.80806 -0.0345849 0.902518
1.78816 -0.0356845 2.14858
0.98126 -0.092185 1.03821
1.82386 -0.183585 -0.872178
-2.14964 0.401415 1.84268
1.73136 -0.0210847 2.09143
1.92166 -0.375685 0.663762
1.32086 -0.172785 -0.213978
0.22686 -0.0755844 0.645222
1.63266 0.0241156 2.11287
-2.21904 0.381115 1.5854
-1.88244 0.295015 2.13118
-1.84374 0.308315 2.11602
-2.25994 0.416415 1.42437
-1.67634 0.231216 1.82338
-1.65584 0.240416 1.64694
-1.15324 0.0758153 1.74117
-1.76714 0.277616 1.10781
-1.56874 0.219915 1.12754
-2.25434 0.426815 0.571752
-2.25944 0.425315 0.522062
0.12446 0.482815 2.22728
-2.25974 0.428815 0.467302
-1.71794 0.255715 0.826277
-1.82634 0.278515 0.661562
-2.20264 0.415015 0.304642
-1.24234 0.0983153 1.00941
-2.24514 0.432315 0.204122
-1.34904 0.141316 0.840893
-2.19954 0.411716 0.144652
-2.17064 0.410215 0.162352
-2.19504 0.413315 0.0344519
-1.07844 0.0598154 0.848597
-2.10454 0.388415 0.0423219
-2.15724 0.400115 -0.0195581
-0.98814 0.0277148 0.642152
-0.85754 -0.0179843 0.683301
-0.429741 0.533314 0.873364
-1.05324 0.0445157 0.349812
-1.69824 0.235516 -0.166038
-1.28944 0.113815 0.0602018
-1.13454 0.0655156 0.0825719
-1.79184 0.270616 -0.496888
-1.56144 0.218515 -0.340708
-0.319041 -0.186385 0.367732
-1.00224 0.0268155 -0.268118
2.25436 -0.164985 2.02756
-0.89694 -0.00198456 -0.209108
-0.886641 0.00261503 -0.220368
-1.15214 0.0732156 -0.723728
0.927559 0.114615 -0.399998
-1.23884 0.0947152 1.85778
1.11926 1.93698 2.74163
-2.28824 0.438815 0.205942
-0.96814 0.0109149 1.01004
-1.94934 0.348615 0.215312
-2.14024 0.392615 -0.0313282
-1.72834 0.266416 0.0813018
-1.23934 0.0996151 0.0563719
-1.45774 0.158515 -0.183238
-0.938141 0.00881486 0.104592
1.15766 -0.145285 1.50708
-0.70694 -0.0666847 0.0638519
2.28246 -0.188285 2.06149
1.47056 -0.00958438 1.32487
-0.826741 -0.0300846 -0.316708
1.53176 -0.0117845 1.25641
0.713859 0.116915 0.391912
2.54406 -0.702085 1.13187
0.897159 0.112415 -0.419958
1.30986 -0.0249853 -0.884058
-1.73294 0.278015 2.79095
-2.17534 0.389216 1.65135
-0.50404 0.714115 2.61575
0.82436 1.77277 2.97125
0.79186 1.76293 2.92025
-2.15144 0.388915 0.811138
-1.47934 0.185115 1.30059
-2.08414 0.366315 0.804922
-1.31294 0.102515 1.00018
-2.01914 0.354216 0.00682192
1.18496 0.158515 2.19867
0.266159 -0.0447845 1.05932
1.17876 -0.138784 1.46185
0.98426 -0.108785 1.21171
-1.03724 0.015215 -0.483188
-1.28314 0.249715 3.1914
-1.63594 0.224615 2.63149
-2.10334 0.388516 2.16286
-1.85774 0.286915 0.379552
-1.04374 0.0400153 0.871723
-0.38444 -0.167085 -1.03036
0.93716 0.106115 -0.431698
1.52086 -0.103085 -0.857318
-2.11494 0.404815 1.9796
-2.11044 0.401615 1.83732
-1.70764 0.254615 1.87716
1.38296 1.93116 2.78607
-1.82464 0.295015 0.373982
-0.236941 0.0885153 1.4912
0.799459 -0.0480852 1.28651
0.105259 0.175515 -0.306508
1.29956 -0.0150852 -0.849828
0.139259 0.743215 3.15372
-2.04024 0.356115 0.802172
1.32916 -0.118785 1.37975
0.00745973 -0.0114851 1.20463
0.0657596 -0.0281848 1.17197
0.448759 -0.113785 0.870203
-0.223841 0.626714 2.72845
0.611759 1.67722 2.74272
-1.84834 0.301416 2.13365
-1.85404 0.304715 2.12221
-1.57144 0.212215 2.1417
-1.89154 0.310715 1.84954
-1.61284 0.198615 1.85362
-1.92614 0.333215 1.72845
-1.12294 0.071415 1.97537
-1.36194 0.154515 1.80581
-0.497241 0.369815 1.61799
-1.53594 0.203615 1.25968
-2.08074 0.374415 1.05703
-1.90474 0.310915 1.04888
-1.94464 0.329715 1.03118
-2.08224 0.362015 0.977643
-1.60104 0.231815 1.12491
-1.81024 0.270415 1.04808
-1.36024 0.137615 1.06565
-2.12274 0.381415 0.790707
-1.94184 0.321915 0.798663
-1.78894 0.280715 0.802913
-1.70274 0.256915 0.807804
-1.65244 0.237015 0.818122
-2.10354 0.378915 0.667302
-2.29894 0.446615 0.527102
-2.28264 0.433516 0.522712
-1.82224 0.285515 0.640652
-2.31564 0.442715 0.474012
-2.43264 0.473615 0.424222
-1.12414 0.0709153 0.812272
1.35596 -0.0436849 1.42895
-1.00924 0.031415 0.651502
-0.981041 0.0143157 0.654172
1.49676 -0.00268455 1.26407
1.51946 -0.00888438 1.24845
-2.24224 0.422115 0.0951919
1.67476 -0.0957851 1.2454
-1.84034 0.300116 0.187552
-2.20764 0.417815 0.0799419
-1.10164 0.0649147 0.342232
-0.81794 -0.0244846 0.402472
-2.23404 0.423215 -0.00637813
-0.641141 -0.0918846 0.367502
-1.45124 0.171715 0.0607219
-1.34684 0.126515 0.0397719
-1.42724 0.166815 -0.0544681
-0.81674 -0.032485 0.0695719
-1.69694 0.247316 -0.164908
-1.71314 0.253016 -0.175918
-0.548541 -0.105285 0.105152
-1.45684 0.164815 -0.182188
-1.45954 0.165916 -0.199228
-1.36434 0.147115 -0.352988
-1.80554 0.279315 -0.533298
-0.423041 -0.156785 -0.229438
-0.95904 0.0168152 -0.470848
1.43626 -0.216685 -0.0476181
-0.90814 -0.00138468 -0.822128
-0.159241 -0.236484 -0.711778
-0.17984 -0.221185 -0.720148
1.55296 -0.0938845 -0.867158
1.19736 2.06057 3.34904
-0.318841 0.650315 2.9229
-2.07094 0.388315 2.28864
-1.87434 0.316115 2.09791
-2.17474 0.402315 1.80765
-1.74074 0.248915 1.84985
-2.12094 0.384515 1.6713
-1.23524 0.097415 1.85842
-2.21174 0.408916 1.46511
0.80566 0.292115 2.26817
-1.44514 0.178516 1.29594
-1.46234 0.183416 1.27611
-1.71014 0.255816 1.16257
-0.0880394 0.041915 1.61736
1.81626 -0.0349845 2.08433
-2.00584 0.346015 0.776334
-1.72154 0.256516 0.823475
-2.26604 0.421215 0.568982
-1.05424 0.0346156 0.862299
-0.99284 0.0190154 0.8214
-0.92824 0.0178156 0.713396
-1.00824 0.0229149 0.473322
-0.923941 -0.00558466 0.371272
-2.02634 0.345615 0.00928193
-1.10044 0.0650149 -0.0809681
-0.66804 -0.0772848 -0.120448
2.02356 -0.380185 0.635702
-1.00414 0.0215149 -0.269588
-0.98814 0.00571542 -0.475568
-0.608842 -0.113285 -0.709198
-0.286841 -0.202385 -0.875878
-0.0489407 -0.279185 -0.840578
1.87826 -0.196384 -0.876168
-2.01204 0.368315 2.58092
1.10636 1.94034 2.60544
-1.25334 0.101415 1.98557
-2.10844 0.381516 1.6106
-2.17454 0.396715 1.50008
-1.99794 0.337115 1.03389
0.65456 0.0303154 1.87056
0.57436 -0.117185 1.799
-1.00824 0.0186148 1.17152
-2.07124 0.386615 0.711215
-1.60384 0.222415 0.823079
-1.25254 0.105815 0.78817
-0.88814 -0.00578493 0.696295
-0.880341 -0.0049848 0.655902
-1.00814 0.0322152 0.369892
0.28426 -0.0716848 0.735721
-1.08064 0.0603152 0.0735718
-1.85304 0.295615 -0.206858
-0.659041 -0.085185 -0.140098
-1.79274 0.282315 -0.514188
1.03306 0.101815 -0.479148
2.11266 -0.246185 -0.393168
2.06166 -0.255085 -0.873388
3.42316 -1.35858 -1.08778
-2.20074 0.415815 2.32737
1.02646 1.87276 2.71181
-1.64744 0.228315 1.95806
-1.92304 0.331016 1.67817
1.44006 0.0862151 2.27744
-1.04284 0.0479155 0.869095
1.78506 -0.208685 1.51215
-1.40414 0.117615 0.0536919
-0.672042 -0.0746851 -0.160518
-2.12054 0.371315 1.85061
-0.523141 0.386215 1.67408
0.194359 -0.0132846 1.19005
-1.90634 0.313815 0.479312
-0.96504 0.0343152 0.726567
1.94476 -0.382385 0.921329
0.888159 0.145815 -0.458498
0.91336 0.161915 -0.640128
-0.645942 0.841055 2.43535
-1.58454 0.211616 1.73033
-2.07744 0.368216 1.34026
1.18686 0.112815 1.96229
-1.23264 0.0951148 0.648062
0.578159 -0.169385 0.264502
0.74616 0.0589152 -0.605938
-1.07614 0.079115 1.88729
-1.11224 0.0472155 0.608702
2.78226 -0.654585 -0.372988
1.48076 -0.258485 1.10114
1.74936 -0.270884 0.901444
1.10836 -0.093585 1.6424
1.71086 -0.348784 -0.164028
1.20446 -0.0600852 0.0339919
0.66946 0.0982152 -0.526088
1.14546 0.106015 -0.864868
-0.304942 0.775355 3.24898
1.07306 0.104116 -0.588818
-0.53274 -0.122085 -0.469058
-2.11704 0.395015 -0.0517582
-0.77734 -0.0438852 0.0719918
0.50646 -0.118484 0.138892
1.64486 -0.296184 0.284912
-1.33354 0.131115 0.641202
-1.27514 0.124915 0.756265
-1.81914 0.284915 1.03593
-1.11804 0.0561152 1.01063
-1.66664 0.225715 1.0362
-1.72274 0.256015 1.05087
-2.03914 0.355516 1.37458
-1.60394 0.223415 1.37654
-1.39584 0.163215 1.43048
-1.33594 0.142515 1.49183
-1.63124 0.227315 1.79505
-1.58774 0.211715 1.84731
1.05746 0.0617152 1.89437
-1.60004 0.228815 1.89191
0.0545597 0.508315 2.09339
2.02446 -0.111785 2.2588
-1.47154 0.203315 2.30868
-2.05454 0.380015 2.55911
-1.88084 0.322915 2.58739
-1.72634 0.275416 2.79936
-1.42274 0.171516 2.92338
-1.14094 0.122915 3.11358
1.09276 0.094615 -0.486668
1.44926 -0.223985 -0.0670482
-1.03584 0.0326148 0.350632
-0.734441 -0.0567846 0.391952
1.94276 -0.381084 0.937514
-0.93844 0.00261503 1.00906
-1.82334 0.264415 1.05812
-1.25324 0.0948153 1.1625
-1.38484 0.136815 1.1854
-1.32504 0.105915 1.18217
0.37656 0.0133153 1.16798
-1.20124 0.101515 1.76119
1.07486 0.031415 1.87264
1.03786 0.199415 2.03291
-0.565942 0.708815 2.26395
1.64646 1.83451 2.75503
2.31806 1.62829 2.82471
-0.721841 -0.0959844 -0.665728
1.57286 -0.242485 -0.431538
-0.95574 0.023715 0.724347
-1.44634 0.173415 0.764656
-1.64444 0.210216 0.812207
-0.903141 -0.0190849 1.14977
0.089159 -0.0284852 1.26941
1.49326 0.0432149 1.4
-0.502541 0.357315 1.56327
-0.47654 0.675615 2.00198
-1.02704 0.0219155 1.00781
-0.436041 0.360115 1.12714
0.531361 -0.103985 1.77357
0.66996 0.0203152 1.84844
-1.18634 0.119715 2.12663
-1.29034 0.117516 2.13487
-1.04354 0.0610152 2.13757
-2.07704 0.379815 2.19494
-1.33194 0.100515 2.34609
-0.326941 0.720315 2.48146
-0.593041 0.751745 3.07281
-0.577641 -0.136085 -0.477988
-1.61334 0.261215 0.682886
1.45416 -0.0506849 1.347
-0.524241 0.384515 1.60745
-0.440241 0.672715 2.03026
-1.04414 0.0493155 2.16823
1.95116 -0.109185 2.31775
-1.65124 0.195515 0.792208
-1.34064 0.175315 0.850362
0.590059 0.153115 1.93529
-0.288241 0.533115 1.96426
-1.68454 0.252815 2.17928
-1.72314 0.274016 1.49147
0.812559 0.126915 1.92895
1.28556 2.01407 2.39773
0.941059 -0.142185 1.64444
1.03346 2.04029 3.08081
-1.09044 0.0641156 0.734716
-0.389441 0.208816 1.6238
0.30266 0.0553151 1.87111
-1.68734 0.240015 -0.162258
-0.509242 -0.127985 0.355432
0.500759 -0.104885 0.156722
-0.951441 0.0161152 0.796884
-1.78004 0.264115 1.0442
-1.94884 0.331415 1.11291
-1.33384 0.140716 1.49227
-1.52704 0.192115 1.59439
-1.85554 0.305716 1.84928
-1.62894 0.209715 1.81001
-1.01314 0.0301152 1.85162
-0.638341 0.478015 1.79799
-2.03414 0.370815 2.14186
-2.02084 0.353015 2.15087
-1.16854 0.0795155 1.99016
-1.34874 0.133315 2.14113
1.09916 -0.0137844 1.81813
-0.0495396 0.545015 2.06795
-1.88304 0.326515 2.59663
0.0481605 0.517015 2.17541
-1.79924 0.447516 3.33221
-0.537041 0.817085 3.17103
-1.39334 0.156415 1.89124
1.36466 -0.0112848 1.43115
-1.56784 0.214115 2.14133
0.433159 0.392915 2.03016
-1.44244 0.159616 2.57934
-0.264841 0.651415 2.72763
-0.48164 0.710815 2.88063
0.0370598 -0.307685 -0.865558
-0.166441 -0.206984 -0.730448
0.910059 0.135615 -0.704238
-0.89444 -0.0094852 0.666322
-1.87654 0.315915 2.57848
1.14666 0.176815 2.03032
-1.96714 0.367516 3.07077
-1.28544 0.142116 3.09054
-0.47254 -0.128185 0.479382
-0.973141 0.051715 0.860478
-1.73794 0.265716 1.10162
-1.24904 0.0895148 1.84041
-1.03974 0.060215 2.13523
0.204859 0.452715 2.00362
-1.01024 0.0201149 2.33731
-1.43634 0.149915 2.60427
-1.01024 0.0437155 1.85967
1.13296 -0.124784 1.44059
0.51026 -0.00018496 1.88687
1.17446 0.0730153 1.92862
1.76676 -0.0070848 1.97825
-1.12834 0.121815 3.13438
-0.19084 0.650015 3.09029
1.28666 -0.147785 0.000611826
-0.441441 0.322015 1.68493
-1.07944 0.0998154 1.96252
1.47626 -0.00538439 1.41078
-1.06244 0.0684147 1.19341
0.921259 -0.116585 0.900238
-0.557641 0.504915 1.86168
0.465259 0.354615 2.00842
-0.605141 0.845335 3.15598
1.15256 0.166215 2.05071
-0.944641 0.0116149 0.793028
-2.11224 0.404615 2.03018
-1.97684 0.350815 2.31706
-1.17424 0.0824156 1.9894
-1.66384 0.238216 2.37416
-1.56134 0.197616 2.60227
1.36256 -0.0199852 1.43454
1.32976 -0.087285 1.49371
-1.77644 0.270715 0.404822
-0.87574 -0.00298496 0.719966
-1.29904 0.129215 1.97848
-0.541442 0.378915 1.67259
1.43546 -0.267885 1.11921
-1.06404 0.0509148 2.58667
0.038559 -0.305085 -0.863328
-0.91544 -0.0165844 1.12275
2.13006 1.90699 3.35627
-0.599141 -0.109984 -0.125848
0.37006 0.0439149 -0.255138
-0.930941 0.00591474 0.80641
-1.13244 0.144615 3.13376
-0.566741 0.475415 0.6955
-0.10144 0.724815 3.32618
0.957159 0.170015 1.98769
-0.188841 0.669715 3.07556
-0.93734 0.00861554 0.785417
-1.00744 0.0276156 0.901258
-1.07704 0.0540152 2.92757
1.40856 0.00101476 1.41517
2.10006 -0.212485 -0.506808
1.45246 -0.0273847 1.29059
1.37246 -0.0370845 1.45465
1.44426 0.000515038 1.41287
-1.33234 0.133415 2.57337
0.0279599 -0.294385 -0.851648
2.02516 -0.401785 0.958848
1.53996 -0.236285 -0.0796182
1.39366 -0.0256853 1.45665
0.0770587 0.230015 -0.578028
1.41016 0.0164157 1.40743
-0.974741 0.0109149 0.818431
-0.878441 -0.0120849 0.698664
-1.18124 0.0849152 2.01142
2.10616 -0.433585 0.793613
-0.818341 -0.00928492 0.661482
-0.86854 -0.00868506 0.770892
-1.19044 0.0768157 1.96685
0.63706 0.0374156 1.89097
-0.08844 0.259415 0.482332
1.42876 -0.289685 1.23892
-2.11874 0.393915 1.74446
-2.10994 0.404915 1.93585
-0.973641 0.0257149 0.866593
1.00206 -0.101185 0.73436
0.89076 -0.0616845 1.48653
1.45046 -0.0263853 1.28591
2.53386 -0.727685 0.491292
-1.14904 0.0872155 1.9348
1.07696 -0.121585 0.711555
-0.883641 -0.00928492 0.69886
-0.489741 0.673214 2.04383
0.237959 -0.0744848 1.60365
0.24016 -0.080285 0.909057
1.65676 -0.257985 0.942532
-0.78224 -0.0356845 -0.418378
1.54636 -0.239984 0.371192
-2.06784 0.365015 0.832332
0.671959 0.155416 1.92268
1.37046 -0.181684 0.770108
2.20576 -0.474484 0.854855
-1.29084 0.113015 0.568282
0.995159 -0.102385 1.28913
2.19656 -0.472985 1.24665
-2.10614 0.401216 1.97875
-1.09534 0.0528155 -0.698488
-1.29984 0.110115 0.636752
-1.01354 0.0253153 -0.399788
-0.678342 -0.0725851 -0.694568
0.263859 -0.0695848 1.44376
2.06406 -0.424785 1.65811
0.14926 -0.032485 0.563032
0.15946 -0.0321845 1.16358
0.982759 -0.100485 1.14609
-0.821741 -0.0402851 0.562332
-0.60624 0.716215 2.10411
1.16586 -0.0690851 1.59918
-2.15864 0.403115 1.7048
-1.58804 0.217715 1.688
-0.964741 0.0105153 0.309202
-0.518241 -0.129185 0.293082
-0.470141 -0.140184 -0.419668
-0.00274077 0.555815 2.84922
0.232059 -0.0576848 1.49367
2.02266 -0.411685 0.85052
-2.12594 0.396216 1.76921
-1.70544 0.246616 0.0639519
-1.67674 0.246115 0.0626819
-1.54654 0.193415 0.184942
-0.979441 0.0180149 0.0846519
-0.966141 0.0133153 0.101892
-0.78114 -0.0431852 0.553522
-0.74844 -0.0657844 -0.493868
-0.08914 0.558015 2.12804
0.99126 -0.0874853 1.11307
1.08196 -0.130785 1.24438
2.02066 -0.411585 1.05353
1.95106 1.74108 2.79387
-2.03394 0.341915 0.788148
-1.59054 0.218715 1.74221
-1.37054 0.132115 0.0424619
-0.49964 -0.127185 0.326462
0.90406 -0.0664844 0.771427
1.08426 -0.129785 0.72945
1.99616 -0.209285 -0.197148
-2.12474 0.394816 0.118252
-2.11104 0.401615 1.99128
-2.10214 0.401116 1.84888
-2.03414 0.342615 0.79054
-1.98964 0.350215 0.770119
-1.95044 0.340015 -0.171718
-1.72024 0.256315 1.23848
-1.71824 0.257515 1.13566
-1.69674 0.252215 1.16158
-1.38224 0.140315 -0.0840481
-1.34294 0.124715 0.984749
-1.32074 0.120115 0.954638
-1.26934 0.114215 0.605532
-1.05314 0.0612154 1.27793
0.12006 0.261715 -0.492608
0.149059 -0.0342845 0.586862
0.254459 -0.0765848 1.44352
1.21466 -0.159385 0.194952
2.20286 -0.471185 0.775113
-2.12344 0.392215 0.352692
-1.73764 0.267215 1.07615
-1.71084 0.253415 0.0678618
1.43636 -0.215985 -0.414038
2.58166 -0.803885 0.603822
0.992859 -0.0992851 1.32277
1.03586 -0.120685 0.807087
1.03516 -0.108185 0.999281
1.19786 1.96469 2.95055
2.15416 -0.462584 0.809628
0.788959 -0.0183849 0.194152
1.34476 -0.199485 0.98572
1.39826 -0.186584 0.73719
0.224659 -0.0604848 0.964773
1.49506 -0.218184 0.675592
0.702459 -0.105084 0.941931
-2.18874 0.415415 2.25558
-1.92594 0.348015 1.91258
-1.82434 0.288215 0.599162
-1.59094 0.202516 0.725215
-1.69294 0.246616 0.00512188
-1.67494 0.245515 0.0131219
-1.37174 0.144216 -0.00259812
-1.09564 0.0535155 -0.632158
-0.103041 0.559415 2.1699
-0.108141 0.565915 2.12933
-0.692441 -0.0705852 -0.583878
0.25296 -0.0706844 0.867759
0.262659 -0.0732851 0.799046
0.83176 -0.051485 1.44992
1.95016 -0.390685 0.922221
-2.15764 0.410115 1.97248
-2.12664 0.406515 1.86159
-1.24434 0.118815 0.575052
-0.481042 0.700915 2.92329
-0.98424 0.0178156 0.128342
-0.99754 0.0133153 -0.486618
-0.844441 -0.0321845 -0.894288
-0.251541 0.0958148 1.43124
-0.708441 -0.0732851 -0.698638
0.899759 -0.0739851 1.43905
0.832559 -0.0509843 0.969304
0.900659 -0.0735845 0.912236
1.10446 -0.127785 1.54153
1.70636 -0.298485 -0.245958
2.02196 -0.412285 0.974159
1.93826 -0.352785 0.560592
2.08846 -0.423585 0.965924
1.63486 -0.116384 -0.862068
2.20416 -0.476185 0.844315
1.98506 -0.168885 -0.565558
-2.17444 0.399615 1.80023
-1.84894 0.304415 0.557452
-1.54114 0.196415 0.205522
-1.58834 0.218115 -0.234598
-1.56624 0.218215 -0.315838
-1.12894 0.0664149 -0.655868
0.16176 0.245015 -0.453408
0.94346 -0.0834846 1.6653
0.92746 -0.0749845 1.59727
1.01796 -0.101485 1.60923
1.07886 -0.131084 1.51028
1.07626 -0.131885 1.44221
1.07486 -0.125085 0.981044
2.19816 -0.472285 1.261
2.56766 -0.776785 0.741269
2.78996 -0.570684 -0.467278
-2.18024 0.405115 1.72223
-1.69184 0.254515 1.15609
-1.31824 0.123816 0.966308
-1.23224 0.115815 0.639922
-0.287241 0.111015 1.33511
0.97986 -0.0961847 1.21701
1.43196 -0.214785 -0.228488
-1.82324 0.276615 0.394442
-0.46744 0.705715 2.62265
0.0844593 0.178015 -0.441928
0.203659 -0.313684 -1.13313
2.69556 -0.599685 -0.165278
-2.21234 0.409715 1.77276
-1.71924 0.262116 1.3061
-1.31434 0.126515 0.902032
-1.85464 0.305315 -0.391278
-1.52404 0.196816 0.348772
-1.36754 0.144315 0.00190191
-0.27974 0.0927153 1.38971
-1.01304 0.015915 -0.465248
-0.0910397 0.100815 1.42235
-0.49824 -0.132785 0.297662
-0.83404 -0.031785 -0.462198
0.17666 -0.0332851 0.625402
-0.19124 -0.226685 -0.672058
1.07746 -0.124185 1.13852
1.45026 -0.00378509 1.32997
1.99236 -0.210285 -0.213598
2.74266 -0.636885 -0.238238
-1.72114 0.254215 1.20058
-2.26274 0.436316 -0.247778
-0.40544 0.682615 2.80294
-1.69164 0.244115 -0.110258
-1.23634 0.124516 0.592652
-1.36214 0.129915 0.042992
-0.739241 -0.0552844 0.385942
-1.00364 0.0136157 -0.490808
-0.71884 -0.0742845 -0.631328
0.984859 -0.103185 1.21713
0.809759 -0.00128455 0.576342
1.03466 -0.111285 0.91942
2.02206 -0.410485 0.970347
2.15436 -0.459685 0.989753
-2.23164 0.410815 1.58373
-1.59434 0.214115 2.83048
-1.88594 0.318515 2.048
-1.89694 0.324815 1.96118
-1.72534 0.255915 -0.129728
-1.73374 0.254915 -0.191358
-1.27104 0.110015 0.444812
0.0472602 0.508014 2.12754
0.0929603 0.505715 2.16571
-1.09474 0.0554152 -0.726188
1.03656 -0.112685 1.45011
0.817459 -0.0346851 0.685169
0.84436 -0.00418467 0.600902
1.60976 1.84597 2.70615
1.58456 0.0490151 2.08386
1.75956 -0.0269851 2.17253
1.80376 -0.189685 -0.837348
-1.71554 0.250715 1.39381
-0.12994 0.106415 1.35336
0.12586 0.254715 -0.442808
-2.01674 0.346115 0.746679
-1.82494 0.287416 0.496292
-1.25524 0.118315 1.81
0.0450592 0.208415 -0.370718
1.52306 -0.244385 0.438052
-0.129341 0.566815 2.12926
-0.31374 0.120815 1.34984
2.63936 -0.560485 -0.292198
0.212259 -0.0333852 1.26074
1.95956 -0.278485 -0.273488
-1.26484 0.118615 0.591432
-1.66784 0.232716 -0.147598
-1.39274 0.144515 -0.0269582
0.286159 -0.0849848 0.773692
-2.20884 0.412015 0.0416319
-1.25954 0.117915 0.948381
-1.45454 0.178415 0.0548518
-0.980539 0.0218153 0.667252
-1.23334 0.104015 0.177802
0.68766 0.166616 1.97192
-0.309041 -0.175685 -0.196288
-0.690741 -0.0652847 -0.710358
1.66606 -0.133085 -0.858608
-1.68494 0.262916 1.3097
-1.47784 0.194215 1.30969
0.357861 0.416716 2.10613
-1.02864 0.0268155 -0.473578
1.11846 -0.129485 1.4297
1.37266 -0.105585 1.37352
1.54466 0.0120154 1.29376
2.05096 -0.235684 -0.815048
-2.16194 0.409915 1.96773
-1.58664 0.211915 2.83895
-1.76634 0.264916 -0.116688
1.41496 0.105115 2.29194
1.68846 1.82802 2.78491
0.435459 -0.122185 0.932551
1.98876 -0.238085 -0.889478
-2.21454 0.404915 1.45739
-0.11064 0.563015 2.16525
-0.12764 0.561315 2.08764
1.91636 -0.0819845 2.12731
-1.78414 0.274016 0.620102
0.787159 1.74692 2.92502
0.37936 0.409415 2.11153
-0.0276393 0.0011149 1.20079
0.47286 -0.138585 0.888397
1.15786 -0.114585 0.685737
-1.33104 0.140215 1.97609
-2.25634 0.429316 0.505032
-1.82664 0.277915 0.660772
-2.27234 0.441216 0.175602
-2.18694 0.412416 0.244052
-2.26064 0.437415 0.126232
-1.83774 0.289516 0.413272
-1.02574 0.0369149 0.864653
0.180759 -0.0239849 1.14463
0.339661 0.0217152 1.17427
-1.22084 0.0989152 -0.445938
1.46906 -0.014985 1.32563
-1.73464 0.278915 2.7891
-1.88044 0.312515 1.73121
-2.11444 0.379615 0.834433
1.04046 1.89326 2.88332
0.301359 -0.059885 1.04353
1.53476 0.0459157 2.03821
0.388159 -0.117784 1.06051
2.04826 -0.115684 2.25764
1.12796 -0.143985 1.43992
-0.22814 -0.215384 0.0760519
1.50346 -0.0154848 1.25766
2.87206 -0.526385 -0.479368
-1.63664 0.224216 2.63474
-2.12294 0.392415 1.75498
-1.98014 0.353215 1.68944
-1.21294 0.0978156 1.88794
-2.21654 0.426915 0.0431219
1.73406 -0.160485 -0.864158
-1.63574 0.235015 1.02091
-1.91474 0.326915 0.366732
0.67716 0.320815 2.21533
1.23486 0.147915 2.13145
1.16506 0.0250149 -0.858968
2.14676 -0.464185 0.714444
0.174759 -0.110585 -0.797588
-0.44904 0.698615 2.76689
-0.382241 0.391215 0.666662
-0.370541 0.661315 2.88296
-0.56164 0.403015 1.15005
0.42876 -0.137885 1.45265
0.12166 0.221215 -0.370188
-2.22514 0.424615 2.64102
-0.325041 0.653815 2.91774
-1.87504 0.311915 2.09523
-1.33284 0.140016 1.97684
-1.34934 0.148615 1.49247
0.96196 0.212915 2.09448
-1.27664 0.119215 0.754425
-1.99654 0.350715 0.358712
-2.18144 0.414815 0.168562
-0.93154 0.0158148 0.630622
0.33736 0.0196152 1.17274
1.16176 -0.144785 1.50693
1.23406 -0.127685 1.48398
1.18806 -0.143885 1.44265
2.13636 -0.446384 1.47375
-1.88524 0.313215 -0.492578
-0.374241 -0.179385 -0.180598
-0.87064 -0.0235853 -0.491638
1.42156 -0.231785 0.455312
1.87136 -0.191985 -0.878378
1.03656 1.88379 2.88303
-0.430741 0.676714 2.26787
-1.60324 0.230616 1.29051
-2.25304 0.430915 0.627072
-1.99174 0.357315 0.328222
-1.19664 0.115416 0.618902
-0.97484 0.0216151 0.672672
-1.64024 0.237215 -0.475778
-1.24864 0.108015 -0.451948
-0.352141 -0.181285 -0.207038
1.83456 -0.233085 0.391372
-1.46664 0.178015 2.22441
-2.12424 0.384415 1.03423
-2.07534 0.366715 0.718157
0.60396 0.339416 2.09754
-2.01294 0.355516 0.678382
-1.07354 0.0562153 0.824458
-1.14164 0.0924149 0.626482
0.918459 -0.0826845 1.64421
-0.89864 0.00701528 0.690827
-0.94244 0.0150157 0.655742
-0.546441 -0.125085 0.243742
-1.75394 0.258915 -0.499228
-0.329541 -0.172285 -0.710868
0.97666 0.111415 -0.390868
2.04276 -0.251385 -0.843308
0.699959 0.158115 1.97466
1.22316 0.143815 2.13748
-0.97794 0.0200148 0.691221
2.20316 -0.166985 2.05998
-1.43144 0.158615 0.0311719
0.532259 -0.138385 0.334212
-0.275841 -0.207584 -0.193678
-0.592841 -0.0945845 -0.721518
-0.23884 -0.199985 -0.738208
-1.58794 0.228815 1.72385
-1.69894 0.261915 1.65702
0.657761 0.296815 2.21124
-1.82834 0.290315 0.366192
1.89576 -0.0796852 2.20782
-1.07974 0.0827151 1.88524
-0.580842 0.402815 1.09205
-2.00764 0.355115 2.86177
-1.82714 0.311915 2.12256
-2.12554 0.404815 1.96212
-1.67304 0.232016 1.82261
-1.34654 0.145015 1.49121
-1.80904 0.284215 1.35911
-1.77384 0.265215 1.0486
-2.15114 0.382415 0.768984
-2.32344 0.450215 0.605882
-1.90234 0.312915 0.677932
-1.27604 0.122115 0.756062
-1.65514 0.226515 0.663752
-1.60794 0.211515 0.672892
-2.32954 0.455615 0.143222
-1.73054 0.260716 0.0805519
-1.37984 0.133315 0.0318518
-1.23494 0.103615 0.0590618
-1.15704 0.0800153 0.050972
-1.55334 0.199215 -0.181028
-1.48784 0.191315 -0.188218
-0.807041 -0.0446843 -0.199058
-1.06334 0.0438157 -0.498868
-0.937641 -0.000985093 -0.492028
-0.494441 -0.128085 -0.475808
-0.646142 -0.0869846 -0.713318
-0.695841 -0.0670853 -0.729578
1.03696 0.0788155 -0.406908
-0.0560398 -0.277685 -0.827628
2.17366 -0.274585 -0.399088
2.21286 -0.277485 -0.398428
2.12376 -0.260585 -0.869068
3.30236 -1.32829 -1.22919
1.11636 2.03293 3.35026
-1.78364 0.280915 2.14302
-1.65084 0.240915 2.14319
-2.17324 0.390115 1.50144
-1.19644 0.0936156 1.76558
-1.77124 0.276315 1.40255
-2.07214 0.367715 0.77708
-2.00524 0.337415 0.774848
-1.03514 0.0394154 0.820674
0.28046 -0.0752849 0.839054
-0.858841 -0.00188442 0.402402
-2.03404 0.360615 0.0129118
0.357059 -0.0866852 0.353492
-0.37694 -0.183985 -0.182608
-0.84704 -0.0190849 -0.426608
-0.47114 -0.137985 -0.462248
1.57726 -0.261684 -0.0682481
-0.263541 -0.195185 -0.668098
-0.216341 -0.210185 -0.721608
1.60276 -0.109385 -0.872778
-1.42394 0.177015 2.33216
-1.23034 0.0963154 2.13369
-1.70364 0.236116 1.80812
-1.42644 0.168716 1.37175
-1.05324 0.0160151 1.17356
-1.55924 0.203615 1.03234
1.41486 -0.049385 1.39968
-1.09544 0.0543156 0.659212
-0.930941 0.0198155 0.659112
-2.24424 0.433315 0.0736318
-1.74794 0.286016 0.0654519
-0.576642 -0.105985 -0.485368
-0.79744 -0.0544853 -0.541628
0.855459 0.098815 -0.353608
-0.18704 -0.221085 -0.706638
-1.07554 0.0526152 2.13852
0.149361 0.508415 2.20075
-1.24564 0.137315 1.04086
-0.425042 -0.139484 -0.148528
1.99226 -0.222685 0.390182
-0.40144 -0.140984 -0.195118
-0.23884 -0.223885 -0.190008
0.570759 0.0696154 -0.656698
1.66376 -0.110485 -0.832168
-1.15114 0.0834151 1.94671
-1.18294 0.0920153 1.88539
-1.78424 0.292215 1.49244
1.19306 0.112215 1.9641
0.986559 -0.0685844 1.44855
-0.350041 -0.180085 0.0965619
-0.21324 -0.262484 -0.836598
-0.10874 -0.268885 -0.854528
-1.31654 0.126115 1.86819
-1.94574 0.327416 1.6453
-1.84074 0.286615 0.122362
-0.244841 -0.183485 -0.735098
0.597959 0.0908156 -0.775418
-1.62084 0.228215 1.87245
-0.57914 0.657714 2.00146
0.838159 0.191015 1.99092
0.39686 -0.0550851 0.210392
0.998159 0.122515 -0.790448
1.62836 -0.160685 1.49197
-1.16264 0.0783149 0.739351
1.11326 -0.089385 0.802448
2.00246 -0.264285 -0.665268
-2.05274 0.378115 2.84733
-1.53194 0.205916 2.8042
-2.35344 0.483115 2.60313
-1.87954 0.340515 2.59719
-2.21214 0.425315 2.34831
-1.48284 0.190516 2.33041
-1.47074 0.200515 2.30935
-0.416941 0.659014 2.26352
-2.31594 0.461515 2.18056
-2.32964 0.453315 2.17274
-2.03614 0.380015 2.14189
-1.64044 0.243515 1.90442
-1.60104 0.236216 1.89162
-1.79184 0.271515 1.82161
-1.55814 0.204215 1.81422
-1.36224 0.151515 1.80619
-1.63264 0.226915 1.79495
-1.66914 0.222215 1.61548
-1.57494 0.210615 1.59591
-1.85444 0.307816 1.57097
-2.16564 0.399415 1.50664
-1.34044 0.143516 1.49138
-1.39864 0.159315 1.43098
1.20756 -0.128984 1.47693
-2.33424 0.447616 1.38801
-2.04094 0.363715 1.37537
1.52606 -0.0201845 1.26961
1.50196 -0.0189848 1.24936
-0.49824 0.362215 1.15692
-1.95714 0.333816 1.11092
-1.66574 0.227115 1.03623
-2.07924 0.347415 1.03707
-1.62684 0.217615 1.02973
-2.04964 0.349216 0.802544
-2.07454 0.370715 0.776438
-1.33634 0.127615 0.640702
-1.94274 0.339315 0.504282
-0.635541 -0.0952844 0.393022
-1.82224 0.285615 0.405982
-0.368041 -0.165085 0.0881519
-0.733842 -0.0564851 0.0833219
-0.321742 -0.200785 -0.180458
-1.11784 0.0477152 -0.204518
-1.40524 0.146015 -0.181958
-1.47954 0.178315 -0.190418
-1.67564 0.237215 -0.182828
-2.04064 0.371415 -0.192008
-2.22364 0.432315 -0.198958
-0.93364 0.00191503 -0.487938
-0.26454 -0.198185 -0.667388
1.13506 0.0834151 -0.591558
1.06686 0.103715 -0.588688
-1.00414 0.0324154 -0.715678
-0.109741 -0.253485 -0.838148
-0.450541 -0.153485 -0.849718
-2.01054 0.352415 2.86136
-0.334441 0.638915 2.23781
-0.618041 0.731215 1.97111
1.07276 0.0287152 1.87254
-0.94154 0.00801473 1.38142
1.44786 -0.0124845 1.29945
0.36936 0.0168152 1.16797
-0.872341 -0.0209846 1.13124
-1.82314 0.272215 1.05917
-0.939341 0.00221544 1.00938
1.94156 -0.382085 0.937483
-1.64434 0.199716 0.811043
-1.50634 0.193415 0.711857
-1.27514 0.0719148 0.655532
-0.367442 -0.180585 -0.196788
1.56836 -0.240385 -0.429188
-0.464541 -0.141584 -0.467908
-1.17294 0.0787154 -0.504468
-0.491641 -0.133884 -0.703528
0.169859 0.175915 -0.630058
-0.604241 -0.129684 -0.829008
-1.13534 0.194315 3.21816
-0.30114 0.655915 2.97994
-1.73574 0.255615 2.89271
-1.41434 0.167615 2.89086
-1.41324 0.151615 2.33786
-1.46834 0.203315 2.22779
-1.13884 0.0808154 1.99024
-1.86454 0.311515 1.92997
1.80296 -0.249685 1.54781
0.0860595 -0.0287847 1.26937
-1.00274 0.0153151 1.16437
-1.74294 0.280215 1.10676
-1.38304 0.152616 1.03158
-0.898541 0.0149155 0.661992
0.289061 0.0631152 0.153972
0.25906 0.145315 -0.240098
-0.21554 -0.217085 -0.681138
1.45206 -0.0743847 -0.843098
0.11026 0.489315 2.22896
-1.16524 0.0808154 2.15922
-1.04854 0.0639153 2.13731
-1.36344 0.140215 1.82031
0.667561 0.0194149 1.84803
0.529659 -0.0997848 1.7732
-1.01024 0.0273152 0.659392
-1.00964 0.0514155 0.049042
-0.58754 -0.0986852 -0.463338
0.834259 0.137315 -0.650318
-0.61134 0.713015 2.31246
1.33976 -0.110285 1.46531
1.29286 -0.122684 1.43014
1.61166 -0.0375852 1.31472
-1.27304 0.114716 0.388762
-1.07294 0.0958148 0.0776319
-0.85314 -0.0259847 -0.521708
1.76216 -0.140585 -0.627278
0.57926 0.0578156 -0.685438
1.88976 1.77334 2.83168
-0.0712395 0.685814 2.40336
-0.0846405 0.688015 2.3651
1.19956 0.0687151 1.929
-1.40884 0.161915 1.61079
2.02696 -0.423184 1.54119
0.84626 0.0518151 1.88081
-1.72644 0.271815 1.49146
1.23026 -0.122385 0.603792
0.26746 0.691215 2.33105
-1.10504 0.0694152 1.05161
-0.954041 0.0463152 0.670532
1.57726 0.0830155 2.29212
1.27866 -0.0824852 -0.921328
-0.554841 -0.126685 -0.840288
-0.624341 -0.0945845 -0.810428
-0.86574 -0.0151844 -0.538318
-0.630441 -0.0809851 -0.526118
-0.551541 -0.109485 -0.526988
-1.78184 0.276515 -0.261588
-2.01314 0.362515 -0.202108
-1.52484 0.200316 -0.278098
-1.61644 0.212215 -0.186858
-1.52554 0.192616 -0.173258
-0.41054 -0.153785 -0.308038
-0.80484 -0.046585 -0.206308
-1.38714 0.142615 -0.0661882
-1.35144 0.132615 0.0267019
-0.669841 -0.0814848 -0.0209682
-1.00374 0.027215 0.0762519
-1.01774 0.0315152 0.0875719
-0.84614 -0.0190849 0.0648518
-2.06454 0.362815 0.407892
-2.07554 0.364215 0.410782
-2.25904 0.428415 0.468672
-1.93834 0.333816 0.492632
-2.22974 0.422715 0.575252
-0.438841 -0.149185 0.372802
-1.99504 0.339416 0.675912
-1.27474 0.107415 0.607202
-1.60524 0.224715 0.661792
-1.51384 0.199815 0.743555
-2.08944 0.370915 0.838364
-2.09964 0.372416 0.840029
-1.69624 0.248715 0.807899
-2.09644 0.372015 0.847731
1.41286 -0.0887852 0.816214
1.40926 -0.0936851 0.828527
-1.45164 0.175215 0.981757
-1.51434 0.195615 0.995177
-1.79294 0.287015 1.17339
0.99106 -0.104085 1.15205
0.321159 0.0262156 1.18058
-1.55104 0.213115 1.23267
-2.21504 0.416515 1.29083
1.37486 -0.127584 1.2846
1.51606 0.0549155 1.32361
-1.77674 0.267415 1.37038
-1.98184 0.326116 1.38622
-2.03364 0.366315 1.43352
1.35836 -0.0250844 1.43319
-1.44834 0.172316 1.49422
-1.54384 0.196816 1.59308
0.81756 -0.0449848 1.66597
-1.99094 0.357815 1.69615
-1.72664 0.271615 1.89432
-1.66124 0.240215 1.93187
-2.25204 0.440615 1.93858
-1.16894 0.0948153 2.08296
0.94696 0.225515 2.20068
-1.84964 0.301715 2.10705
-2.11414 0.402715 2.12443
-2.02294 0.363815 2.16545
-2.00344 0.356815 2.17035
-2.01704 0.360015 2.17282
-1.60054 0.210515 2.80318
-0.13954 0.811315 3.34445
1.42456 -0.0548849 -0.879658
-1.18174 0.0759154 -0.520028
-0.508441 -0.127885 -0.632768
-0.0310401 -0.279085 -0.713908
-0.70324 -0.0769844 -0.558548
2.17196 -0.286785 -0.880748
-0.98934 0.0183154 -0.414578
-1.19774 0.0973149 -0.328738
-1.85004 0.296015 -0.200418
-0.97854 0.0238152 -0.317088
-1.43554 0.154315 -0.183828
-1.40324 0.145815 -0.183528
-1.22004 0.0870152 -0.185418
-2.21884 0.420715 0.165222
-1.36544 0.133715 0.0234819
-1.36414 0.130515 0.0370019
-0.937441 0.0134154 0.224902
-2.11614 0.381015 0.419332
-2.21354 0.415115 0.460012
-2.05444 0.363316 0.443672
-1.03154 0.0458155 0.334732
-1.77204 0.278415 0.484892
-2.14164 0.396015 0.611252
-1.97844 0.341815 0.592112
-1.99254 0.346815 0.595242
-2.11054 0.369015 0.680652
-1.48344 0.180115 0.643682
-0.81954 -0.0273847 0.663612
-2.12574 0.381015 0.80228
-1.55974 0.200715 0.786626
-1.08584 0.0657149 0.756336
-1.31984 0.121215 0.927088
-1.78364 0.282915 0.97817
-1.87834 0.301416 1.04283
-1.71064 0.256615 1.03469
-1.27854 0.104916 1.01116
1.28966 -0.187485 0.906297
-1.07544 0.0381156 1.01917
2.19616 -0.458685 0.940892
-1.79884 0.284215 1.16752
1.44136 -0.0568847 1.23589
-1.37814 0.158315 1.2984
1.52796 -0.00138468 1.26269
-1.36884 0.155915 1.31037
1.48446 0.0092154 1.31684
-1.05204 0.0624152 1.35281
-1.23854 0.115815 1.40826
1.44426 0.030715 1.42787
-1.44064 0.160715 1.45257
1.27066 -0.0866852 1.47619
-1.73444 0.269515 1.49535
1.33686 -0.0623845 1.48282
1.26626 -0.0904846 1.48969
-1.87154 0.308215 1.5208
-1.53434 0.200115 1.59059
-2.15384 0.395715 1.59949
-2.12514 0.390315 1.69084
-1.54634 0.200115 1.81367
-1.12534 0.0618153 1.84625
-1.54584 0.207915 1.95557
0.107759 0.488515 2.07164
1.54476 0.0448151 2.23845
-1.96164 0.347515 2.14846
-1.46024 0.177515 2.30984
-1.82864 0.301715 2.34979
-2.20564 0.428015 2.43448
-1.86184 0.316216 2.79133
0.83546 1.78201 2.8557
2.16446 -0.283484 -0.895318
-0.804941 -0.0321845 -0.458128
-0.93384 0.0184155 0.211322
-1.50674 0.202215 0.339702
-2.14424 0.384316 0.479422
1.80606 -0.339285 0.196292
-0.321541 -0.186185 0.367142
-1.13484 0.0769149 0.547592
-1.58144 0.200215 0.773389
-1.81134 0.275715 0.806195
-0.96654 0.0126153 0.816145
0.418859 -0.128585 0.769485
-0.97094 0.0264149 0.867957
-1.23564 0.107115 0.951624
0.22596 -0.0718851 0.947504
-1.72884 0.254115 1.04051
-1.01134 0.0163155 0.994894
-1.81124 0.270616 1.04668
-1.74274 0.253915 1.06013
-1.36284 0.129615 1.04933
-1.33964 0.133315 1.05247
0.90666 -0.0788851 1.00836
-1.35404 0.138715 1.14203
1.47446 -0.278185 1.14879
1.35336 -0.129185 1.28188
1.43296 0.0280152 1.40781
1.35536 -0.0397844 1.45826
0.53166 -0.150385 1.52282
-1.86734 0.306115 1.53716
0.90806 -0.0824852 1.53347
-2.13654 0.397515 1.67184
1.13046 0.0140153 1.77312
-1.61864 0.220215 1.79103
-2.25314 0.434015 1.81234
-1.11004 0.067915 1.86135
-1.83034 0.283216 1.84776
-1.86304 0.302116 1.84966
0.53816 0.353715 2.08108
-0.0775395 0.560215 2.10249
-1.16864 0.0853148 2.1002
-1.30874 0.120415 2.15593
-2.26564 0.443316 2.46987
-2.19344 0.414115 2.49614
-1.99514 0.362015 2.58872
1.96386 1.73666 2.74895
0.80666 1.76265 2.82034
-2.03054 0.351115 2.88832
-1.07764 0.0504151 -0.537788
2.00606 -0.234085 -0.870028
-0.709441 -0.0688848 -0.469938
-1.85024 0.306515 -0.226838
-1.67014 0.239016 -0.169128
-2.13994 0.403715 0.120842
-1.52904 0.195115 0.0143619
-1.83074 0.283815 0.420552
-0.962141 0.0115157 0.309072
-1.90684 0.316115 0.469562
-0.52924 -0.118285 0.302062
-0.460341 -0.135385 0.340552
-0.97394 0.017315 0.643342
-0.93104 -0.00768466 0.81173
-0.981941 0.0113154 0.987217
-1.30894 0.103215 1.00959
-1.72594 0.258616 1.26376
0.98336 -0.092185 1.27059
1.45846 -0.00718493 1.32155
1.38246 -0.0160846 1.43181
0.985359 -0.0932846 1.45124
1.32886 -0.0508851 1.47043
-1.88634 0.305115 1.53499
-1.88374 0.300915 1.55863
1.13106 0.0282155 1.79471
1.09256 -0.0829849 1.80004
1.12016 0.0437155 1.81831
-1.69254 0.239515 1.80725
-1.22194 0.106615 1.83626
-1.87934 0.301915 2.11571
-1.85274 0.300016 2.13532
-2.18304 0.411615 2.22726
-1.50644 0.191515 2.31006
-1.72524 0.269916 2.35436
-0.717042 0.844335 2.34802
-1.75504 0.276515 2.3779
-2.12034 0.397115 2.50545
-2.25694 0.435215 2.52197
-1.62854 0.226815 2.60269
-1.97234 0.351215 2.58911
-0.92544 0.0208149 2.79908
1.10486 1.93813 2.73657
-0.302741 0.644115 2.9529
-2.23194 0.427515 2.85476
-2.11564 0.380615 -0.0573882
0.86536 0.098815 -0.346728
2.04356 -0.231484 -0.426688
-1.39154 0.146216 -0.0165882
-1.42544 0.157215 0.0348719
-1.57074 0.207515 0.185332
0.56196 -0.154485 0.307062
0.71446 0.114615 0.390752
1.93096 -0.205685 0.389462
0.24346 -0.00548453 0.542692
-0.87574 -0.00468439 0.728317
-1.59814 0.204015 0.811132
-1.05164 0.040515 0.868871
0.11306 -0.0290851 0.90424
-1.32044 0.122915 0.972028
-1.05194 0.0427151 0.973677
-1.74564 0.260116 1.08229
0.239359 -0.0525846 1.06415
1.33736 -0.137384 1.35503
1.31596 -0.0572852 1.40574
1.41996 0.0139151 1.40541
-2.23044 0.418716 1.44311
1.17876 -0.0987844 1.61293
-1.21544 0.093215 1.60462
1.12536 -0.051485 1.77234
-1.55484 0.218915 1.74236
1.11876 -0.0396852 1.79809
-1.23444 0.0923148 1.85997
-1.89104 0.320015 1.96208
-1.78824 0.279016 2.14333
-1.96544 0.352716 2.60268
-2.25494 0.420916 2.64914
-1.74854 0.282415 2.76716
0.60486 1.67714 2.74408
-1.96784 0.334415 2.87348
-1.93774 0.336915 2.87267
1.19556 1.99207 3.0856
0.52116 0.109515 -0.735848
-0.887741 -0.0168848 -0.248878
-0.95854 0.0118151 0.0723719
0.768459 0.125115 0.390752
1.88646 -0.217985 0.390632
-0.51224 0.533015 0.81704
1.91166 -0.369884 0.639382
0.863859 -0.0551853 1.12361
1.41186 -0.0664844 1.34759
1.47196 -0.00178524 1.40507
1.15576 -0.120285 1.5049
1.44656 -0.0608844 1.50099
-1.63254 0.228315 1.64788
-1.88414 0.317915 2.07142
-1.33874 0.136416 2.52008
-1.56044 0.205515 2.80804
-2.00014 0.346515 2.87112
1.02846 1.88101 2.88157
0.966659 0.117415 -0.481838
-1.01804 0.025115 0.655962
-1.32164 0.124415 0.948548
-1.71694 0.254815 1.14015
-1.75804 0.258115 1.1496
0.175659 -0.0165844 1.18612
-1.18774 0.0889149 1.96747
-0.679742 0.889684 2.39554
-2.06784 0.387515 2.60326
0.865259 1.78967 2.97561
0.596859 -0.171885 0.344272
-0.95814 0.0291148 0.868282
1.30236 -0.153985 0.893625
1.37406 -0.0940847 1.52637
-0.51944 0.560014 1.92077
-1.23564 0.0925151 1.98692
1.00826 0.205916 2.06164
-1.63004 0.231815 2.17634
0.882959 0.0143157 -0.105068
-1.36074 0.143815 0.801685
0.885059 -0.0487852 1.66103
-1.07614 0.0410147 1.06352
-1.64994 0.236916 -0.0677281
-2.09954 0.372615 0.839092
-1.87324 0.313615 0.508272
-2.24394 0.427015 1.12912
-2.32324 0.439915 1.38733
-1.94704 0.320115 1.03525
-0.867241 -0.015685 -0.218418
-0.75384 -0.0450849 -0.296278
-0.701041 -0.0601844 -0.370368
-2.11564 0.390315 1.66647
-1.51544 0.195615 0.994706
-2.01644 0.356715 2.17247
-1.44854 0.172216 1.49333
-0.814841 -0.0279846 0.672942
-1.86194 0.315415 2.79071
-0.519641 0.691515 2.07882
0.89936 -0.0671844 0.89349
-0.29434 0.620515 2.19985
1.50446 -0.227785 0.390042
1.29776 -0.185884 0.633852
0.69466 0.149315 1.88529
1.25076 -0.101985 1.48481
1.48296 0.0224152 1.33016
1.49646 0.0296154 1.32245
1.39676 -0.0635852 1.50671
0.947359 0.224715 2.19839
1.97556 -0.0971851 2.06698
2.19276 -0.162785 2.19502
-1.98394 0.339215 -0.00598819
-2.17184 0.403115 0.531582
-2.05324 0.363115 0.442602
-1.61554 0.224916 -0.0435281
-1.91724 0.323316 0.454232
-1.36764 0.131115 0.0365819
-1.54314 0.191916 0.335162
-1.73794 0.260615 1.24231
-1.83234 0.276015 1.38364
-1.87144 0.307915 1.52028
-1.69444 0.251115 1.36412
-1.53814 0.208515 1.25173
-1.04824 0.0347148 0.844114
-1.44294 0.162215 1.45174
-1.81944 0.297415 1.98944
-0.81534 -0.0348844 0.661622
-1.44714 0.170515 1.50541
-2.19114 0.413415 2.87069
-1.71254 0.261615 2.35447
1.03816 0.0604153 -0.916928
0.24736 0.118216 0.168272
0.49996 -0.121984 0.135282
1.15286 0.0871154 -0.478708
0.57766 -0.174785 1.14658
1.05326 -0.116285 0.903199
1.05746 -0.108485 0.950689
-0.0832405 0.561615 2.10329
0.0459594 0.511915 1.97028
1.30006 -0.174685 0.853533
0.90856 -0.0771847 1.40126
1.41996 -0.277785 1.11257
1.14056 -0.135485 1.46012
1.44546 -0.265184 1.17874
-0.21994 0.622015 2.72987
1.25136 -0.0962849 1.47028
1.26286 -0.0920849 1.48923
1.36906 -0.0391845 1.47993
1.43176 0.00771527 1.42621
2.16886 -0.456685 0.907834
2.20336 -0.166585 2.08601
-1.54334 0.212515 -0.379048
-1.82994 0.287015 0.392062
-0.97254 0.0175152 -0.487998
-1.51164 0.182615 0.357462
-1.77204 0.281015 1.17734
-1.72414 0.250216 1.23383
-2.13664 0.402516 1.88927
-1.86724 0.304916 1.53712
-0.774941 -0.0287847 0.0739619
-0.00733938 -0.280885 -0.767098
-1.37014 0.143215 1.10564
-1.86654 0.306115 1.85052
-0.548041 -0.100485 0.0956319
-1.06904 0.0511151 0.867261
-2.26334 0.436615 2.85936
-0.280041 -0.195385 0.367852
-2.17994 0.413515 2.86446
-1.89284 0.323316 2.60082
-1.39014 0.156116 2.13762
0.35886 -0.0687847 0.317582
-0.27104 0.0955153 1.35479
0.23596 -0.0721845 0.92698
0.22546 -0.0720844 0.946235
1.76916 -0.158285 -0.868568
0.206459 0.00161558 1.1643
0.30916 0.0331154 1.16446
0.330759 0.028615 1.16902
-0.465941 0.676614 2.25759
0.59736 -0.169485 1.26902
0.991459 -0.090085 0.949244
1.06416 -0.117985 1.16134
