3.04549 -1.2459 -1.23093
2.94679 -1.2031 -1.39323
3.04189 -1.2298 -1.38289
2.81839 -1.17191 -1.56982
3.06739 -1.24211 -1.52544
2.80299 -1.16081 -1.87049
3.00599 -1.23451 -1.8996
3.63039 -1.4335 -1.56127
3.24799 -1.3085 -1.86505
3.01609 -1.23 -2.06799
3.44089 -1.3547 -1.78913
3.29189 -1.3183 -1.9603
3.55749 -1.40301 -1.81645
3.68089 -1.4328 -1.99618
2.15629 2.09554 3.34733
-2.88181 1.03332 3.26541
-2.49821 0.522095 2.12639
-2.49311 0.520395 2.09531
-0.0282105 0.536895 2.20981
-1.95201 0.352795 1.98199
-0.0621098 0.545195 2.0304
1.54549 0.0455955 1.99139
2.20109 -0.178305 2.09093
1.97709 -0.0995051 2.00078
2.23279 -0.183505 2.07611
2.21049 -0.171205 2.06232
-2.46561 0.512596 0.589577
-2.08831 0.369995 0.669835
-0.43871 0.521795 0.89143
-0.421109 0.534595 0.856974
1.06349 -0.117705 1.46996
0.935491 -0.0780045 1.4167
0.43019 -0.103705 1.13755
2.04139 -0.420105 1.62901
1.06889 -0.117405 1.20897
2.06709 -0.441105 1.62752
0.98459 -0.090305 1.09474
-1.96831 0.350095 0.0321173
0.32719 -0.0901048 0.858148
-1.55801 0.215795 0.0207173
2.07939 -0.440605 1.35065
2.10019 -0.445505 1.21207
0.89569 -0.030605 0.609777
2.01539 -0.405305 1.09567
-2.63821 0.552295 -0.857643
1.62559 -0.312506 0.802656
-2.24121 0.417895 -1.02951
2.00549 -0.399405 0.809267
2.30349 -0.707505 1.01936
0.37189 -0.0591046 0.00860735
2.53359 -0.753305 1.04496
2.00989 -0.377106 0.609647
-1.48551 0.188095 -0.938693
2.46479 -0.754405 0.886148
2.12439 -0.411506 0.629897
-1.01131 0.0306953 -0.741843
-0.89631 -0.0134046 -0.740283
-0.85761 -0.0497052 -0.872183
0.288791 0.249395 -0.524552
-2.02411 0.352395 -1.53433
1.87609 -0.353105 0.279848
-1.34961 0.120595 -1.22161
1.45439 -0.232505 -0.0240927
1.70829 -0.311905 0.0417974
1.02879 0.0750954 -0.415753
-2.53461 0.509295 -2.13088
-1.23891 0.103194 -1.53545
2.02589 -0.235405 -0.421443
2.22149 -0.276605 -0.326033
-1.12131 0.0454953 -2.1085
2.15729 -0.222705 -0.524143
1.79499 -0.166405 -0.851443
-1.02331 0.026995 -2.34879
-1.54701 0.186295 -2.9303
1.89769 -0.0191047 -1.11895
2.99839 -1.223 -0.218543
-0.62111 -0.0904052 -2.48793
-0.0760105 -0.292105 -2.1474
1.14149 0.0472949 -1.82745
-0.36101 -0.170905 -2.61905
2.09839 -0.143105 -1.32187
-0.0526093 -0.280105 -2.57227
0.35749 -0.419805 -2.38448
2.85709 -1.1843 -0.886053
2.08089 -0.382405 -1.54024
2.78439 -1.1485 -1.28862
2.54439 -1.0978 -1.90122
3.25089 -1.296 -1.45482
2.59849 -1.09321 -2.01724
3.00949 -1.2327 -1.84297
3.11959 -1.25331 -1.78207
3.37269 -1.33991 -1.84936
3.50089 -1.36211 -1.83991
3.74799 -1.4722 -1.86216
-2.87011 0.990145 3.28173
-2.90871 0.917555 3.28372
-1.91371 0.338495 2.04634
0.0163909 0.528195 2.14201
-0.305809 0.642295 2.01546
-1.97831 0.362895 1.8427
1.20889 0.262995 2.35172
0.557891 0.352295 2.18619
0.776191 0.279795 2.02031
-2.16351 0.398395 1.01408
-2.19301 0.416095 0.98324
1.76379 -0.0260054 2.04434
-2.10641 0.387695 0.828707
1.11769 -0.127705 1.51213
0.41269 -0.103805 1.24409
2.05389 -0.424105 1.59249
0.248891 -0.0684048 0.857566
1.83249 -0.219205 1.351
0.384891 -0.100405 0.874134
1.49919 -0.303305 1.03817
0.910091 -0.0350053 0.653027
1.01569 -0.093805 0.70807
0.940191 -0.0438048 0.633537
1.05399 -0.109705 0.669972
-1.72501 0.273895 -0.531092
1.96579 -0.385805 0.677348
2.05239 -0.388105 0.639577
2.14399 -0.439905 0.679063
2.17179 -0.451905 0.670754
1.26719 -0.176705 0.0518774
1.10799 -0.0180051 -0.186313
1.64189 -0.300905 0.0324373
1.26579 -0.155605 -0.272513
0.905089 0.135095 -0.535452
2.24679 -0.309305 -0.290903
2.28979 -0.692605 -0.174893
2.06139 -0.224305 -0.435893
2.16419 -0.276105 -0.404323
2.14519 -0.245405 -0.484512
-0.420208 -0.171105 -1.82303
-0.893911 -0.00870484 -2.10704
2.17849 -0.234205 -0.542312
2.15169 -0.209005 -0.568072
2.96399 -1.2115 -0.183493
1.60229 -0.0626046 -1.31236
-0.349909 -0.183905 -2.38604
1.10239 0.0534947 -1.85971
-0.21151 -0.255005 -2.51717
0.415691 -0.430705 -2.38612
3.20629 -1.2931 -0.731593
2.12369 -0.279705 -1.81734
3.02649 -1.2399 -1.08035
1.76099 -0.850504 -2.34407
3.09839 -1.26881 -1.82543
3.07189 -1.24851 -1.93265
2.83619 -1.19031 -2.14153
3.58769 -1.4221 -1.61182
-3.49391 0.944925 3.19755
1.12219 0.179295 2.0378
-1.77211 0.285195 0.638787
1.76509 -0.205205 1.51084
2.26299 -0.454305 1.74507
1.83739 -0.185805 1.47556
2.05379 -0.420505 0.830883
1.23329 -0.0480048 0.337907
1.91489 -0.366606 0.612567
2.10919 -0.412105 0.657187
2.50999 -0.756305 0.872327
2.32139 -0.679405 0.72883
2.51169 -0.766705 0.827644
1.35299 -0.254705 0.0305373
1.81219 -0.360905 0.230438
2.63909 -0.717305 0.526107
0.978391 0.123095 -0.601952
0.70349 0.331495 -1.19146
2.01729 -0.174505 -0.532112
2.22249 -0.427405 -0.472542
-0.76391 -0.0521047 -2.37049
2.26769 -0.279905 -0.755473
-0.69271 -0.069905 -2.40078
-0.429009 -0.158805 -2.30458
-0.294508 -0.204405 -2.38347
1.60379 -0.0093047 -1.4202
0.200391 -0.352105 -2.35191
2.46029 -0.193005 -1.13521
2.98899 -1.2111 -0.634013
2.17489 -0.366005 -1.47216
0.51889 -0.461406 -2.41537
1.95739 -0.335105 -1.6219
2.11649 -0.297805 -1.78609
2.19639 -0.988605 -1.85777
1.84789 -0.879405 -2.35058
2.14999 -0.967505 -2.16208
-3.05751 0.867095 3.17703
-1.94201 0.348495 1.9083
-0.46571 0.360995 1.61725
-1.45501 0.194195 1.29815
-2.11991 0.379695 0.995425
2.05789 -0.249505 1.91732
0.851689 -0.0546052 1.49709
1.58389 -0.00780457 1.24724
1.70459 -0.158905 1.29223
0.273391 0.0539954 0.218987
-2.38871 0.486995 -1.12166
1.40819 -0.234005 0.322878
2.26469 -0.682705 0.370227
1.55419 -0.260005 -0.225923
1.94689 -0.182305 -0.518892
2.27109 -0.314505 -0.834523
1.51469 -0.00350542 -1.36038
1.59189 0.0113948 -1.38161
1.63509 -0.0258052 -1.35367
1.50689 0.00809507 -1.44419
2.47119 -0.205805 -1.22274
1.41949 -0.636505 -2.31448
2.01959 -0.921905 -2.11648
3.06149 -1.25481 -1.88211
-3.63871 1.22862 3.14545
-2.02221 0.377195 1.92662
-0.313809 0.621895 1.97302
-1.51581 0.206695 1.14376
-0.508109 0.325695 1.15674
-0.486909 0.380895 1.09656
0.930289 -0.0548055 1.27621
1.55469 0.00189524 1.2877
0.269191 0.096595 0.144368
1.18469 -0.189005 0.226327
1.44209 -0.217605 -0.235693
2.31819 -0.714405 0.189058
1.57799 -0.251105 -0.332053
2.11139 -0.095905 -1.10571
0.96429 0.0920947 -1.76934
2.38459 -0.509205 -0.865013
2.30879 -0.163605 -1.11667
1.80639 -0.309505 -1.75108
3.22059 -1.2826 -0.765913
1.20869 -0.216905 0.175428
1.07979 -0.0117051 -0.120013
1.48819 -0.236205 -0.281033
1.44669 -0.170205 -0.347243
3.60179 -1.4186 -1.74477
-1.86971 0.270195 1.74944
1.10369 -0.107405 0.243968
2.44269 -0.531905 -0.626763
0.98879 0.110895 -0.259133
1.10599 -0.0100047 -0.227773
2.00039 -0.361105 0.250858
2.44479 -0.586105 -0.410752
0.212991 0.107795 0.265078
2.27779 -0.403605 0.236167
2.49699 -0.719405 0.420557
1.85969 -0.151005 -0.514453
2.56329 -0.591905 -0.490292
-3.64591 1.26351 3.17485
1.86419 -0.277905 1.49647
2.28719 -0.463405 -0.780423
3.37609 -1.3429 -1.99945
3.61429 -1.4237 -1.8486
3.61319 -1.42181 -1.834
0.83039 -0.567205 -2.3902
0.87639 -0.573905 -2.37428
0.801391 -0.555205 -2.3727
2.80889 -1.1775 -1.83809
3.57879 -1.4069 -1.62035
0.272191 -0.378405 -2.34094
-0.058009 -0.265205 -2.38846
2.62569 -1.10791 -1.6669
-2.07111 0.343395 -2.74416
2.83819 -1.1922 -1.56849
3.27999 -1.3114 -1.42647
-2.21701 0.409095 -2.70355
-2.25981 0.429195 -2.68163
-0.973809 -0.00470515 -2.34804
2.45039 -1.0612 -1.54429
-0.14391 -0.259105 -2.13617
-2.52571 0.509395 -2.56075
2.82189 -1.177 -1.21669
2.84859 -1.1871 -1.20571
-1.83241 0.276595 -2.08049
2.62999 -1.1061 -1.01901
-1.97211 0.326695 -1.83477
-2.22691 0.413495 -1.85431
2.79179 -1.1597 -0.888083
1.65779 -0.132605 -0.893243
-1.10651 0.0588953 -1.51668
-1.66861 0.230895 -1.42908
-0.44031 -0.159205 -1.20371
-2.56301 0.521495 -1.54127
-0.686611 -0.0740048 -1.20613
-0.83991 -0.0251052 -1.19403
2.17389 -0.221605 -0.548252
1.15879 0.0798953 -0.531952
-0.36171 -0.199305 -0.865973
-2.57501 0.521095 -1.11485
-2.15281 0.378695 -1.00225
-1.36451 0.137795 -0.843983
-2.14421 0.402295 -0.918673
-2.20971 0.402995 -0.844393
-2.24671 0.420595 -0.817243
-1.92511 0.312995 -0.762253
-0.936811 0.00329523 -0.506382
-1.07981 0.050895 -0.512302
-1.41001 0.150095 -0.197923
-2.47371 0.495295 -0.209373
-2.55101 0.512596 -0.204593
-0.73101 -0.0592048 0.0559874
-0.78061 -0.0409047 0.0571973
-1.98591 0.349595 0.000737267
-1.52731 0.184395 0.0771073
-2.33011 0.455595 0.0843174
1.34529 -0.251005 0.544287
0.24019 -0.017205 0.491687
-0.0575093 0.106095 0.571417
2.08199 -0.440306 0.831125
-0.0620106 0.106595 0.719495
1.60639 -0.294705 0.852005
2.03099 -0.410605 0.932661
2.11809 -0.447005 0.968076
-2.16061 0.405995 0.759397
0.80939 -0.0382048 0.948236
-0.52901 0.371095 1.13177
2.28409 -0.706705 1.27358
1.70579 -0.217505 1.34773
2.03989 -0.406505 1.42985
2.17279 -0.463506 1.45662
0.85929 -0.0520045 1.46166
0.810491 -0.0431048 1.47354
0.98089 -0.0923049 1.48397
1.86789 -0.352705 1.50725
0.98359 -0.0941054 1.61903
-3.56581 0.909606 1.74809
-1.68121 0.229995 1.79608
-1.90621 0.311295 1.94994
-3.57651 0.914546 1.99984
-2.08951 0.399594 2.12306
1.80229 -0.0442054 2.24139
1.32409 1.9372 2.80614
-2.90371 0.903366 3.29565
-2.85661 1.03661 3.29118
3.73759 -1.44941 -1.8716
2.59839 -1.0977 -1.90413
-0.17581 -0.152605 -2.60001
0.61659 -0.497505 -2.3674
3.63399 -1.4357 -1.56025
-0.0440091 -0.281405 -2.33994
-1.77481 0.251895 -2.73181
3.13589 -1.26661 -1.47776
2.89339 -1.1925 -1.52918
-1.85431 0.282195 -2.31241
-1.21051 0.0794947 -2.09284
2.89009 -1.1895 -1.19715
-0.427109 -0.169905 -1.8311
2.99029 -1.23091 -1.0764
3.07069 -1.25261 -0.889353
-2.05501 0.331995 -1.54543
-0.48531 -0.138205 -1.24729
2.06709 -0.202905 -0.576542
2.26679 -0.256605 -0.537382
2.06399 -0.183205 -0.558342
-1.32531 0.122595 -1.21944
2.90589 -1.201 -0.201823
-1.90681 0.311495 -0.883893
-1.40171 0.132595 -0.770033
-2.25771 0.440995 -0.759243
2.40389 -0.729205 -0.0779927
1.51349 -0.252005 -0.0761627
2.79449 -1.1595 0.0759974
1.36739 -0.202705 -0.0158227
1.16409 -0.135105 -0.0191927
1.75689 -0.330105 0.0866874
2.52529 -0.768304 0.329118
-2.48841 0.494195 -0.191373
2.11019 -0.425405 0.690483
2.56599 -0.777005 0.806322
0.85739 -0.047405 0.701236
2.47449 -0.753505 0.886288
0.33299 -0.092405 0.859847
2.29989 -0.697205 0.994291
2.28599 -0.693705 1.01006
-0.157109 0.098695 1.1004
-2.05641 0.374095 1.01146
0.89249 -0.0785052 1.18718
1.65769 -0.0628049 1.2533
1.67269 -0.0378053 1.31379
1.61529 0.052995 1.32086
1.60099 0.0231946 1.36228
1.72439 -0.127205 1.40682
-1.61961 0.222795 1.37159
1.86859 -0.314305 1.48986
-2.29741 0.432995 1.38325
0.00368987 -0.00250502 1.5651
-2.07911 0.394595 1.83609
-0.270609 0.608895 2.09332
2.18429 -0.165005 2.0723
0.597591 0.342495 2.16494
0.145391 0.488995 2.18362
0.75649 0.292695 2.18201
1.18349 0.149395 2.18383
1.36899 0.0914948 2.18327
1.68829 1.82301 2.73926
1.91659 1.75428 2.81107
-1.16951 1.58647 3.31935
2.20409 2.03644 3.34722
-0.214409 -0.236205 -2.59358
-0.0928104 -0.261605 -2.32365
2.93739 -1.2089 -1.55618
-1.11921 0.0387948 -2.36867
-2.34581 0.452995 -2.05075
2.59849 -1.10221 -1.04483
3.35429 -1.329 -0.879893
3.01219 -1.2153 -0.795043
-1.23101 0.104995 -1.53423
3.06489 -1.2412 -0.604232
-0.655009 -0.0916049 -1.2202
3.13649 -1.27101 -0.453582
2.07329 -0.195105 -0.483972
-0.959411 0.000694562 -0.860753
-2.21241 0.390395 -1.03851
1.20169 -0.149605 -0.164853
2.85049 -1.1724 0.0515073
-2.35401 0.367994 -0.607242
2.35939 -0.698105 0.264678
-1.81231 0.268195 -0.175203
2.30489 -0.711005 1.01807
1.61859 -0.0308053 1.24799
1.68789 -0.0569054 1.43097
-2.03641 0.375495 1.79273
1.64989 0.00669508 1.96112
0.924291 0.235595 2.02017
-2.28211 0.449895 2.15284
-2.02361 0.368395 2.14704
-2.80011 0.610495 2.30264
3.70109 -1.4517 -1.85427
2.14979 -0.965505 -2.16404
3.17909 -1.28721 -1.88664
3.27669 -1.3198 -1.84605
3.15019 -1.28911 -1.84388
3.08369 -1.27321 -1.83147
0.30799 -0.385605 -2.3691
-0.71471 -0.064305 -2.60625
2.29319 -0.409905 -1.53701
2.70829 -1.1266 -1.23688
0.909091 0.300495 -1.12265
-1.65481 0.216495 -1.56899
-2.07581 0.382195 -1.54954
3.10089 -1.26541 -0.547572
2.17059 -0.197005 -0.533842
1.20349 -0.0159051 0.373737
1.00999 -0.0885054 0.629837
2.58229 -0.791305 0.831606
1.60939 -0.192405 0.925316
1.64299 0.00539522 1.35482
-1.98031 0.362695 1.83763
0.608991 0.329995 2.00222
1.51749 -0.735905 -2.40764
2.59219 -1.09241 -2.05385
1.41699 -0.629905 -2.32698
3.04359 -1.2644 -1.87708
2.05569 -0.264805 -1.80731
1.06569 0.0384954 -1.81181
-0.41931 -0.156605 -2.30656
3.23639 -1.3035 -0.725483
0.99019 0.120495 -0.841773
1.85889 -0.193305 -0.607982
-1.55011 0.202595 -1.17833
1.36829 -0.239105 0.0231273
1.81479 -0.329405 0.0888474
1.90909 -0.304005 0.289428
1.51409 -0.249905 0.291737
1.93149 -0.382205 0.666607
0.445491 -0.0906054 1.17629
1.61749 -0.0358054 1.31155
1.73199 -0.0923049 1.41812
1.78439 -0.161305 1.46667
1.72909 -0.165905 1.48963
2.01409 -0.114605 2.02476
0.0471908 0.524695 2.18078
2.19679 1.95735 3.3442
2.36549 -1.0058 -1.84465
2.18229 -0.312305 -0.450893
1.54249 -0.256405 -0.231323
1.27929 -0.226905 0.0970974
1.81619 -0.366805 0.225277
1.18039 -0.176305 0.285808
2.62639 -0.768205 0.528857
1.46749 -0.149805 0.726558
1.17149 -0.188505 0.720581
1.56279 0.00229482 1.34581
2.89859 -1.213 -1.60892
1.43359 -0.173605 -0.346433
0.977891 0.0905945 -0.334763
0.00788984 0.486195 1.96876
2.23089 -0.156205 2.04321
1.71469 0.0024951 -1.42683
2.69969 -0.617405 -0.344633
-0.50711 0.378095 1.01275
2.05389 -0.433105 1.5532
-0.0708091 0.0260948 1.33058
1.66719 -0.386305 1.02803
1.49869 -0.288205 1.04117
1.41669 0.00229482 1.39514
-1.50051 0.169395 -2.92495
-2.13851 0.385695 -2.71637
-2.29361 0.419395 -2.66897
-1.49481 0.168195 -2.83335
-1.11331 0.0497954 -2.79068
-1.02651 0.0140946 -2.70978
-2.20621 0.400795 -2.34563
-0.351809 -0.167405 -2.61653
-2.17001 0.402695 -1.8551
-1.82111 0.273095 -1.89548
-0.314308 -0.239605 -2.36242
-1.10431 0.0437949 -2.04468
-0.848211 -0.0268046 -2.10947
-1.09701 0.0453952 -2.02024
0.41229 -0.427305 -2.38721
-2.13001 0.376695 -1.54948
0.539291 -0.470205 -2.36664
-1.66541 0.233795 -1.45147
-1.68551 0.251495 -1.41706
-1.66611 0.230695 -1.43065
-1.65251 0.232295 -1.40582
-1.25571 0.106895 -1.46651
-1.26651 0.0936949 -1.22364
-2.10251 0.372695 -0.841153
-0.80001 -0.0426051 -1.1934
1.89279 -0.890205 -2.12325
-1.49201 0.171395 -0.903513
1.95229 -0.328805 -1.5792
-2.18541 0.389395 -0.505952
2.08199 -0.365805 -1.55001
2.08029 -0.380505 -1.54092
0.848291 0.122295 -0.861353
1.09479 0.0491946 -0.886293
2.99539 -1.2283 -2.0582
2.93679 -1.2054 -1.98876
2.66639 -1.1239 -1.85763
1.15979 0.078295 -0.575702
2.94069 -1.2062 -1.85349
1.16409 0.0822947 -0.532312
2.96759 -1.2201 -1.84004
-2.42361 0.444695 0.394767
3.53089 -1.3845 -1.9684
2.54389 -1.07771 -1.52939
-2.53711 0.515295 0.581347
-2.59731 0.521195 0.646727
3.11929 -1.26521 -1.68176
3.52459 -1.3955 -1.83875
2.75349 -1.138 -1.45406
2.93659 -1.2122 -1.51848
1.14329 0.00769453 -0.220843
2.29099 -0.270705 -0.569162
2.29649 -0.262105 -0.537823
2.95139 -1.2017 -1.39062
0.33089 -0.0118052 0.0541274
1.34359 -0.192905 -0.267153
2.79779 -1.1651 -1.23625
1.69239 -0.299505 -0.284693
3.03349 -1.2382 -1.23664
-2.02951 0.352695 1.01739
-3.59071 0.938105 2.00922
-2.32181 0.436695 1.38195
-0.02151 0.052295 0.684889
1.75009 -0.325805 0.0633474
-2.27991 0.434895 1.60145
3.03539 -1.2377 -0.781383
0.101291 -0.0335051 0.888851
3.25959 -1.3177 -0.741293
0.88639 -0.0627047 0.935311
0.326291 0.026995 1.15472
0.966291 -0.0848052 0.929681
3.14259 -1.2634 -0.482102
3.12359 -1.25841 -0.465803
2.37759 -0.661505 0.161748
2.94539 -1.1939 -0.356033
-1.90331 0.325595 2.07899
-2.22571 0.427995 2.33617
-0.43381 0.662195 2.14939
-0.26051 0.611395 2.07007
-0.24841 0.602695 2.07313
2.52059 -0.764705 0.329188
0.36679 -0.117105 1.45784
0.34979 -0.111005 1.47685
2.85549 -1.18961 0.0797874
-2.98771 0.841285 3.27101
1.33359 1.94842 2.73269
1.67209 -0.0483052 1.29628
1.27469 1.9499 2.80077
2.12559 -0.440505 0.923716
1.29819 1.94625 2.80294
0.36099 0.417595 2.06573
0.374391 0.405495 2.07001
1.72329 1.81028 2.59893
0.347791 0.405595 2.09007
1.72419 1.81422 2.63343
2.53549 -0.774405 0.713566
1.71619 1.80911 2.74068
1.71929 1.81343 2.81059
1.87159 -0.256305 1.41388
1.62529 1.84289 2.94319
1.97559 -0.400505 1.47701
2.12629 -0.446805 1.44339
2.14199 -0.453905 1.47495
2.28749 1.64084 2.80855
1.61439 0.0118955 2.07057
2.02559 -0.110605 2.07542
-1.93721 0.312895 -2.96129
-1.57021 0.179595 -2.94147
-2.04531 0.351595 -2.73805
-2.14561 0.379495 -2.68721
-2.05351 0.325695 -2.7233
-2.02531 0.352494 -2.66469
-2.06681 0.354895 -2.31307
-2.02551 0.329895 -2.30831
-0.162709 -0.167205 -2.61435
-1.33981 0.137195 -2.32779
-0.279108 -0.199405 -2.54359
-0.84901 -0.0523049 -2.31541
-0.416209 -0.165505 -2.34902
-1.18871 0.0850947 -2.09296
-0.27571 -0.224305 -2.37702
0.35609 -0.403405 -2.54512
-0.89651 -0.0166051 -2.1035
0.37539 -0.413905 -2.37194
-2.17711 0.396295 -1.51223
-0.62061 -0.106905 -1.85275
1.42269 -0.595805 -2.3448
-2.75431 0.569495 -1.08285
-0.43311 -0.167905 -1.8308
-1.95701 0.325795 -1.28876
-2.04991 0.362095 -1.13021
1.35729 0.0335954 -1.37372
-0.89231 -0.00720471 -1.21818
-0.978509 -0.035505 -1.21491
-1.50301 0.176595 -0.940663
-1.52811 0.186295 -0.906503
1.53439 -0.0218055 -1.32762
1.61449 -0.0448052 -1.32537
-0.39881 -0.168705 -1.22545
-1.34831 0.125895 -0.865803
2.02479 -0.922005 -1.95753
2.01889 -0.930905 -1.9372
2.28729 -1.0046 -1.8227
2.30769 -1.0113 -1.81156
2.42229 -1.05331 -1.82298
-1.60841 0.226695 -0.215753
2.67029 -1.1138 -1.88174
2.80739 -1.17411 -1.87323
1.14539 0.0944951 -0.514133
-1.59871 0.227895 -0.000662734
-2.48221 0.495995 0.648047
-2.41491 0.479596 0.646027
2.93599 -1.2147 -1.55891
2.08099 -0.191205 -0.548502
2.15869 -0.220905 -0.532203
-1.30331 0.139095 0.382557
-1.81231 0.286895 0.630257
2.77839 -1.1492 -1.3303
0.374591 -0.0626046 0.0108273
2.20429 -0.247805 -0.422543
2.26569 -0.381306 -0.532422
3.41729 -1.34761 -1.45406
2.64089 -1.11921 -1.04531
2.89499 -1.1815 -1.11182
3.21799 -1.2904 -1.20048
1.57059 -0.266305 -0.0331626
1.23939 -0.163605 0.114107
1.59989 -0.272205 -0.0416027
3.01799 -1.2249 -0.791533
0.34979 -0.105705 0.720582
-2.39501 0.462495 1.82838
3.17419 -1.2778 -0.760173
3.03239 -1.2306 -0.589992
-0.38091 0.144695 1.29582
-2.78731 0.610595 2.30129
-1.95781 0.362394 2.02607
0.42859 -0.105205 1.13249
1.52659 -0.340705 0.684838
0.445991 -0.117605 1.17684
2.01869 -0.379405 0.606407
1.07049 -0.116905 1.206
-0.26541 0.608495 2.17695
1.60109 -0.00220461 1.27901
-0.259709 0.615395 2.29783
0.300191 0.438195 2.04713
1.00089 -0.101305 1.49086
1.03619 -0.128605 1.48913
2.27969 -0.696105 0.714551
0.89319 -0.0662047 1.62024
1.32949 1.92874 2.90575
1.71279 -0.141405 1.40486
1.74639 1.80073 2.70969
2.67369 -0.831905 0.667992
1.85459 -0.225405 1.40213
2.56319 -0.782505 0.813438
0.563791 0.343995 2.23424
0.68139 0.313295 2.17728
2.18769 -0.461505 1.18874
2.31499 -0.703205 0.988004
2.02419 -0.407905 1.4342
2.06799 -0.412305 1.41997
1.95059 -0.391805 1.49014
2.03149 -0.416905 1.5842
2.07409 -0.128305 2.1319
-1.93241 0.336295 -2.37447
-2.55761 0.520795 -2.10667
-0.70671 -0.0696046 -2.58808
-0.64931 -0.0856053 -2.60708
-0.45311 -0.146905 -2.60418
-0.10691 -0.239605 -2.5801
-0.259209 -0.219205 -2.50357
-0.210009 -0.245305 -2.51683
0.38819 -0.416105 -2.52936
-0.0842102 -0.260805 -2.32281
0.81599 -0.564405 -2.38729
-0.771211 -0.0689046 -1.84738
-1.23611 0.104995 -1.50018
-2.17651 0.400695 -1.06176
1.70549 -0.816705 -2.37139
-2.21681 0.394395 -1.03648
-2.13251 0.383595 -1.02495
-1.49291 0.175095 -1.2224
-2.25651 0.432695 -0.729723
1.30099 0.0421946 -1.34977
-2.20381 0.401795 -0.738493
-0.48471 -0.156705 -1.22625
2.10489 -0.376705 -1.56602
2.15189 -0.0770051 -1.13353
1.15489 0.0872948 -0.585102
2.77479 -1.15021 -1.82216
2.78159 -1.1539 -1.79637
1.09149 0.029095 -0.478963
1.13459 -0.0407054 -0.544572
-2.31861 0.461996 0.381097
1.12109 0.0498946 -0.333283
3.61199 -1.41971 -1.82964
2.20649 -0.244105 -0.570772
2.04779 -0.225605 -0.403212
2.55829 -1.06721 -1.16302
2.17979 -0.278806 -0.405852
-0.43211 0.515396 0.740307
2.23839 -0.325605 -0.361273
0.32149 -0.00620527 0.531537
0.901691 -0.0398051 0.607227
0.905789 -0.0433051 0.661337
-1.94171 0.340595 1.63349
1.04199 -0.0996053 0.624657
1.89459 -0.363305 0.274007
3.23779 -1.33771 -0.735523
-2.49001 0.525495 2.09433
3.07749 -1.26101 -0.568252
0.96059 -0.0942046 1.10373
-0.423409 0.668995 2.0381
0.88259 -0.0763051 1.20046
2.02199 -0.387205 0.662837
1.58919 -0.173705 0.952684
-0.12431 0.572695 1.99876
2.57959 -0.786105 0.417567
0.0194903 0.524595 2.14543
1.44689 -0.0161054 1.42937
0.419891 0.390395 2.03425
2.12039 -0.439405 0.968995
2.15049 -0.453805 1.22217
1.87499 -0.352805 1.47587
1.91619 -0.367905 1.53192
2.04949 -0.122805 2.16333
-2.16321 0.357995 -2.32305
-2.58421 0.525896 -1.68661
0.31689 -0.378205 -2.36399
0.224191 -0.363505 -2.32143
-2.08071 0.363195 -1.56014
0.45989 -0.475705 -2.39894
1.02679 0.0891945 -1.80806
1.46099 0.0251954 -1.38689
1.96119 -0.905605 -2.13095
1.64359 -0.0639054 -1.35976
-1.42891 0.159195 -0.825553
2.30879 -1.0304 -2.14628
2.27469 -0.0978047 -1.27031
2.29539 -0.411205 -1.53555
2.82539 -1.18121 -2.13489
1.67579 -0.124605 -0.852523
3.10549 -1.2635 -1.88538
3.13129 -1.2782 -1.86032
3.08969 -1.269 -1.83222
3.14959 -1.2957 -1.84527
-1.46521 0.151295 0.0388373
2.54959 -1.0754 -1.53316
3.18579 -1.2964 -1.80849
3.56189 -1.37501 -1.83308
1.58649 -0.278405 -0.188073
1.23869 -0.182605 0.117717
1.27469 -0.214505 0.0979174
2.70919 -0.631805 -0.248213
-2.11191 0.407294 1.90643
-2.05361 0.388395 1.90478
1.37369 -0.234905 0.582517
1.44339 -0.227105 0.575087
0.875791 -0.0545051 1.17071
2.06829 -0.421705 0.832568
2.09809 -0.456105 0.804562
0.944791 -0.0818049 1.48637
1.67039 -0.0399052 1.31743
0.157991 0.489495 2.17821
2.12629 -0.444205 0.958012
2.17609 -0.450505 0.963899
0.65179 0.177295 1.91463
2.31139 -0.698105 1.26404
2.01929 -0.102405 2.18772
-2.36551 0.477396 -2.48977
-0.393109 -0.151705 -2.3558
-0.42861 -0.167005 -2.31474
0.21749 -0.358005 -2.35676
-2.49241 0.462495 -1.13985
0.78979 0.358195 -1.22968
1.89689 -0.878905 -2.3888
0.997689 0.217495 -1.30815
1.41749 -0.0216052 -1.33144
1.63359 -0.0857055 -1.32701
2.53879 -1.0801 -2.03859
2.58999 -1.10781 -2.06596
2.37709 -0.486305 -1.49257
2.96239 -1.20361 -1.74223
3.28059 -1.3281 -1.85608
2.20229 -0.225705 -0.478242
0.390191 -0.115005 0.384507
-1.54581 0.210195 1.07989
3.11319 -1.25761 -0.806513
0.10679 -0.0368049 0.888945
3.23979 -1.2868 -0.757873
-1.79741 0.273695 1.85643
0.44139 -0.100005 1.17382
2.32579 -0.711805 0.240228
-0.0454091 0.0451949 1.45909
0.97729 -0.0843055 1.28578
2.16859 -0.449405 0.749087
1.50729 0.0617945 1.3192
0.260591 0.458895 2.08479
2.01609 -0.403205 0.952878
2.03869 -0.428505 1.16071
0.56409 0.350095 2.18522
1.87439 -0.0645053 2.17923
-0.521809 -0.147905 -2.64763
1.59009 0.0886948 -1.51688
1.65799 -0.0982053 -1.33253
2.54199 -0.322205 -1.20659
3.60669 -1.4224 -1.74103
-1.57361 0.216695 1.1434
0.33159 -0.069905 0.617897
1.39749 -0.141105 0.672954
2.06509 -0.406205 0.608117
1.88509 -0.282805 1.45325
2.06629 -0.250705 1.91317
0.780089 0.108995 -0.997043
2.46729 -0.545105 -0.634553
-0.37171 0.310595 1.51731
2.28589 -0.696405 0.341597
1.60909 -0.313105 0.93723
1.91519 -0.384305 0.898926
1.60549 -0.0273053 1.29852
0.93489 -0.0853049 1.56351
-0.480109 0.331095 1.06801
1.48979 -0.140005 0.781362
0.921889 -0.177805 -2.05357
0.98709 0.119895 -0.258183
0.699491 -0.0013053 0.354828
2.45059 -0.777305 0.443137
0.96059 0.0120948 -0.0542927
1.31739 -0.148605 -0.0817926
1.24129 -0.107905 0.424467
2.85179 -1.2026 -0.257543
1.58539 -0.302005 0.861655
2.47509 -0.694604 0.323568
-0.0985096 0.110095 1.28662
-2.56151 0.508595 -2.08748
-2.19931 0.387795 -2.70934
-2.01221 0.354895 -2.73455
-2.17311 0.401795 -1.85665
-3.60641 0.932955 1.76206
-1.73341 0.247395 -2.34619
-2.52031 0.521595 -0.194713
-2.00971 0.338095 -1.28002
-1.35001 0.127595 -2.65559
-2.08411 0.356495 -1.00044
-1.45081 0.159895 -2.11101
-3.59151 0.935336 2.98151
-1.66381 0.224895 -1.46349
-1.66731 0.228195 -1.43109
-2.42441 0.488895 0.588157
-2.85861 1.03968 3.29673
-2.87891 1.02523 3.26843
-1.84951 0.315095 0.398207
-0.34821 -0.169805 -2.61412
1.33539 1.93544 2.8023
-2.11541 0.406594 2.01928
0.73759 0.367595 -1.20935
-0.0738094 -0.262805 -2.27356
1.62539 1.84371 2.94225
-1.67081 0.255695 1.64528
-0.381009 -0.166805 -1.19726
0.38869 -0.413505 -2.57179
0.26299 0.112195 0.153928
0.986591 0.140795 -0.582372
2.27619 1.64096 2.80999
0.890691 -0.572105 -2.37017
0.899591 -0.589905 -2.36961
0.372689 -0.0632054 0.00713738
1.19379 0.0806954 -0.620883
0.36679 -0.0747048 0.208728
0.31429 0.0211948 1.15499
0.278791 -0.0442054 1.03418
1.66289 -0.796705 -2.36053
1.00299 -0.0940053 0.917869
1.97929 -0.226905 -0.883623
1.69369 -0.298205 -0.283433
1.71559 -0.295905 -0.299433
1.47149 -0.222405 0.384257
0.99229 -0.108605 1.44401
2.14379 -0.210805 -0.538742
1.02469 -0.109005 1.46848
2.29539 -0.254105 -0.596102
1.55449 -0.140105 0.912718
2.00259 -0.913405 -1.97246
1.60679 -0.0193049 1.24199
2.30439 -0.276205 -0.534092
2.25489 -0.367805 -0.543762
1.68669 -0.0446049 1.34184
1.87009 -0.346405 0.280667
1.55249 0.0414946 2.01909
2.29059 -1.0188 -1.8122
1.82179 -0.206305 1.44249
1.83069 -0.212805 1.41593
1.87139 -0.257005 1.41474
1.78249 -0.0358054 2.1866
2.69589 -0.558205 -0.583862
1.84659 -0.0537049 2.18757
2.05389 -0.415605 0.925095
2.78069 -1.1632 -1.83147
2.79369 -1.1743 -1.84877
2.78469 -1.168 -1.6552
2.93549 -1.20361 -1.98602
3.01189 -1.23231 -2.07051
3.02449 -1.2385 -2.09294
3.00949 -1.23311 -1.89347
2.90279 -1.1891 -1.42076
2.90039 -1.194 -1.16582
3.16309 -1.2848 -1.80487
2.53999 -0.771605 0.716759
3.07489 -1.2532 -0.887403
3.89849 -1.5176 -2.12226
-1.99781 0.338095 -2.71009
-2.01541 0.333395 -2.29199
-3.58841 0.938285 1.72779
-1.50431 0.169795 -2.79984
-3.56751 0.917945 2.02052
-2.92891 1.15994 3.27337
-0.81261 -0.0392052 -2.66734
-1.68921 0.233895 1.37038
0.32619 -0.417905 -2.55442
0.443691 -0.440505 -2.40769
-0.261509 0.614095 2.29764
-0.0706089 0.553996 2.05982
0.0324908 0.00059538 1.26429
0.83769 0.0323947 0.289258
1.81359 -0.118005 -1.33801
0.283589 -0.0865046 0.838956
0.307191 -0.0621049 1.02792
0.344091 -0.102905 0.875883
2.11919 -0.276305 -1.84493
0.436691 -0.114905 1.20818
2.02429 -0.331305 -1.62735
0.81739 -0.0421054 1.47372
0.88969 -0.0676047 1.61386
2.30179 -0.440705 -1.52296
2.10939 -0.206405 -0.544672
1.65589 -0.295305 -0.0152626
2.13119 -0.226405 -0.504402
1.18969 -0.118705 1.62813
1.82609 -0.227505 0.372427
1.58709 -0.171405 0.955376
2.32389 -1.01331 -1.6708
1.85159 -0.224505 1.39882
2.52639 -1.095 -1.86559
1.89929 -0.0669047 2.28739
2.27639 -0.692405 0.263718
2.14109 -0.453205 1.46206
2.16409 -0.464605 1.44316
2.98559 -1.2277 -1.08086
-3.58991 0.962875 1.66843
-1.83481 0.272495 -2.04455
-0.946309 -0.0179049 -2.73766
-1.44111 0.167495 -1.13269
-1.83131 0.286195 -0.202023
-1.73511 0.256395 1.11962
0.265691 0.235495 -0.498523
0.951791 0.0936949 -0.452523
0.159989 0.474995 2.19659
1.95179 -0.326105 -1.64368
0.81479 0.272795 2.04202
1.21379 -0.164905 0.175168
0.896991 -0.0673052 1.42504
1.84909 -0.871605 -2.34084
0.897191 -0.0605046 1.48414
2.16169 -0.217005 -0.529112
1.65229 -0.295605 0.0528073
1.16539 -0.0992047 1.61436
1.64039 -0.0536048 1.22796
1.42339 0.0737946 2.16263
2.27109 -0.367805 -0.214463
1.64619 0.0203946 2.01826
2.08249 -0.397105 0.636867
1.94269 -0.388905 0.914272
2.07179 -0.430905 0.949889
1.94789 -0.378005 1.4365
2.02729 -0.432005 1.16518
2.11939 -0.433505 1.22478
2.14419 -0.449205 1.2557
2.01309 -0.410505 1.61399
-1.17961 0.083895 -1.47677
-0.284609 0.600895 2.11655
1.10879 0.0681947 -0.197473
0.777091 0.279595 2.02217
0.86629 -0.0548055 1.1701
1.01659 -0.100405 1.10201
2.01359 -0.180805 -0.517592
1.35009 -0.228305 0.403417
0.97409 -0.102905 1.33337
2.11919 -0.217905 -0.473543
1.08699 -0.107905 1.52695
1.64139 0.00129538 1.30747
1.98199 -0.396806 1.10189
2.92649 -0.507205 -0.525982
1.91089 -0.376305 1.52225
2.57809 -1.0873 -1.30787
2.73079 -0.681005 0.166838
3.06919 -1.253 -1.84191
3.09869 -1.2721 -1.8246
2.93689 -1.20641 -1.21178
3.18639 -1.28421 -1.78847
3.12829 -1.24991 -0.811723
3.76289 -1.45851 -1.90385
-1.55021 0.210195 1.07968
-1.91811 0.332495 2.03737
0.316791 0.165795 -0.460593
1.46799 0.0175946 -1.39633
0.22939 0.442595 2.05089
0.992391 -0.0965049 1.05082
0.93119 -0.0825049 1.54297
2.36169 -0.428905 -1.467
1.55889 -0.302905 0.403017
2.21329 -0.277205 -0.333203
1.78629 -0.347205 0.182177
1.58069 -0.390205 1.1131
1.98309 -0.400605 1.17836
2.05889 -0.123405 2.04668
2.06769 -0.421305 1.47274
-1.58091 0.218495 1.14905
-0.35361 0.446595 0.764419
-0.567109 0.705095 2.04307
0.310189 0.082495 -0.234873
0.40019 0.0635951 -0.361523
1.19369 0.019995 -0.591502
0.36559 -0.0742051 0.591907
0.99039 -0.0623051 0.67454
2.15689 -0.214205 -0.584932
2.01899 -0.111705 2.13017
0.298989 0.195195 -0.401673
0.30239 0.0739949 -0.238803
2.01429 -0.182005 -0.576142
1.46939 -0.163705 0.811777
3.54689 -1.40871 -1.69024
-0.358408 0.343195 0.938193
1.03679 0.0161946 -1.78774
0.793691 0.126495 -0.440982
1.57499 -0.206705 0.905582
1.95569 -0.352205 0.243048
2.68329 -0.678405 0.138368
1.10519 0.105995 -0.478532
2.14339 -0.243605 -0.260473
1.55179 -0.333405 1.01388
-3.71301 1.18302 3.19752
0.30449 0.0857947 -0.887703
0.410091 0.107595 -0.374923
0.162891 0.152195 0.332667
2.89789 -1.168 -0.518513
-3.57111 1.28894 3.19673
-2.88681 1.02881 3.26619
-2.89971 0.860095 3.28632
1.29419 1.93917 2.94113
-3.55211 0.928165 1.93366
1.71419 1.81067 2.81087
-3.57341 0.917636 -0.102373
-1.95471 0.350695 2.00172
-3.55291 0.899285 -1.26505
-0.25051 0.610896 2.17057
-3.53671 0.898355 -2.5058
-2.58101 0.521395 -1.11461
-0.36971 0.433195 0.820096
-1.53331 0.190095 0.0886873
-2.18981 0.402595 -1.49997
0.445689 -0.120605 1.19792
-0.84851 -0.0635049 -0.887233
1.03949 -0.114405 1.44498
1.61789 0.024195 1.28079
1.16729 0.0618947 -0.524362
0.11559 -0.331805 -2.36589
1.73929 -0.324705 0.0927273
2.00629 -0.371405 0.625727
1.77199 -0.333205 0.0550073
1.60139 -0.0621049 -1.3369
0.41579 -0.420105 -2.52002
2.14479 -0.211005 -0.538883
1.77189 -0.204305 -1.88723
2.53869 -0.774005 0.715853
1.43999 -0.645404 -2.33715
2.32229 -0.378506 -1.55922
2.02119 -0.922605 -1.90799
2.03079 -0.930105 -1.88322
2.02049 -0.921404 -1.94829
2.89909 -1.187 -0.571032
3.18569 -1.27881 -1.32553
3.01099 -1.23441 -1.89866
3.00009 -1.2322 -2.09193
3.57389 -1.4097 -1.80084
3.76419 -1.47181 -1.89688
-3.59061 0.936335 2.01332
-3.57121 0.917406 2.02041
-3.58821 0.930465 1.77889
-3.59411 0.935495 1.72167
-3.56791 0.903465 1.14637
-2.11291 0.405894 1.64532
0.175191 0.470595 2.05516
-1.91001 0.183195 0.328267
-1.71661 0.268395 -0.156423
-1.73691 0.277195 -0.195743
-1.25031 0.104795 -1.49958
0.236489 -0.0630051 0.87754
0.412391 -0.118805 1.24623
0.85109 -0.0552051 1.45989
0.34279 -0.104105 0.875243
0.91439 -0.073405 1.46389
1.05919 -0.120505 1.47145
1.91369 -0.0672051 2.15966
-1.11141 0.0449946 -2.7853
1.67079 -0.075505 1.24077
0.90339 0.136795 -0.534542
1.10529 -0.0188052 -0.185143
1.58609 -0.178105 0.929415
1.85399 -0.226405 1.39976
1.08269 -0.0208051 -0.409043
2.06359 -0.417105 1.41809
2.10919 -0.440306 1.21709
1.11589 0.0509951 -1.86422
2.20829 -0.471505 1.20174
2.10529 -0.435406 0.913119
2.31589 -0.704605 1.20919
2.14369 -0.215105 -0.501532
2.29029 -0.246805 -0.564342
2.64049 -0.808605 0.870456
2.32319 -1.019 -1.77524
3.13269 -1.2634 -0.446592
3.09019 -1.2515 -0.576113
2.98839 -1.21551 -1.43156
-3.54871 0.869845 -0.0785827
-0.304509 0.630795 2.02672
0.18249 0.461795 2.16217
-0.803411 -0.0337054 -0.734753
-0.90141 -0.00490542 -1.22573
0.93509 -0.084705 1.4136
1.11829 -0.109105 1.55828
1.09549 -0.111705 1.51664
1.76879 -0.0276048 2.16954
1.78839 -0.0426051 2.19843
-1.07751 0.0368951 -2.38252
-0.48401 -0.165305 -1.23035
2.04209 -0.219505 1.90858
2.23039 -0.180505 2.07867
1.03499 0.0721953 -0.416523
1.58869 -0.169205 0.949805
1.27609 -0.170505 0.0440874
2.16509 -0.218605 -0.563862
3.31849 -1.34621 -1.24118
-2.96061 0.857135 3.24317
-3.59351 0.930565 1.88195
-1.95591 0.347995 1.91057
-0.37641 0.513195 0.816085
1.01269 -0.101205 1.17478
1.82789 -0.0703046 2.01338
2.05659 -0.247405 1.91062
1.58869 -0.327205 0.79664
1.98709 -0.396005 1.49042
2.14949 -0.449405 1.4898
2.54989 -0.776205 0.858321
2.61719 -0.792505 0.856616
1.94079 -0.311905 -1.61725
1.42009 -0.637004 -2.304
3.78109 -1.47741 -1.87479
0.99059 -0.0934054 0.742565
1.71479 -0.209305 1.34965
1.07149 -0.032005 -0.147263
1.88539 -0.354305 1.56054
-0.0300092 -0.286005 -2.2655
2.83169 -1.17131 0.0215773
2.92879 -1.2035 0.0497173
2.55119 -1.124 -1.31651
2.92659 -1.2046 -1.61986
-1.90061 0.302495 1.74247
0.11579 0.489396 2.12203
0.297691 0.477995 1.98538
1.64489 -0.0289046 1.31197
1.57879 -0.321205 0.228357
1.78549 -0.297305 -1.82617
1.86509 -0.329005 -1.72434
1.63929 -0.786805 -2.35869
2.01349 -0.919005 -2.03309
0.300691 0.0306953 0.138958
1.48909 -0.147905 0.720418
1.60599 -0.337505 0.778062
1.02899 0.0940945 0.0400273
2.12139 -0.126605 2.0693
1.08919 -0.0228049 -0.249253
1.80689 -0.299605 1.35385
1.51639 -0.182705 1.01821
1.29769 -0.196505 0.432357
2.67629 -0.677704 0.0530274
2.56229 -0.673105 -0.208003
-0.537209 -0.095205 -0.234063
2.30719 -0.454005 -0.785573
1.42519 1.90563 2.81925
1.51419 1.88402 2.58355
-3.56601 0.947385 1.73356
-3.56841 0.902495 1.14458
0.0949907 0.499495 2.18807
0.0583907 0.523595 2.16052
0.165191 0.468996 2.18694
0.169891 0.471995 2.05702
0.77889 0.275395 2.18253
-2.55391 0.505195 0.643747
1.43549 0.0703948 2.10218
-3.57611 0.919825 -0.105373
-3.56591 0.893905 -0.0922727
-2.08921 0.374294 0.669287
1.63139 0.00889519 2.05476
-2.46441 0.510195 0.400077
-2.46071 0.505295 0.377897
1.56309 0.0391953 1.96837
0.923091 -0.0774047 1.63122
-2.49001 0.512395 0.0285973
0.890691 -0.0669047 1.46615
2.28289 -0.192105 2.03089
0.909391 -0.0723054 1.45809
-1.49271 0.178895 0.340267
-1.73661 0.258595 -0.164323
1.58899 -5.43473e-06 1.26046
-1.29231 0.109995 0.0371773
0.238891 -0.0609052 0.721206
1.74979 -0.198505 1.3889
0.910091 -0.0677048 0.930129
-2.57441 0.524496 -0.821863
1.66499 -0.0779053 1.22051
1.92579 -0.377005 1.44131
2.01019 -0.410106 1.46302
1.98959 -0.402605 1.44536
2.13379 -0.456805 1.47417
2.15869 -0.456405 1.44386
1.56039 -0.349905 1.05265
1.56769 -0.362505 1.04299
-2.07281 0.363295 -0.999313
-1.05961 0.0378945 -0.525903
2.17509 -0.460006 1.18574
2.30719 -0.706105 1.26831
-2.30951 0.444995 -1.54271
2.05239 -0.414306 0.922678
-3.54831 0.894906 -2.48641
2.15699 -0.451005 0.923171
1.43789 -0.220205 0.384587
1.43799 -0.204405 0.370197
1.47869 -0.220605 0.389247
1.48179 -0.204605 0.373207
1.99239 -0.407705 0.704839
-1.66511 0.229895 -1.42598
-0.825311 -0.0553052 -0.875163
2.14269 -0.416105 0.611017
-0.883411 -0.0107047 -1.19584
-1.25461 0.107795 -1.46586
1.07859 0.0779946 -0.419513
1.50789 -0.316405 -0.0347227
-2.21441 0.395195 -2.35369
1.78029 -0.329605 0.0613974
1.03959 0.0936949 -0.553993
-0.485009 -0.139705 -1.25278
1.32589 -0.188805 -0.285413
1.16489 0.0784953 -0.534702
1.16859 0.0825951 -0.574082
1.15049 0.0944951 -0.603892
-1.50271 0.172695 -2.1237
-1.44881 0.161494 -2.1089
-1.09931 0.0544951 -2.03422
2.54099 -0.755205 0.295257
1.33859 -0.0295054 -0.883443
-0.971509 -0.00250502 -2.35082
2.17399 -0.246705 -0.565992
-1.10451 0.0402949 -2.80556
-0.258509 -0.210205 -2.50366
0.0318899 -0.300305 -2.36092
0.10469 -0.331005 -2.37334
0.11049 -0.332805 -2.40363
2.97179 -1.2235 -0.213833
0.27229 -0.381405 -2.3819
0.886291 -0.569305 -2.34375
2.29799 -0.413505 -1.49591
2.94979 -1.2122 -0.781933
2.05559 -0.937505 -1.85234
2.80549 -1.16711 -1.20464
2.07529 -0.944205 -1.85866
2.82249 -1.17551 -1.21871
2.47569 -1.0717 -1.54443
2.00959 -0.918505 -2.00687
2.33909 -1.0186 -1.80561
2.90199 -1.1909 -1.42206
1.98939 -0.930705 -2.34674
2.37669 -1.0419 -2.10396
2.43639 -1.05901 -2.10642
3.01539 -1.23721 -1.91801
3.61159 -1.43041 -1.58311
-1.38311 2.14182 3.29791
-2.85351 1.03111 3.29425
1.63939 1.844 2.80998
1.93839 1.75909 2.80951
-3.56531 0.921685 1.97444
-0.279108 0.608295 2.09877
-2.08511 0.390995 1.81741
-0.245209 0.601495 2.08426
0.90879 0.252595 2.03158
-2.54521 0.519095 0.580977
0.814691 -0.042505 1.48318
0.94449 -0.0771052 1.4202
0.42349 -0.108405 1.14035
1.42759 -0.0512053 1.45321
0.80869 -0.0380046 1.20493
1.50999 0.0575945 1.38598
1.70219 -0.0604054 1.42774
1.83289 -0.293505 1.62066
-1.37501 0.114495 0.0340373
1.62289 -0.00880497 1.28213
1.86769 -0.246405 1.47252
-2.64361 0.552195 -0.855983
0.348491 -0.104305 0.719611
1.87109 -0.356105 1.47651
1.65719 -0.120905 1.2107
-2.22621 0.397195 -0.743153
0.32059 -0.0112054 0.532887
1.92919 -0.382305 1.2076
-2.05261 0.358395 -1.06455
2.28489 -0.703705 1.27452
-2.15581 0.388095 -1.50754
2.15959 -0.462305 0.9628
2.18459 -0.456405 0.9456
-1.67691 0.218195 -1.25779
2.20419 -0.461105 0.937681
2.10959 -0.403705 0.607997
-0.846509 -0.029205 -1.1834
0.89549 0.115195 -0.425703
0.92229 0.122095 -0.443592
1.07329 0.045995 -0.412483
2.60019 -0.791405 0.799374
-1.84361 0.278995 -2.10284
-0.554311 -0.134305 -1.22245
1.71199 -0.313305 0.0390973
1.18519 0.0592949 -0.634393
-2.22201 0.403495 -2.69439
-1.10961 0.045995 -2.10138
2.02899 -0.233905 -0.421073
2.04799 -0.206805 -0.494032
2.21229 -0.267005 -0.425723
2.15989 -0.224505 -0.520633
2.24449 -0.364005 -0.424812
2.20979 -0.249505 -0.576002
-0.839509 -0.0387046 -2.66804
2.85359 -1.1892 0.0809174
-0.358809 -0.172405 -2.61601
-0.0412091 -0.282805 -2.37298
2.90489 -0.505805 -0.514493
2.18069 -0.0923049 -1.28753
0.36009 -0.418105 -2.38397
2.68999 -1.12981 -1.04163
1.32359 -0.600504 -2.35889
2.32709 -1.01191 -1.67471
2.74859 -1.1385 -1.45172
2.30659 -1.03921 -2.30234
3.14159 -1.27301 -1.76983
3.57509 -1.4069 -1.62508
3.37909 -1.34041 -1.99722
3.60619 -1.4224 -1.81768
3.69239 -1.4399 -1.88508
3.75389 -1.47 -1.85718
-3.51891 0.957665 3.23174
-2.52951 0.526795 1.80989
-1.74071 0.260695 1.36722
-0.45251 0.229295 1.23248
2.00619 -0.107905 2.04808
2.14859 -0.151005 2.03898
1.13659 -0.125905 1.51378
1.45759 -0.0769049 1.4852
0.336591 -0.0701052 1.03188
1.78639 -0.198705 1.42734
1.85369 -0.217305 1.4552
-2.21921 0.407595 -0.847873
1.02429 -0.0929047 0.6793
-1.42941 0.175295 -0.820593
2.02579 -0.383305 0.653397
2.17019 -0.451405 0.670263
1.42569 -0.213705 -0.0401227
-0.661809 -0.0873048 -1.22318
-0.46621 -0.156805 -1.21999
1.15149 0.0882952 -0.506282
2.64269 -0.814305 0.713798
0.72899 0.353395 -1.20881
-1.71941 0.241995 -2.55568
2.24529 -0.310505 -0.291023
1.60529 0.0973952 -1.56082
2.94699 -1.22391 -0.190643
2.99659 -1.2217 -0.220893
0.46449 -0.440505 -2.52963
3.05359 -1.244 -0.570052
2.99949 -1.2216 -0.796183
3.02779 -1.2357 -1.07963
1.88969 -0.891204 -2.15435
2.82589 -1.1788 -1.55732
3.50389 -1.37841 -1.9507
1.37809 2.00657 3.03347
-0.56791 0.703695 2.23887
0.626991 0.175995 1.91395
1.05309 -0.113405 1.52229
0.264491 -0.0697047 0.632507
0.97869 -0.0707051 0.689974
2.34159 -0.709505 1.54037
2.12599 -0.443106 1.18296
0.28279 0.0882952 0.0128173
1.26819 -0.0866048 0.339397
1.31569 -0.245505 0.441927
0.307891 0.0950949 -0.239863
2.11109 -0.416005 0.658247
2.51019 -0.763805 0.873584
2.26779 -0.674904 0.694296
1.06579 0.0634949 -0.451803
-0.619109 -0.110105 -1.23743
0.230889 -0.118005 -0.993543
2.22129 -0.316705 -0.401873
2.76099 -1.145 0.0847674
-0.43771 -0.164305 -2.35986
2.54359 -0.540005 -0.751463
2.97139 -1.2159 -0.588272
3.01089 -1.2369 -0.556542
1.42349 -0.609305 -2.34286
3.29209 -1.3205 -0.757833
2.88519 -1.19311 -1.70447
3.07279 -1.2469 -1.93419
0.145391 0.478795 2.09308
0.453191 0.365995 2.03869
-2.11511 0.375495 0.996396
-0.497809 0.344395 1.15686
-0.37171 0.424995 0.760109
0.882791 -0.0728051 1.276
2.32719 -0.691905 0.739382
1.00679 0.140995 -0.589572
2.28199 -0.705505 0.298738
1.62759 -0.104005 -0.858963
2.25809 -0.272005 -0.785233
0.966991 0.0232948 -1.75421
1.63129 -0.0304047 -1.35293
-0.155909 -0.234205 -2.61366
3.07099 -1.25621 -1.8801
-2.01251 0.384995 1.92663
-0.17261 0.560395 1.98506
-1.51021 0.192095 1.37513
1.55839 -0.0050046 1.29131
2.04159 -0.410806 0.682998
1.23269 -0.206405 0.129988
1.41709 -0.230905 -0.0898127
2.51879 -0.770305 0.643577
1.10279 -0.0561053 -0.482303
1.43099 -0.216905 -0.247543
1.60109 -0.239505 -0.355523
1.91129 -0.158705 -0.578092
2.03659 -0.212605 -0.482572
2.76329 -0.691505 0.176477
2.22939 -0.236405 -0.495683
1.91679 -0.0466048 -1.10321
3.22019 -1.28781 -0.766733
1.51879 -0.246005 1.16272
1.03489 0.0216954 -1.65684
1.54079 -0.223205 0.797784
1.20209 -0.246105 0.179377
1.42149 -0.427505 0.206648
3.60289 -1.4166 -1.74002
1.70179 -0.409406 0.80796
0.928889 0.0660947 -0.261663
1.11319 -0.0104052 -0.214623
2.47899 -0.572105 -0.404763
2.16609 -0.327905 -0.932373
-3.70771 1.20097 3.21166
1.98149 -0.389405 0.228627
2.53069 -0.618305 -0.508542
2.76329 -0.999505 -0.0883126
-0.486409 0.255295 1.06702
1.68909 -0.367205 0.320858
2.81879 -1.177 -1.83515
2.81689 -1.17621 -1.56877
2.26449 -0.410106 -1.51075
-2.24151 0.400895 -2.68565
-0.10831 -0.275005 -2.14032
3.19099 -1.2803 -1.32883
3.10539 -1.26881 -1.22519
2.82279 -1.1814 -1.17037
-0.55981 -0.110305 -1.80779
2.99519 -1.2305 -1.07449
2.63699 -1.10581 -1.01696
2.86319 -1.1858 -0.886343
2.82649 -1.1724 -0.886403
3.05929 -1.239 -0.788313
1.88609 -0.201405 -0.889973
-0.478209 -0.134905 -1.2431
-0.53691 -0.123305 -1.24092
-0.544209 -0.135605 -1.22457
-2.55911 0.522396 -1.54102
2.01079 -0.179905 -0.507272
3.04409 -1.2262 -0.442063
2.18899 -0.256705 -0.426863
-2.21101 0.406695 -1.10448
-2.11851 0.363395 -1.04385
-1.91031 0.306195 -0.884283
-2.29201 0.402695 -0.830603
-2.19471 0.396794 -0.743023
1.50919 -0.250105 -0.0745126
1.57609 -0.262905 -0.0657627
-2.11411 0.396395 -0.520073
1.40959 -0.219605 -0.0232727
-2.49141 0.491895 -0.192763
1.47109 -0.229305 0.379237
-1.59831 0.208795 0.0531974
-2.46721 0.506595 0.377857
2.28359 -0.688605 1.01259
-2.10321 0.373195 0.794107
-2.10231 0.380195 0.811265
1.52939 -0.307305 1.07186
-0.15041 0.100394 1.10144
-0.530709 0.359795 1.13075
1.73659 -0.178005 1.40981
2.06649 -0.417905 1.42439
-1.61811 0.221895 1.37046
-0.44621 0.341195 1.54989
2.01659 -0.412505 1.61048
2.10459 -0.441706 1.61241
-2.52391 0.532795 1.82799
1.19379 0.151995 2.23613
1.84509 1.76526 2.60175
1.66049 1.83486 2.90691
1.73439 -0.837705 -2.33874
-0.0908096 -0.261305 -2.32611
2.88149 -1.18391 -1.39771
-1.47481 0.150495 -2.34589
2.95449 -1.2139 -1.27516
3.20649 -1.3021 -1.08679
-0.723911 -0.0446049 -1.82926
2.96489 -1.2207 -1.06925
-0.906909 -0.0365054 -1.83277
3.01209 -1.2188 -0.797193
-1.23961 0.105695 -1.53773
2.08729 -0.198305 -0.512042
-2.09221 0.364695 -1.10122
2.95029 -1.2119 -0.216173
-2.32041 0.465595 -0.845853
-2.50861 0.498295 -0.862323
-2.51801 0.496795 -0.523903
1.33919 -0.208205 0.00364728
2.57669 -0.755704 0.317217
-0.881311 -0.00440474 0.0594974
2.16999 -0.438105 0.616687
-1.21751 0.105895 0.349548
2.56549 -0.776405 0.807406
2.54959 -0.777105 0.859012
-2.50501 0.506595 0.615817
1.52689 -0.327105 1.08154
-2.55091 0.512295 1.02552
1.62469 -0.0319049 1.27586
0.16109 0.465195 1.99093
-0.474709 0.681995 2.04459
-2.87291 0.986915 3.28405
3.21429 -1.2628 -1.22665
2.71669 -1.13401 -1.23999
2.18899 -0.238105 -0.553402
2.17149 -0.224305 -0.478022
1.45679 -0.218005 -0.446523
-2.68681 0.545695 -1.05456
2.65249 -0.830005 0.435797
1.20429 -0.016505 0.375297
1.29819 -0.246705 0.427987
2.14979 -0.436505 0.675268
0.17529 -0.0484054 0.87284
0.85929 -0.0494048 0.971114
-1.69161 0.240795 1.16669
1.57429 -0.00290461 1.38116
1.68189 -0.0527045 1.43205
-3.45691 0.954615 3.23003
-1.19041 1.62173 3.31999
3.06309 -1.2733 -1.83937
-1.64661 0.273295 -1.84974
0.67389 0.231895 -1.14189
0.98179 0.165095 -0.712983
2.22449 -0.408305 -0.436032
-1.46551 0.173395 -0.828923
2.05479 -0.422505 0.686417
1.60089 -0.214805 0.922803
-0.44501 0.212295 1.22813
1.73019 -0.0909049 1.42169
1.28989 -0.103305 1.53303
-0.0839088 0.551196 2.02814
0.163791 0.471395 2.02503
1.41529 0.0811951 2.01752
0.0488903 0.521696 2.18368
3.17979 -1.27591 -1.84127
-0.49511 -0.113105 -2.61155
2.47599 -0.176305 -1.21066
2.21619 -0.107905 -1.13046
-1.81211 0.300795 -1.85185
2.24479 -0.348705 -0.845433
1.10919 0.103895 -0.469353
1.53119 -0.190705 -0.386533
1.93619 -0.404305 0.695823
1.56869 0.0181955 1.29886
1.66359 -0.0311047 1.43654
1.92459 -0.375505 1.53685
1.79609 -0.343505 0.0509873
1.55309 -0.030605 1.25347
2.06819 -0.396505 1.27732
0.20399 -0.0346047 1.36094
2.48139 -0.731205 0.303128
1.10559 -0.0830046 0.266138
1.54759 0.121595 1.3088
1.95379 -0.410405 1.60573
1.86389 -0.311305 0.757975
0.344791 0.408795 1.97822
2.67079 -1.17411 -1.14351
2.37809 -0.614305 -0.931233
2.26079 -0.420305 -0.901203
1.79169 -0.365205 0.575167
2.17379 -0.175805 -0.870643
1.84439 -0.270605 -0.179553
2.32519 -0.711505 0.504047
-1.52111 0.162795 -2.93218
-1.49191 0.153695 -2.91529
-2.12481 0.382895 -2.73275
-2.04551 0.356295 -2.73352
-2.17741 0.368995 -2.73139
-2.06091 0.332195 -2.7205
-2.24731 0.395695 -2.69496
-1.78691 0.247395 -2.73618
-0.825509 -0.043905 -2.70414
-1.44841 0.137495 -2.55301
-1.38981 0.122795 -2.54505
0.41069 -0.363205 -2.56736
0.41899 -0.412005 -2.60158
-1.34131 0.133795 -2.33093
-0.417809 -0.168605 -2.34917
0.44889 -0.444506 -2.41223
0.625489 -0.478005 -2.38291
-1.09781 0.0425952 -2.04592
-1.76981 0.254795 -1.88633
1.97949 -0.930505 -2.35378
-0.537009 -0.130905 -1.8442
-2.45221 0.474195 -1.54982
-2.29621 0.440995 -1.54053
-2.16641 0.393095 -1.51776
-1.87031 0.289095 -1.56387
2.01269 -0.919805 -2.00928
1.34659 0.0302947 -1.37263
1.35909 0.0169948 -1.36857
-2.23061 0.414395 -1.23693
-2.83501 0.576795 -1.07319
2.27829 -1.0137 -1.8277
2.42829 -1.052 -1.82126
-0.948911 0.0152953 -1.21629
3.28349 -1.32371 -1.93507
-0.520409 -0.119905 -1.23904
-0.656409 -0.100005 -1.2207
-0.54361 -0.134105 -1.22575
2.97099 -1.1958 -1.80314
-0.38131 -0.178505 -1.20834
3.20839 -1.2925 -1.82338
3.55479 -1.406 -1.81691
3.53309 -1.3928 -1.80047
2.93599 -1.2138 -1.55829
1.75749 -0.160005 -0.884703
3.18069 -1.28491 -1.5489
1.98979 -0.232805 -0.885373
2.75209 -1.14 -1.31457
-1.04261 0.0328954 -0.524603
-2.50561 0.491395 -0.188953
1.14879 0.0682948 -0.510532
2.74919 -1.1506 -1.24036
3.19099 -1.2832 -1.32988
0.980491 0.102695 -0.435953
-2.48901 0.497796 0.0808074
2.69029 -1.1309 -1.04414
-2.31521 0.453195 0.0839274
2.14549 -0.221405 -0.494212
1.10129 0.0374949 -0.277483
1.13479 -0.0013053 -0.224813
1.70959 -0.302905 -0.305003
-0.87021 -0.00570459 0.0608074
-0.80091 -0.0286052 0.0799274
0.37679 -0.0614049 0.0105474
-1.30561 0.143895 0.381087
-2.42531 0.481495 0.657277
1.54969 -0.258605 -0.0497827
1.57279 -0.271005 -0.0373227
3.03639 -1.2285 -0.588112
3.00549 -1.2248 -0.564662
3.04189 -1.2376 -0.576062
3.04769 -1.22961 -0.442633
1.47669 -0.210105 0.367947
0.96099 -0.0438048 0.640257
1.07099 -0.117405 0.691533
0.0759898 -0.0275046 0.903282
0.222791 -0.0579049 0.874669
2.55329 -0.737705 0.239048
2.54989 -0.756105 0.295568
-2.48241 0.506095 1.64014
2.52339 -0.770605 0.328427
0.81519 -0.0381047 0.942046
2.12659 -0.410205 0.637357
-2.60921 0.557195 1.82848
-2.54871 0.529396 1.82431
-2.57461 0.558795 1.84541
1.56879 -0.158705 0.930594
1.59269 -0.173705 0.91931
-0.300909 0.0991948 1.36088
2.18869 -0.457505 0.6973
1.60079 -0.199905 0.954885
1.46449 -0.272506 1.0603
1.93639 -0.382905 0.944015
0.35189 -0.113205 1.47509
2.46499 -0.758205 0.884945
0.983791 -0.097305 1.47024
-0.24771 0.597795 2.07045
-0.26611 0.605895 2.17295
1.85669 -0.225805 1.40005
2.54079 -0.752005 1.05105
0.0637904 0.507895 2.17951
1.87729 -0.349405 1.4843
2.06819 -0.414005 1.42046
0.562391 0.342295 2.23449
1.31939 1.9429 2.73481
1.71449 1.81844 2.59052
2.10159 -0.441205 1.60912
-1.17391 1.58803 3.31962
1.30429 1.93921 2.93852
1.16819 0.271395 2.32114
2.16199 1.6717 2.80522
2.23969 -0.181305 2.06996
-0.458409 -0.147905 -2.60412
-0.582009 -0.119005 -2.56301
-0.13301 -0.254405 -2.58648
-0.297209 -0.200605 -2.54483
-0.627709 -0.0914046 -2.49828
-0.257109 -0.220705 -2.51478
-0.210309 -0.249905 -2.52669
0.38359 -0.423005 -2.53549
-1.21691 0.0665953 -2.35952
0.454091 -0.445906 -2.53668
-2.29341 0.422395 -2.09644
-0.12741 -0.281405 -2.34521
-1.79891 0.274195 -2.10286
0.79779 -0.575305 -2.39461
0.85189 -0.589105 -2.38589
-2.44491 0.512596 -1.55679
-0.884009 -0.0483052 -1.81869
2.02269 -0.922305 -1.98938
1.27199 0.0350946 -1.35051
2.58689 -1.11151 -2.02769
-2.61801 0.514295 -1.12117
-2.02941 0.367795 -1.12278
2.66809 -1.11701 -1.88414
2.30369 -1.0233 -1.81809
3.05119 -1.25681 -1.84432
3.25969 -1.298 -1.86087
-0.45181 -0.164705 -1.19899
3.33909 -1.33571 -1.84615
-1.48661 0.174895 -0.943793
3.50909 -1.374 -1.80552
2.93559 -1.2118 -1.53602
3.21889 -1.29471 -1.56055
