-1.3259 0.127468 2.33427
-0.0325801 0.568242 2.94071
-2.10098 0.360512 1.6922
-1.69075 0.261512 1.65111
-1.70794 0.218333 1.54876
-0.149527 0.514793 2.07669
-1.82056 0.271176 0.847421
1.0772 0.105415 1.90656
0.0678916 -0.0620921 1.32339
-0.743453 -0.0524085 0.67337
1.35245 -0.118814 1.49249
-1.27945 0.078118 -0.529945
1.82828 -0.330738 0.671147
-0.678185 -0.0449879 -0.625199
-0.0350005 -0.325945 -0.76494
-0.0371101 -0.353459 -0.732724
0.935827 0.00898043 -0.431045
0.609504 0.0821311 -0.498222
2.12234 -0.281758 -0.490946
1.45271 -0.0848219 -0.888604
-1.36608 0.11182 2.65452
-2.32278 0.421765 1.65078
-2.15656 0.39168 1.6866
-0.693616 0.899467 2.39951
-1.36391 0.00276819 1.96871
-1.76575 0.254935 1.38414
-1.31043 0.101478 0.818919
0.665392 0.175509 1.93575
-0.919802 -0.0942089 0.758696
0.800905 0.00266996 1.47521
-0.541781 -0.114743 0.133807
-0.827727 -0.0895731 -0.238526
-0.61105 -0.151928 -0.741545
1.46717 -0.120007 -0.875509
-0.75812 0.876729 3.23628
-2.01896 0.320146 1.39437
0.527973 0.223228 2.24306
0.959982 0.193168 2.08995
0.495386 -0.210366 1.56725
-1.09285 -0.00494991 0.961518
-1.65735 0.206346 -0.202077
1.36075 -0.180469 0.68227
0.486036 -0.0617974 1.78914
-0.535109 0.4633 0.764754
1.25837 -0.148745 0.151456
0.640218 -0.132478 1.67471
0.946468 -0.0822871 1.57901
-0.850545 -0.157035 -0.0634595
-0.941468 -0.0370047 0.12356
-2.311 0.465888 0.467864
-2.33013 0.407827 0.652151
-2.03884 0.355709 0.565276
-1.61409 0.202163 0.675233
-1.36878 0.119054 0.677003
-1.91227 0.310777 0.848007
-1.84395 0.267118 1.0044
-1.87599 0.265624 1.04889
-1.76248 0.21927 1.16309
-1.55323 0.165828 1.35168
1.44 -0.0829136 1.33691
-2.02447 0.36567 1.31232
1.52335 -0.0216688 1.42068
-2.01104 0.323551 1.45717
-1.99211 0.268402 1.43346
-2.01701 0.436936 1.52614
1.24067 -0.0641167 1.60216
-1.89129 0.374297 1.61893
-1.70429 0.27051 1.83535
-1.98012 0.17877 1.8218
-2.0857 0.36154 2.04942
-1.99962 0.450643 2.26448
-2.08912 0.325971 2.25826
0.0953326 0.480443 2.27995
-1.3395 0.236904 3.2094
-1.30711 0.0704867 -0.118804
-0.41519 -0.18194 -0.226227
-1.52632 0.260676 0.0825162
-1.98571 0.268975 0.603577
-2.14787 0.416438 0.639565
-1.69858 0.221701 0.764139
1.98944 -0.339423 0.541365
-1.26476 0.0968101 0.768439
-0.998555 0.0296075 0.940629
-0.9483 0.0225827 0.949467
-1.80952 0.264224 1.08685
-1.86601 0.306269 0.982933
-1.75527 0.270674 1.19971
-1.32591 0.216758 1.16606
0.143781 -0.0710022 1.30142
-1.72447 0.234972 1.36382
-1.85102 0.292365 1.43207
1.42268 -0.0532811 1.41756
1.37909 0.0318677 1.32809
-1.3489 -0.00639567 1.4258
-1.67352 0.216301 1.40179
-1.37127 0.10591 1.46739
1.14812 -0.166324 1.58915
1.32154 -0.0852721 1.5107
-1.57801 0.230663 1.65419
-2.2637 0.388007 2.17056
-1.48631 0.193841 2.3409
-2.02304 0.37552 2.58922
-2.24447 0.387115 2.85288
-2.13864 0.366346 0.512749
-0.554858 0.385842 1.20071
-1.3079 0.109544 1.14657
1.46999 0.0726373 1.45428
-2.34441 0.433254 1.55111
1.42255 -0.0653737 1.48137
1.18639 -0.105277 1.50369
-2.11965 0.278148 1.71563
-2.16091 0.375289 2.00263
-1.79737 0.271444 2.11279
-1.48468 0.132204 2.09948
-1.99047 0.282755 2.41151
-1.01289 -0.043916 2.83411
0.432146 1.5867 3.14115
-1.94747 0.373311 0.450071
-1.27295 0.192782 0.646939
1.93265 -0.428311 0.603537
-0.908253 -0.0335009 0.905188
0.294756 0.0127045 1.20805
1.5005 0.0141932 1.37876
1.00349 0.0695331 1.94778
-1.30186 0.0905864 2.60378
-1.55589 0.213382 2.89983
-0.321929 0.647684 2.86228
-2.17614 0.350786 2.92809
0.807171 0.205488 0.496752
1.97545 -0.380179 0.507953
0.177614 0.0410935 1.28733
-2.28001 0.358738 1.53468
1.2332 -0.0638793 1.54823
-1.90238 0.239915 1.7226
1.16108 -0.0850737 1.64245
-2.09154 0.341088 1.65203
0.894718 -0.135462 1.65036
-1.6341 0.258882 1.70448
-1.33571 0.139802 2.02926
-1.23164 0.0749194 0.395455
-0.829528 0.0397384 0.463669
1.06308 -0.190063 1.6058
-2.2603 0.458905 1.87114
-1.64722 0.139504 2.19133
0.589672 0.409436 2.39891
-1.37696 0.186338 2.42433
-1.62923 0.274828 1.36993
0.806532 -0.0521948 1.50747
1.07635 0.192607 1.90996
-1.21548 0.0734355 1.94925
1.96857 -0.0542367 1.99161
-1.70077 0.187348 2.1179
0.971363 1.91085 2.78759
1.32005 0.0514609 -0.483235
0.90965 0.117826 -0.384277
-1.9522 0.321574 1.54998
-0.779908 0.688787 2.38191
-0.592459 0.377003 1.61281
-1.15846 0.166235 2.43332
2.6454 -0.549277 -0.386578
1.26663 1.97805 3.2613
-2.38075 0.494896 0.416314
-2.13499 0.302063 0.487811
-2.07251 0.398749 0.549269
-1.93675 0.301367 0.549132
-1.65352 0.215628 0.40224
-2.29713 0.453384 1.19157
-1.22711 0.139643 0.273032
0.0143256 -0.295057 -0.85785
-1.88316 0.385269 1.43719
-1.74958 0.135861 1.33404
-1.51138 0.27645 1.25651
-1.61814 0.300001 1.25995
-0.83038 -0.0656111 0.716049
0.248233 0.118717 0.195601
-1.93939 0.275401 1.86181
-1.61271 0.243893 1.85692
-1.86917 0.279111 2.44761
0.207382 -0.0500395 0.947974
-1.68446 0.255247 2.42485
-1.76199 0.279881 2.59745
0.181739 0.0376698 1.16952
0.875326 -0.156907 1.02018
0.697994 -0.0135558 1.00904
-0.101662 0.539667 2.10284
1.2681 -0.0253852 1.29984
1.45447 -0.0886872 1.35697
1.49062 -0.108523 1.36241
1.21798 -0.099086 1.56536
1.51417 0.0963752 1.43119
1.50628 -0.00815901 1.44183
1.32674 -0.0793564 1.51319
-2.2815 0.497255 0.230539
-1.84369 0.207092 0.420184
-1.84646 0.351483 0.625988
-1.62058 0.254914 0.832204
-0.563023 -0.110259 0.397684
-0.861739 -0.0871851 0.780474
0.752952 0.144005 -0.512189
-1.88266 0.314161 1.95479
-1.10082 0.0757215 1.43511
-1.71906 0.250464 1.83787
-2.20198 0.446279 2.36444
-1.82908 0.305456 2.14988
1.41628 -0.167926 0.0116196
-1.53119 0.139115 2.34002
-1.42745 0.136148 2.35631
-2.28002 0.400694 2.91029
-1.50048 0.160976 2.32241
-0.718694 0.552152 1.82195
-0.573731 0.684425 1.97695
-0.604605 0.697308 2.20322
1.38808 -0.136975 1.43316
1.31026 -0.104261 1.40635
1.03806 0.0990484 1.79853
1.38866 -0.225462 1.78568
-1.70236 0.217883 0.00651229
-1.53084 0.240408 0.158175
-1.79988 0.257159 1.02176
-1.79773 0.349345 1.12537
-0.970521 -0.0384686 0.863722
-2.1116 0.40903 1.98814
0.923929 0.177653 -0.366336
-1.70961 0.207968 1.94616
-2.10655 0.296632 2.20601
-1.24624 0.0949314 1.70714
-1.9366 0.321624 2.0968
-2.22266 0.410271 2.7089
0.112308 -0.0258668 0.916352
0.177591 -0.113719 1.22061
-2.18189 0.402313 2.88549
0.129804 0.00548902 1.19344
-1.08157 0.023833 2.1894
0.913156 -0.0748608 1.34799
1.42665 -0.323992 1.20502
1.38331 -0.353371 1.17757
1.05306 -0.101132 1.48372
1.07696 -0.0989125 1.5482
1.48631 -0.0776389 1.3619
1.44986 -0.110646 1.29173
1.42976 0.023874 1.24506
2.11105 -0.522776 0.94944
0.657142 0.0775315 1.90272
1.21966 -0.0252822 1.84066
-0.811106 -0.000700336 -0.236697
-2.23095 0.332978 1.54318
-2.24935 0.340263 1.59203
-0.921586 -0.0199598 0.690726
-1.34219 0.179032 1.0601
-0.854575 0.0354897 0.646355
-1.66784 0.189818 1.64297
-1.81987 0.290699 1.97604
2.08379 -0.112683 -0.315488
-1.849 0.229493 2.59288
-1.5835 0.146311 2.72234
0.990728 -0.0832274 0.93097
-1.36267 0.0257441 2.59078
-1.57546 0.174246 2.9919
-1.29199 0.0581414 2.77543
2.0953 -0.462065 0.739582
-1.09333 0.126053 2.97997
0.869211 -0.0714943 1.6649
1.21784 -0.0737212 1.39948
1.25545 -0.137038 1.56457
0.276937 1.14289 3.0726
-0.741227 -0.0991967 -0.528974
-0.0019729 -0.332669 -0.87898
0.0209193 0.303132 -0.428372
-0.699075 0.630642 0.852927
-0.510083 0.42049 0.938122
0.188562 -0.041219 0.633583
-1.31222 0.151253 1.86838
-1.52281 0.184986 2.21567
-1.47751 0.141549 2.29264
-1.37163 0.07252 2.4034
1.78232 -0.388567 0.289124
1.86983 -0.211695 0.483138
2.01737 -0.415489 1.00765
1.18849 -0.0442431 1.48539
1.34066 0.0547654 1.50948
-2.17231 0.465487 2.2974
-2.22112 0.417711 2.51709
0.963373 -0.131984 1.29178
1.72914 -0.0280383 2.0579
-0.916552 -0.0171646 0.904574
-1.92438 0.271643 2.11496
0.636209 -0.145907 0.35814
-0.510155 0.437696 1.21391
2.87938 -0.741776 -0.400061
0.728656 0.0617645 1.1067
-1.00733 0.108212 2.31841
0.707881 -0.0630982 1.9247
0.293089 -0.130048 1.41229
1.27861 1.96035 2.75248
-0.50614 0.639318 2.4385
-0.0273292 -0.152622 0.065386
-0.619654 0.814933 2.44587
0.582904 0.0706479 -0.365335
-0.0201957 -0.140224 -0.160432
-2.30399 0.424666 1.54831
-2.12335 0.348449 1.93538
-1.61273 0.237689 1.34666
-1.02795 0.063997 -0.30696
-1.51415 0.173942 2.41559
-0.477284 -0.0860722 0.0719338
0.0229163 -0.31543 -0.729584
-0.718194 0.886544 3.14588
-0.0445068 0.603972 2.05715
1.23923 -0.200051 0.812737
1.30341 -0.0521424 1.2989
2.50879 -0.613322 1.15261
0.805299 1.76837 2.92344
-2.3681 0.411743 0.297577
-2.05404 0.435856 -0.242033
-1.56884 0.174276 -0.460754
-2.16469 0.331205 1.83101
-2.32413 0.390598 2.5911
-1.92405 0.365316 1.59029
-1.95698 0.328724 1.60351
-2.01435 0.267564 2.00874
-2.17105 0.371646 2.9686
-1.85108 0.373302 2.5984
-1.87171 0.309831 2.60914
-1.78457 0.258801 2.53225
-1.87502 0.218439 2.60414
-0.64009 -0.00751623 -0.506864
-1.17628 0.101194 1.77199
-0.750021 -0.039366 0.424748
-0.740416 0.604982 2.00623
-0.599581 0.482681 1.9125
0.369558 -0.107315 0.314495
-0.401965 0.738201 2.12686
0.190273 0.0475871 1.14284
-0.119803 0.487492 2.26325
0.739082 0.0282055 1.81006
1.02944 -0.00698599 1.89483
0.951009 0.221274 2.05676
1.39959 0.0036799 1.38697
1.60193 0.0344636 2.0588
0.802526 1.78169 2.72627
-1.74965 0.287581 -0.260212
-2.0908 0.517045 1.93894
-2.10733 0.402759 2.00804
-1.98753 0.300155 1.54623
-1.62656 0.23102 1.09516
-1.93699 0.378964 2.2757
-1.24359 0.0149237 1.61481
-0.841111 -0.0521939 0.780388
-1.10438 -0.0543063 2.96692
-0.697764 0.776674 2.02043
-0.627505 0.637371 1.96612
0.865337 0.11302 -0.343842
0.905203 -0.0435613 0.855106
0.909134 -0.0431588 1.04171
0.683826 0.0516059 1.86168
1.29586 -0.115003 0.79099
1.85714 -0.30106 -0.289967
1.40211 -0.225139 1.2347
1.7616 -0.240933 0.252135
1.99451 -0.268512 -0.353445
1.30888 -0.0483105 1.33899
1.34647 -0.083235 1.39101
1.42821 -0.015775 1.29051
1.36492 -0.105693 1.61812
1.40968 -0.0559609 1.45211
2.19217 -0.417553 1.20396
2.14746 -0.401238 1.75309
1.40368 1.72998 2.50608
-2.21841 0.392308 1.65593
-1.86581 0.276991 2.40625
-1.76109 0.272945 2.40223
-0.834656 -0.0358899 0.350484
-1.51151 0.138241 2.2788
-0.919686 0.0331179 0.883969
-0.699322 -0.0749495 0.433151
-0.62629 -0.0984347 0.185977
0.191488 0.267394 -0.488775
0.471037 -0.12248 1.58273
0.910877 -0.0978196 1.21149
0.608986 -0.195512 1.89479
0.844967 -0.118771 1.50865
0.923679 -0.0645993 1.28284
0.4934 0.297105 2.09425
1.30953 -0.0652583 1.54468
1.43191 -0.0026773 1.382
1.87799 -0.382728 0.675937
1.95376 -0.0642588 2.23278
-1.65064 0.265378 1.81532
-1.14557 0.259845 1.83921
-1.39666 0.114095 2.6313
-1.35876 0.0955284 2.57334
-0.681006 0.00853697 0.652742
0.262252 0.118139 -0.233712
0.241436 0.0502755 0.289506
0.283035 -0.0483057 0.176578
-0.661011 0.673524 2.92148
0.310436 0.124014 1.18949
0.873933 0.148968 -0.483496
0.653577 0.19011 0.309536
1.00686 0.189694 2.02994
1.96398 -0.398303 0.78726
2.74626 -0.530518 -0.459185
2.09327 -0.4497 1.64936
1.72288 1.83185 2.90537
-2.12571 0.361093 0.161276
-1.40944 0.144017 -0.0895902
-1.38595 0.185987 2.62173
-0.496007 0.473435 0.934806
-0.0580966 0.585411 2.17011
-0.708192 -0.0810692 0.461223
-0.864608 -0.0854657 0.63783
-0.0852935 0.0795104 1.28727
-1.68293 0.152097 -0.26547
-0.587584 0.291047 1.14831
-0.668402 0.683497 1.9991
0.469555 -0.154585 0.217261
0.658212 -0.179717 0.324652
0.274105 -0.0774691 1.47905
2.04272 -0.420203 0.825164
0.633281 -0.119222 0.294619
1.49673 -0.140372 0.59975
-2.21039 0.35683 1.97156
-2.31664 0.411875 0.493365
-2.21669 0.361085 0.371326
-2.28759 0.374881 0.297412
-2.10198 0.476955 0.629307
-2.28989 0.487648 0.107689
-1.84539 0.304873 0.967912
-1.39852 0.260312 0.203094
-1.33575 0.210252 -0.341077
-1.0849 0.0150906 0.656728
-0.684806 -0.110278 0.340171
-0.158623 0.516055 2.12245
-0.438008 -0.181917 0.319758
-0.51558 -0.112578 0.344608
0.199319 0.0707538 1.16856
0.229002 0.0760657 1.3448
1.08832 0.210842 2.09552
-2.12505 0.366252 2.55139
-2.34021 0.390747 1.76238
-1.93914 0.229064 2.1133
-2.20479 0.405289 0.784306
-2.27542 0.453683 0.462606
-2.20562 0.388466 0.454531
-1.89231 0.358726 1.60378
-2.0913 0.409536 0.542218
-1.80378 0.172081 1.29911
-1.67775 0.120306 1.20401
-1.56502 0.169378 1.52476
-1.4692 0.17482 1.4097
-1.24789 0.127392 1.67449
-1.07201 -0.0107692 0.600177
-1.0548 -0.0291579 0.966202
-1.10217 -0.0258859 0.579188
-1.00777 0.0504024 0.932224
-0.991353 -0.0763361 0.24116
-0.641705 -0.104704 -0.453855
-0.527775 -0.184879 -0.329425
0.167917 0.0195033 1.27133
0.181839 -0.0413478 0.94737
0.767295 1.81723 2.78841
0.809057 1.75229 2.77787
1.44756 -0.27522 1.14247
1.44906 -0.054848 1.28798
1.54665 -0.343679 1.10273
1.58989 1.94841 2.82413
-2.02138 0.367689 2.62739
-2.21938 0.385774 1.84917
-1.88415 0.359217 1.62402
-1.92719 0.260652 1.13301
-2.14141 0.365969 0.404789
-1.73036 0.30529 1.40251
-1.97952 0.309297 0.587
-1.29082 0.0734775 1.70094
-1.59982 0.182293 0.422714
-1.18632 0.0989559 1.38406
-1.27277 0.104192 1.26709
-1.20452 0.00561777 1.048
-1.02144 0.010678 1.00117
-1.07799 0.0862672 0.643402
-0.593535 0.698153 2.23453
-0.692433 -0.0891716 -0.404541
0.0392489 0.507649 2.31198
-0.500529 -0.150534 -0.837241
0.977564 1.77304 2.82677
1.35738 -0.281441 1.12725
1.42583 0.0319793 1.35051
1.44788 -0.167998 1.32514
0.744089 0.154144 -0.415042
0.931627 0.0918682 -0.345463
1.93625 -0.132547 2.26635
1.37873 -0.211734 0.0643729
1.60662 -0.336447 0.0437182
-2.24761 0.347806 2.62793
-2.2632 0.345941 2.29704
-2.31047 0.423368 2.08028
-1.99551 0.304063 2.2204
-1.69594 0.196038 1.39792
-1.1928 0.136353 1.30767
-1.6374 0.277882 -0.370122
-1.08269 -0.02646 0.886688
-0.559971 0.662201 2.05233
-0.137684 0.711558 3.41423
-0.922112 -0.01874 0.701494
-1.01341 0.0175349 0.131752
-0.755122 -0.0989449 0.648252
-0.821826 0.021959 -0.421901
-0.352898 -0.174351 -0.684776
1.34794 0.0624044 1.50652
1.41863 -0.047394 1.35439
1.53879 -0.122182 0.403483
1.46744 -0.236947 -0.00370883
1.64438 -0.352723 -0.0149232
1.55057 1.88896 2.63223
-2.2112 0.403511 1.66293
-1.88778 0.304787 1.8031
-2.14269 0.439994 0.945815
-2.11833 0.440772 0.257919
-1.28485 0.127937 2.62056
-1.39996 0.0770414 2.54298
-1.23317 0.126216 2.59904
-1.23032 0.166229 2.00356
-1.75238 0.296245 -0.35006
-1.70058 0.252432 0.142528
-1.59435 0.154639 0.371626
-1.80989 0.225402 -0.121858
-1.59531 0.162997 0.263163
-1.40051 0.0543973 -0.0808803
-0.365487 0.576505 2.83807
-1.01242 0.0527741 0.0908662
-0.668898 -0.0822918 0.598875
0.177719 -0.145435 1.16233
0.613668 0.252906 2.26174
1.07812 0.135596 2.32558
0.902187 0.0276677 -0.831783
1.93347 -0.377301 0.702974
-2.30124 0.439508 2.33253
-1.7489 0.307634 2.41366
-1.86496 0.236158 2.17917
-1.72113 0.224915 1.18553
-1.35646 0.104028 0.868248
-1.3961 0.233186 0.948298
0.0617175 0.580951 2.23016
0.645164 0.219718 2.27931
0.901092 0.192383 2.10852
0.79005 -0.0294736 1.49492
0.938013 -0.0942557 1.46202
0.954874 2.01076 2.90657
1.99316 1.70661 2.92005
-2.17012 0.436251 2.25232
-2.22579 0.428849 1.66901
-2.25085 0.456099 1.58305
-1.88477 0.4241 0.450143
-1.25875 0.0103547 2.10327
-1.44019 0.0809352 1.01338
-1.36913 0.119501 1.08074
-1.35394 0.0727346 0.61774
-0.787922 -0.0410235 -0.654634
-0.0789039 0.0198247 1.42584
0.198917 -0.104668 0.679705
0.119279 0.280693 -0.376994
0.820255 1.74394 2.93752
1.01396 0.0685537 -0.462586
-0.826262 -0.0855286 0.534918
-0.322137 0.551734 2.1278
0.475704 -0.210931 0.309885
-0.633496 0.823495 2.70613
0.868869 0.04166 -0.245635
0.0810351 0.0253979 1.19382
0.320446 0.0760934 0.404964
-0.884 0.449949 1.85273
-2.35144 0.3507 1.76268
-1.91295 0.288881 1.90342
-2.1339 0.447391 1.57591
-2.00171 0.308567 1.74256
-1.58926 0.216895 1.79263
-1.79802 0.318981 1.60081
-1.89604 0.312423 1.40883
-1.90208 0.390184 1.45346
-1.71237 0.192217 1.00582
-2.312 0.396058 0.49647
-2.24617 0.305972 0.580996
-1.96874 0.39419 0.647569
-2.35827 0.468633 0.492869
-1.69869 0.257044 0.933844
-1.99071 0.348963 0.70274
-2.13571 0.309853 0.436098
-2.10502 0.333159 0.494789
-1.96873 0.322527 0.581384
-1.91142 0.419061 0.479563
-1.88157 0.356608 0.618147
-2.02788 0.329247 0.371758
-1.94266 0.27504 0.421262
-1.4181 0.0396544 0.912108
-1.30275 0.108801 0.880199
-2.18082 0.55239 0.197751
-1.03499 0.029515 0.871793
-1.30033 0.10617 0.660271
-2.00535 0.360907 0.0245002
-1.60387 0.257292 -0.0670511
-1.47396 0.149826 0.0256021
-1.49161 0.244696 -0.140046
-0.53316 -0.0732939 0.359613
0.325931 0.00905291 0.987368
-0.532576 -0.169593 0.364133
-0.499366 -0.175565 0.387252
-1.26622 0.147953 -0.131058
-1.59178 0.0942524 -0.306124
1.33918 -0.0357373 1.40552
1.35302 0.0134913 1.41959
-0.586241 -0.189352 -0.125921
1.27086 -0.194513 0.952365
-0.859647 -0.0246585 -0.455557
-0.386645 -0.222652 -0.776085
-1.9228 0.375062 2.68642
-2.15434 0.381831 2.31244
-1.90604 0.267055 2.52179
-2.1783 0.420188 2.09707
-1.53962 0.152396 2.44299
-1.6786 0.277586 1.90558
-1.61787 0.199942 1.82921
-1.70794 0.255382 1.92338
-1.96276 0.305711 1.53338
-2.08046 0.357591 1.469
-1.96629 0.318203 1.457
-2.34893 0.511702 1.13879
-2.08484 0.322789 1.24179
-2.25186 0.448879 1.03786
-1.82904 0.290537 1.05681
-1.92356 0.236284 1.16179
-0.70243 0.798418 2.03464
-2.08686 0.351803 0.660506
-2.12676 0.437495 0.52154
-1.35337 0.215428 1.08391
0.817703 1.82411 2.85368
-2.08566 0.323343 0.503707
-1.32801 0.0661552 1.1101
0.858738 1.74079 2.78359
-2.21232 0.4284 0.107569
-1.00647 -0.083421 0.970116
-0.902611 0.142006 0.921768
0.901706 0.237811 2.31195
-1.25341 0.117605 0.482475
1.67514 1.88877 2.83653
1.05591 -0.126919 1.94972
1.08803 0.0394303 1.82953
0.122802 -0.0163635 1.21847
0.165313 -0.00326191 1.24148
0.21973 -0.0390475 1.16614
-1.00619 -0.0855152 0.225427
0.841762 -0.0245297 1.54546
-0.980721 0.0573823 0.177777
-0.804534 -0.0811646 0.344153
0.28573 -0.0503838 0.744487
1.25353 -0.218824 1.49492
1.22667 -0.182948 1.29345
1.39137 -0.0532372 1.44018
1.43513 -0.130945 1.29159
1.474 -0.135576 1.25915
1.37618 0.0676391 1.2564
-1.18182 -0.0340484 -0.506794
-0.799286 -0.0386136 -0.695669
-0.656642 -0.169541 -0.639573
1.68088 -0.366566 0.179237
1.53659 -0.235052 -0.0273516
-2.05183 0.322416 2.53126
-1.69919 0.241917 1.86867
-1.3618 0.0651719 1.88243
-1.91357 0.272593 1.27332
-1.94017 0.244375 1.04832
-2.15823 0.344669 0.837531
-1.92983 0.335001 1.0659
-0.692096 0.559811 1.929
-2.23572 0.424322 0.504583
0.788398 1.78796 2.9317
-1.37778 0.105287 1.15417
-1.36709 0.117802 1.12804
-1.38157 0.144033 1.07788
-2.07481 0.376983 0.55581
-1.30382 0.0662277 1.05065
-1.38437 0.105227 0.832419
-2.17266 0.412316 -0.0959357
-1.58502 0.121111 0.328631
0.962944 0.286311 2.1644
0.89944 0.202266 2.11612
0.682624 0.0981939 1.84042
0.776323 0.05461 1.87985
-0.794175 -0.034591 0.579532
-0.800406 -0.0511334 0.500225
1.05542 -0.0298188 1.83823
1.09984 -0.0989086 1.88345
1.97017 -0.214123 2.26416
1.98235 -0.099232 2.1606
-1.45767 0.0889947 -0.0128579
1.40902 -0.199008 1.7599
1.14821 -0.1018 1.45626
-1.51066 0.254661 -0.40375
-1.21829 0.0640237 -0.288161
1.42165 0.0944259 1.4797
-1.03462 0.0535628 -0.301513
0.886112 -0.0952237 0.766207
-0.855273 -0.126148 -0.36725
2.06085 -0.461926 1.08101
-0.197928 -0.240938 -0.627587
-0.0280101 -0.406848 -0.812545
1.97062 -0.255269 -0.275275
0.920921 0.0243422 -0.881743
-2.21889 0.380462 2.69008
-1.42534 0.123334 2.52021
-1.34432 0.111374 2.5688
-2.17937 0.365926 1.46349
-2.22079 0.369821 1.50807
-0.297518 0.608988 3.05998
-2.22039 0.333171 1.43328
-1.25046 0.208399 2.11383
-1.94839 0.215639 1.37083
-1.84351 0.17813 1.34764
-1.30341 0.0475204 1.88605
0.821874 1.81513 3.08431
-2.09314 0.243549 0.673748
-1.34441 -0.00256572 1.03465
-2.35208 0.427942 0.220513
-1.12031 0.11125 0.64452
-1.56501 0.275224 0.266011
1.55494 -0.00482593 2.08765
1.82164 0.023255 2.20666
-0.56264 -0.146969 0.110133
1.31008 -0.030206 1.45141
1.31451 -0.0537264 1.46026
1.40649 0.123873 1.47104
1.37985 -0.0105365 1.27487
0.159242 0.107629 -0.121053
1.10686 0.0555236 -0.509856
-1.93047 0.24714 2.15165
-2.22036 0.421299 1.63762
-2.18615 0.436518 1.7044
-0.724952 0.834016 2.54584
-1.71674 0.228193 1.33127
-0.286259 0.531917 2.22112
-0.184279 0.0332 1.38507
0.114929 -0.102821 1.26365
0.157398 -0.0406678 1.09844
1.26093 -0.196346 1.48045
1.20524 -0.18733 1.51667
0.313364 -0.171553 0.877437
0.880661 -0.080045 1.21704
1.37124 -0.031277 1.29586
1.46836 -0.0435975 1.35539
0.165731 0.173783 0.177061
-0.150994 -0.199629 -0.803791
0.587131 0.0247523 -0.777376
-1.95628 0.257592 2.93036
-1.54271 0.269925 2.93946
-1.63382 0.184161 2.55632
-2.05551 0.420546 2.21026
-0.559928 0.747334 2.62794
-1.66536 0.190917 1.63483
-0.703734 0.608708 2.3685
-1.81401 0.261951 1.38771
-1.84749 0.249932 1.01263
0.71191 1.68518 2.89842
-1.26995 0.168604 1.19153
-1.8784 0.182039 0.398347
-1.29056 0.125989 0.684025
1.09559 1.91437 2.54533
-1.92298 0.267397 -0.19505
1.45818 0.0114104 1.34847
-0.936217 0.0417478 -0.581063
-0.26171 -0.200407 -0.520572
-1.14394 0.182766 3.13897
-0.727296 0.741816 3.19515
-1.20597 0.149985 1.21261
1.07889 0.0154721 2.0342
1.18699 -0.0464556 1.47367
0.19922 0.253037 -0.360772
-0.720046 0.430895 1.19229
1.10156 0.194404 2.2403
0.8743 0.0131604 0.635358
0.518217 0.109901 -0.758877
-1.33755 0.0414884 2.11348
-1.45985 0.0295951 1.00075
-0.27558 0.0176341 1.46836
1.22069 -0.20514 1.45466
1.27599 -0.175411 1.41271
1.11725 -0.185137 1.14857
0.211103 0.60438 3.13349
-1.3262 0.094856 -0.261678
-1.4014 0.13657 -0.32698
-1.77895 0.231559 -0.0911765
-2.32531 0.534537 0.143273
-1.30922 0.074805 0.102446
-1.31998 0.116278 0.0953448
-0.0660426 -0.258414 0.166327
-2.14033 0.263635 0.456995
-1.1854 0.175544 0.671217
-2.04375 0.287329 0.747276
-2.02614 0.375951 0.661412
-2.01215 0.281573 0.958264
-1.05972 -0.0406392 0.902064
-1.70704 0.281399 1.10015
-1.85112 0.28044 1.01032
2.014 -0.332059 1.1007
-1.50784 0.219066 1.30953
0.244571 -0.0373557 1.19757
1.47235 -0.12299 1.34762
-1.99427 0.302672 1.4503
-1.7462 0.222302 1.36689
-2.0149 0.323285 1.39618
-2.16713 0.312453 1.44672
-1.96597 0.413267 1.47562
1.13719 -0.107016 1.50331
0.54842 -0.152831 1.52834
-1.22162 0.0969827 1.83059
-1.65516 0.219375 1.83083
-1.90892 0.205946 1.86066
-1.66331 0.171254 1.90206
0.895578 0.170364 2.18756
1.37081 0.0525138 2.33353
-1.85092 0.249629 2.26927
-2.0245 0.307802 2.19348
2.11342 1.76258 2.73478
-1.95097 0.294162 2.58392
-0.824975 -0.108131 -0.503939
-0.33269 -0.308672 -0.413289
-2.03553 0.338484 0.0179967
-1.07035 0.0412814 -0.187167
-1.76276 0.219914 0.0863665
-0.63848 -0.10145 0.441382
-0.954392 -0.0358498 0.683008
-1.33164 0.0572478 0.790601
-1.3644 0.081804 1.17656
0.942589 -0.117208 1.18477
-1.44399 0.171082 1.44649
1.41033 -0.0514233 1.51525
-1.55343 0.161867 1.52166
-2.01205 0.415012 1.72068
-1.63264 0.1515 1.9221
-1.85609 0.376031 1.91359
-1.79598 0.309045 2.26201
-2.2483 0.527375 2.17244
0.788114 0.165532 2.32926
-1.33539 0.170926 2.51665
-1.63248 0.163493 2.62089
-0.52238 0.712715 2.72703
-1.9589 0.27803 2.79451
-1.7258 0.22738 0.211588
-2.11286 0.364477 0.420731
-0.708709 -0.064707 0.448465
-1.84045 0.404437 0.578041
-0.652516 -0.0618899 0.441964
-2.17611 0.338722 0.811079
-1.37125 0.143652 0.905783
1.33282 -0.0913556 0.94721
-1.37631 0.184751 1.13569
0.839361 -0.061785 1.11813
-1.87764 0.341466 1.46002
-2.15476 0.344171 1.56057
-2.25887 0.463122 1.76579
-1.0868 0.0788543 2.11628
-1.51526 0.165356 2.37453
-1.67671 0.179738 2.40686
-1.71813 0.308431 2.47171
-2.0287 0.377763 2.58919
-2.28973 0.345994 2.67898
-1.96224 0.344713 0.0499693
-1.79131 0.237859 0.738842
-1.25537 0.0979755 0.90237
-0.985015 0.0188157 0.941335
-1.3651 0.1285 1.06661
1.31203 0.0470883 1.40057
-1.39156 0.137652 1.50666
-2.098 0.387368 1.6653
-1.27747 -0.00683245 1.72045
-1.34292 0.14982 1.86067
-1.67498 0.218927 1.88213
1.22764 0.098747 2.04941
-0.647683 0.662002 2.34608
-1.48473 0.277287 2.62755
1.05255 2.02527 2.69997
0.0208239 0.60414 2.99842
0.881382 0.110659 -0.402272
0.891208 -0.00691446 0.638331
-1.01123 0.0431449 1.37554
1.17671 -0.109088 1.61047
0.54767 -0.20153 1.78818
-1.78848 0.340937 1.89128
0.490907 0.357843 2.0605
1.27444 0.155957 2.37602
-1.09186 0.0618865 0.0187439
1.4066 -0.171864 0.409434
1.88287 -0.394479 1.02358
-1.77836 0.200118 1.52705
1.02698 -0.110329 1.6006
-0.61319 0.393637 1.72706
0.498436 -0.0253165 1.7486
1.04952 0.0741746 1.9629
-1.05771 0.0402495 2.21259
1.3712 0.107369 2.32216
-1.85069 0.207348 1.3178
0.0245661 0.615009 2.39217
0.110275 0.744425 2.41705
-0.135565 0.609883 2.34392
0.605775 -0.0176071 1.97645
-1.96557 0.31785 1.9468
0.55211 0.0286376 1.929
-0.982789 0.0871294 1.8758
-1.33376 0.0683458 0.791641
-0.366109 0.234869 1.16512
2.03296 0.0273015 2.47497
-1.17107 0.0530269 0.853852
0.490894 1.8014 3.04217
0.0783515 0.809894 3.1311
-0.495293 0.758576 2.49984
-0.980637 0.0175635 -0.447236
-0.389285 -0.156505 -0.85079
-0.778445 -0.063021 -0.236138
-1.69082 0.234306 1.05405
-1.73475 0.247575 0.973558
-1.35052 0.211612 0.866732
-0.933751 0.0050036 0.821062
-1.85572 0.222297 1.9046
0.207332 -0.0439637 1.10632
-0.854392 -0.092025 1.6206
-1.81761 0.261756 2.21187
-1.64018 0.173041 2.2952
-1.88092 0.299397 2.39747
0.159771 -0.0641282 1.63669
-1.91879 0.33655 2.65449
-1.86423 0.223843 2.63661
1.35004 -0.16055 1.29813
1.35636 -0.0629389 1.46716
-1.61988 0.228522 2.90046
-0.0803458 0.585091 2.09353
-0.00351022 -0.337945 -0.752514
-0.675484 -0.0578492 -0.0315007
-1.95256 0.433 0.863283
-0.69539 -0.0289796 0.38516
1.96912 -0.134867 -0.205075
-1.86799 0.323472 1.94159
-0.0189597 0.0292727 1.2674
-1.77657 0.2278 2.13268
-0.0309837 0.0535962 1.51788
-0.50306 0.780866 1.98498
1.48823 -0.0233758 1.30517
-2.03295 0.314226 2.85882
1.12434 -0.0723545 1.78102
1.1139 -0.0511858 1.62572
1.17544 0.0133187 1.85521
1.06703 -0.0165141 1.78899
-0.186808 0.771641 3.32214
-1.06284 -0.047025 -0.283153
-0.230269 -0.228712 -0.761231
-2.06931 0.413044 0.842169
-0.95609 0.0161435 0.23419
1.00255 0.112697 -0.455322
-0.876408 0.00524774 0.7449
-1.34884 0.15811 1.1097
-1.84751 0.202962 1.34405
-1.86588 0.344739 1.62341
1.70785 -0.299783 -0.0757469
1.81572 -0.235139 0.574796
-1.53278 0.215265 2.18803
-1.92974 0.304812 2.66729
-0.643613 0.679955 2.1378
1.34311 -0.00736078 1.46252
0.667421 0.0490653 1.83982
1.55191 0.00383249 1.46669
1.01873 -0.074199 1.78955
1.09467 0.00632063 1.84369
-1.24698 0.0738446 3.11149
-0.622073 0.79251 3.07712
-0.722417 -0.0777962 -0.492235
-2.0973 0.379395 0.835894
-0.831582 4.54447e-05 0.629655
-0.900351 0.0524461 0.619615
-0.84702 -0.020552 0.716964
-2.16636 0.462553 1.69445
-0.998173 0.0575788 1.04665
-1.03215 -0.0205263 1.24312
1.22611 -0.0329402 1.45627
1.31587 -0.0491745 1.54184
1.41219 -0.154958 1.49122
-1.29935 0.0384766 -0.13373
-0.841674 -0.019462 -0.313968
-1.00492 0.032128 1.3908
0.366706 -0.0917647 0.983117
1.59998 -0.304359 0.516738
-0.500375 0.351517 1.76018
-1.65089 0.350474 2.44368
-2.09124 0.393604 2.66345
-2.1996 0.481512 2.75539
-2.23234 0.404065 2.86392
1.38675 0.0292451 1.48208
-0.615237 0.877388 2.37673
0.18844 0.171295 -0.563379
-1.86832 0.211956 1.39221
0.293005 -0.0401166 1.13804
-0.606072 0.295282 1.76324
-0.0361526 0.573027 2.51519
-0.11554 0.689978 3.14149
0.14709 0.179708 0.118554
-2.15693 0.338357 1.80568
0.414547 0.0045611 1.95294
-0.515536 0.479916 0.785641
1.03424 0.0365016 0.140452
-0.0232074 -0.335861 -0.712229
-1.68408 0.193917 1.8597
-1.70825 0.246244 2.31616
-1.80627 0.385658 2.49616
-1.68463 0.208096 2.67392
0.303627 -0.0991604 0.922122
1.39535 -0.190323 -0.0161165
0.913538 -0.0876582 0.980315
0.0236334 0.396547 2.11351
-0.599843 0.78089 3.10867
1.42259 -0.292827 1.19706
1.29838 -0.122417 1.31716
-2.12804 0.396734 1.96813
-1.93276 0.290216 1.98562
0.288582 -0.0471041 0.833862
-1.1303 0.0784633 2.54167
2.08712 -0.259311 -0.412882
1.33429 -0.177757 0.86819
1.36129 -0.169242 1.46092
1.42919 -0.0723202 1.22287
2.20335 -0.184783 2.11216
-1.40526 0.246841 -0.105479
-1.44093 0.14911 0.121268
-0.869145 -0.0663989 -0.424483
-1.76157 0.262299 1.30541
-0.935094 -0.0145934 0.794663
-1.20354 0.0380856 1.39185
-1.98071 0.269436 2.33445
-1.35722 0.0988538 2.60972
1.76302 -0.228452 -0.206321
0.450397 -0.126874 1.58041
1.4648 -0.39201 1.16886
1.45315 -0.23508 1.17653
0.875589 1.7568 2.99788
-2.2612 0.39911 1.6936
-1.77191 0.17414 1.21993
-0.71507 -0.0405848 -0.141485
-1.81978 0.231008 1.47746
-2.26246 0.357015 2.23275
-1.30818 0.215692 1.7782
2.05837 -0.44327 1.15147
1.18601 0.311303 2.43021
1.74342 -0.0335343 2.18829
-2.06412 0.304057 0.800976
-1.32333 0.0930574 0.87405
-1.74463 0.250502 2.31666
0.855173 -0.0893853 1.06581
-2.18059 0.307777 1.13609
1.59981 1.8729 2.97512
-0.647292 0.426116 0.852593
-1.42618 0.1019 1.5413
1.56779 -0.279707 0.389711
0.468338 0.00939909 2.05166
-0.889607 -0.0264991 -0.457258
-0.285965 0.528142 2.31961
1.51289 0.018665 1.41453
0.75806 1.77877 2.70969
-2.26555 0.361304 0.141422
-2.28638 0.440714 1.55724
-2.0251 0.258334 1.8145
-2.14362 0.412392 1.96533
-1.32679 0.177328 0.0532426
-1.66225 0.240632 1.69086
-1.17671 0.127608 0.288224
-1.2578 0.132209 1.6091
-0.751837 -0.107465 -0.651392
-1.12455 0.0514562 0.86957
-0.880664 -0.013018 0.651254
0.127246 -0.118484 1.25372
1.09971 0.0743682 1.86901
1.29172 -0.157994 1.24347
1.35702 -0.103809 1.34506
1.90118 -0.198774 -0.523051
1.41079 0.0501706 1.3252
2.08447 -0.488838 1.77398
-2.17399 0.389027 1.72375
-2.16438 0.410712 1.83127
-1.7601 0.233393 0.98896
-1.79865 0.236102 1.68146
-1.51881 0.224506 1.70586
-1.31174 0.118176 1.40232
-1.03273 0.0349375 0.886812
-0.401677 -0.106071 0.38014
0.868705 0.0197751 -0.466057
-0.0789897 0.769554 3.39236
0.423776 0.26735 2.12528
1.92193 -0.381602 0.637821
-1.94205 0.398346 0.105354
-1.748 0.219602 -0.0215476
-1.82279 0.261258 2.47842
-1.17503 0.0662706 -0.448283
-1.37882 0.130141 2.61141
-0.675616 -0.146104 -0.174138
1.34616 -0.136579 -0.925818
0.997024 -0.112477 0.947257
-2.22344 0.370267 1.63442
-2.23075 0.423384 1.77079
-1.70876 0.171099 -0.31414
-1.82061 0.259602 1.40503
-1.42354 0.0748117 -0.0740388
-1.60474 0.168794 1.78294
-1.28003 0.150102 0.67807
-1.72502 0.27376 3.14028
-0.821745 -0.0187095 -0.1374
-0.726628 -0.0941727 -0.639554
0.927175 -0.125411 1.18008
1.11094 0.279093 2.46932
0.920856 -0.105797 0.951575
1.54013 -0.240613 0.509326
-1.9154 0.302231 -0.141452
-1.51445 0.0657041 2.64305
-0.459262 0.342628 1.22345
-0.567834 0.692684 2.16405
0.98904 -0.149838 1.5348
1.53855 -0.190608 1.03596
-1.44425 0.164155 1.50848
-2.21536 0.328673 2.00707
-1.62502 0.179995 0.0475992
-0.996895 0.103926 0.0564151
-1.13266 0.0277316 -0.389387
-1.20396 -0.0069879 -0.416605
-0.238165 -0.197429 -0.468143
1.32238 -0.0906413 1.2047
1.43598 -0.0128616 1.34251
0.923309 0.0468604 -0.857542
-2.1677 0.393773 1.75261
-2.27257 0.387352 1.7944
-1.85902 0.27796 1.73775
-1.93642 0.328499 0.14034
-1.68212 0.160199 1.72527
-1.8585 0.308434 -0.318575
-1.59637 0.168633 0.413911
-1.55716 0.246313 -0.181125
-1.70003 0.230192 -0.248571
-1.27168 0.182887 0.85621
-1.25973 0.0526425 1.33852
-1.25559 0.10173 0.522661
-0.996375 0.10409 0.863315
-0.969443 -0.000172954 0.288933
-0.815972 -0.0566418 0.435716
-0.757294 -0.149231 -0.608763
-0.269595 0.570312 2.09178
0.0803885 0.0146529 1.16462
0.813184 -0.0145601 1.48579
0.911878 -0.0933697 0.609339
0.710952 0.183207 -0.451532
0.839996 0.203093 -0.51229
1.53764 0.0496671 1.24505
-2.31815 0.477622 2.03017
-2.21317 0.413861 2.43363
-2.18332 0.514649 1.86541
-1.99488 0.328853 1.61642
-1.60199 0.148311 2.28592
-1.51636 0.188766 1.52304
-0.562543 0.756344 2.14786
-0.839 0.0450713 -0.456767
-0.662406 -0.0825541 0.0229924
-0.530362 -0.172946 0.338039
0.499044 -0.0510466 1.52692
1.34673 -0.214335 1.39282
0.865736 0.174928 -0.439456
1.02455 0.0638378 -0.343812
1.82774 -0.327065 -0.277224
1.98447 -0.176691 -0.148563
-2.19332 0.451386 1.55615
-2.15138 0.459893 0.243927
-2.21689 0.402635 0.17467
-1.73087 0.271695 1.20777
-1.95476 0.39872 -0.137798
-1.88919 0.317691 0.617441
-1.37248 0.170224 3.06831
-1.56157 0.173749 1.24226
-0.914611 0.0328395 0.30007
-1.09378 -0.00873598 -0.188026
-1.03316 -0.0375321 -0.471171
-0.835694 -0.0650971 0.673717
-0.987054 -0.0232147 -0.409881
0.660078 0.297718 2.17098
0.922969 -0.00166355 1.41228
1.55225 -0.211656 1.73238
1.71722 0.0156552 2.12222
-2.21682 0.370588 2.25323
-2.15301 0.456994 2.3132
-2.04295 0.376504 1.89234
-2.00857 0.243564 1.75887
-1.7841 0.25098 2.50293
-2.05318 0.286856 0.084558
-1.59962 0.104392 0.253979
-1.5418 0.273609 -0.155754
-1.35861 0.134999 0.619517
-1.04197 0.0592715 1.0273
-0.730035 -0.142641 0.561273
-0.657939 -0.174047 0.379494
0.151844 0.48118 2.24653
0.409849 0.369537 2.19423
0.795473 0.0116994 0.927873
0.980049 -0.0929272 1.56742
1.75336 -0.103851 2.16294
1.13466 1.864 2.99066
1.97596 -0.198467 -0.188448
-1.70335 0.257457 1.63371
-0.823746 -0.119213 0.595403
-0.364583 0.531468 3.02416
-0.218495 0.0495908 1.35256
1.97824 -0.350716 0.726668
-2.28665 0.383448 2.23368
-2.1191 0.441242 2.07639
-1.79987 0.340936 2.34617
-0.79465 -0.0171855 -0.655945
2.26542 -0.152157 2.1367
-0.79077 -0.106715 -0.565482
-0.0738589 0.290084 -0.457707
1.67229 -0.28515 -0.10247
-1.53277 0.137779 1.55956
-0.600604 0.398794 0.808228
1.22154 -0.281538 0.699719
-0.629349 0.857015 2.43986
0.849008 0.0332801 1.47456
-1.98851 0.298531 2.71561
-1.87059 0.247023 1.5454
-2.29367 0.44209 0.566698
-2.16948 0.340495 0.411502
-1.77127 0.26098 1.05564
-1.21635 0.0796497 1.66283
-2.03794 0.331466 0.571678
-2.04951 0.381933 0.522035
-1.99061 0.345347 0.489512
-1.59855 0.214329 1.04487
-0.969882 0.0156237 0.991633
-1.07644 0.000978138 0.870987
-1.02845 0.00178399 0.915475
-0.0326259 0.535771 2.08088
-1.15868 -0.103916 0.720473
-1.72729 0.229638 -0.120227
-1.40546 0.103349 0.0863763
-1.52649 0.23737 -0.0517056
-0.763161 -0.0339034 0.654644
-0.908826 0.0760028 0.318232
-0.909169 -0.0383017 0.204785
-0.709781 -0.195666 0.44105
-0.872342 0.0302808 0.277948
0.83317 1.70161 2.82766
-1.00532 -0.0092338 -0.244108
-1.14182 0.00229421 -0.293163
-0.724803 -0.0784495 -0.11519
0.183294 -0.0877659 0.926419
-0.667203 -0.159087 -0.346994
1.54835 0.111809 2.11457
1.29769 -0.319154 0.99227
-2.12997 0.406211 1.9083
-1.95798 0.444965 1.65172
-1.58918 0.163112 1.82399
-1.84026 0.266196 1.40885
-2.32797 0.47127 0.591646
-2.13498 0.373048 0.729881
-1.48692 0.0974004 1.46627
-2.32112 0.409119 0.259822
-2.20227 0.379524 0.140589
-2.23256 0.438639 -0.00822329
-1.63639 0.230733 0.772738
-1.97613 0.376976 -0.0130145
-0.564707 0.405026 1.70113
-1.03197 -0.0461743 0.871433
-1.60525 0.19871 -0.196161
-1.41954 0.186994 0.0274594
-1.66444 0.211906 -0.305164
-1.02797 -0.0368112 0.171396
0.743915 1.66987 2.90581
0.778856 1.7572 2.8495
-1.14904 -0.0608799 -0.206748
-1.03713 0.0848138 -0.558071
-0.730061 0.00525347 -0.408029
-0.642195 -0.0463831 -0.479277
-0.667611 -0.118186 -0.482161
0.970749 -0.0597575 0.986645
-0.388655 -0.193443 -0.73136
1.54808 -0.0522673 1.43386
0.865816 0.167793 -0.34935
0.996933 0.127505 -0.461374
1.31309 -0.101074 -0.840293
1.98661 -0.216142 -0.315218
1.9615 -0.306356 -0.906149
-2.18486 0.429324 2.76256
-2.21797 0.420415 2.36222
-2.21876 0.381078 0.896244
-1.204 0.147377 1.26045
-1.24285 0.0758674 1.07876
-1.49879 0.183212 0.186588
-0.91912 -0.110163 0.698873
-0.958384 -0.0171417 0.160244
-1.04366 0.0627944 -0.347339
0.240512 -0.0343478 0.896213
0.903061 -0.047292 1.49715
1.02418 -0.0958512 0.998592
0.768091 0.267188 0.3646
1.99004 -0.337679 1.04257
2.0168 -0.240637 -0.518038
-1.79371 0.30443 0.996763
-1.42668 0.191288 0.653032
-1.59448 0.217335 0.17855
-1.13112 0.0875852 -0.197208
1.18452 0.147042 2.26848
-0.679295 -0.0704482 -0.499421
0.957973 -0.128021 1.14415
1.41728 0.0622728 1.44529
1.55013 -0.0865128 1.42682
-0.0456168 -0.282039 -0.810606
1.28761 -0.0408614 -0.876224
1.16676 0.00830332 -0.804048
-1.85579 0.314029 2.1231
-1.91655 0.356102 1.74483
-1.4388 0.236151 1.39479
-0.272673 0.608395 2.08445
-0.785313 -0.0980666 0.564168
0.206787 -0.160646 1.02956
1.08154 0.209373 2.11526
1.0419 -0.250115 1.44753
1.93133 -0.0803769 2.24054
2.08161 -0.18057 2.15893
1.39619 -0.226106 0.577997
0.0825133 0.479135 2.28356
0.599451 0.314232 2.26788
0.770071 -0.0849097 1.39922
1.99729 -0.107838 2.24289
-1.5816 0.145672 1.62906
-1.38495 0.115232 1.04576
-1.02133 0.113414 1.16681
2.44357 -0.032986 -1.12907
-1.45 0.100954 0.934293
1.30504 -0.162058 0.744097
-2.25633 0.454981 1.83648
1.37766 -0.171426 1.3452
0.815002 -0.0132411 1.87603
0.640377 -0.0893862 0.433495
0.619182 -0.068949 0.187999
-1.70502 0.282184 1.90177
-0.313431 0.589259 2.11299
-2.08413 0.355606 1.14539
-1.92335 0.296295 1.11975
-1.7447 0.285856 1.23132
-1.68894 0.231907 1.06618
-2.19218 0.438866 0.849441
-1.92366 0.307485 0.854587
-1.46266 0.094897 1.05799
-2.16786 0.351325 0.554906
-2.15262 0.439021 0.644865
-1.64518 0.250741 0.898146
-2.26355 0.405301 0.501895
-1.4178 0.0983818 0.860773
-1.02808 0.0320088 0.999824
-2.27783 0.401764 0.310022
-2.24889 0.411682 0.382767
0.0263533 -0.0189775 1.23081
-1.03124 -0.0367835 0.706156
0.186584 -0.0158084 1.21677
-0.886491 0.0260369 0.72538
1.12435 -0.126 1.5821
-0.797291 0.0459706 0.3725
1.41195 0.00547472 1.26483
-1.46094 0.101222 0.0944743
-0.602729 -0.118098 0.318924
-1.62523 0.238554 -0.269883
-0.987262 -0.0144952 -0.156797
-0.855353 -0.0181344 -0.244371
-1.64909 0.131509 -0.342047
-0.615912 -0.132878 -0.463594
-0.555043 -0.189434 -0.850302
-2.31044 0.404328 2.69266
-1.98753 0.318565 2.32995
-1.98087 0.375171 2.06276
-2.01817 0.347948 2.12434
-2.18022 0.52082 1.69075
0.859749 1.73756 2.90168
0.878879 1.86208 2.91244
-1.34934 0.135339 1.0871
0.222948 -0.0142501 1.68244
-2.02037 0.329136 0.561792
1.05506 -0.0245593 1.8402
1.0709 -0.0776875 1.80306
1.15599 -0.00273929 1.85538
-1.53213 0.24282 0.448493
0.221941 -0.101558 0.960407
1.32795 -0.178454 1.38193
-0.954466 0.00517431 0.247842
-1.05413 -0.102736 0.168474
1.44686 -0.0047773 1.31417
1.33311 -0.200012 0.914998
-0.448064 -0.133591 -0.163975
-0.857623 -0.0261481 -0.23299
-1.17267 0.00179448 -0.506465
-0.998658 0.0607011 -0.581584
-1.42916 0.139351 3.03273
-1.91049 0.245953 1.92608
-1.76787 0.280146 1.81587
-1.74017 0.244168 1.78667
-2.03266 0.360569 1.38749
0.901909 1.86941 2.89239
1.12286 1.93228 2.9305
1.15149 0.0378062 1.85504
1.1271 -0.119443 1.75349
-0.986832 -0.0818245 0.745856
0.979839 -0.0912621 1.55115
-1.45293 0.0867813 -0.00426113
1.41404 -0.0484345 1.30099
-1.59613 0.184373 -0.342666
0.299678 -0.108751 0.29546
-1.64488 0.18999 2.85352
-1.26489 0.103893 1.74703
0.528379 1.71341 2.76177
1.02448 1.82709 2.95227
2.19426 2.12308 3.38426
-0.649892 0.0139643 0.6059
1.36712 -0.125402 1.4507
2.14103 -0.472211 0.853556
-0.0458839 -0.244898 -0.821861
-2.21794 0.336005 2.2057
-2.23044 0.31555 1.54886
-0.420377 0.721914 2.10299
-1.31615 0.153025 0.964483
0.53891 -0.207727 1.05033
1.35851 -0.0958741 1.40513
-1.68531 0.291988 -0.241587
-0.848128 -0.0517838 -0.220137
-1.00849 -0.0025581 -0.370188
0.0400481 -0.273046 -0.79374
0.880279 0.2263 -0.240399
0.0643096 0.256601 -0.637857
-1.12448 0.0535848 2.0016
-1.6558 0.194678 1.57303
1.63113 -0.017237 2.07286
1.08713 0.108819 -0.604717
0.952377 -0.161391 1.6595
0.967905 -0.135816 1.32016
-0.778369 -0.014828 0.590527
1.14634 0.000198033 1.57174
0.468317 -0.177989 0.398338
-0.496276 0.674179 2.04579
1.0553 1.99975 3.06673
-0.254483 0.606431 2.31237
1.12196 1.96744 3.53271
0.92374 1.73855 2.83302
-2.01918 0.382232 2.65367
-1.8332 0.186695 2.57664
-1.94508 0.309336 2.44607
-1.30426 0.0731046 2.33439
-1.45499 0.223683 2.37237
-1.96795 0.330172 2.27809
-1.84172 0.362109 2.10578
-1.17924 0.0843274 2.11905
-2.16095 0.467671 2.08108
-1.90437 0.158941 2.0088
-1.55625 0.135767 1.97479
1.45907 -0.0961344 2.06884
-1.56336 0.227743 1.82967
0.62434 0.0446383 1.90232
-1.73566 0.235785 1.63157
0.675992 0.123861 1.90024
-2.2497 0.521057 1.79479
-1.59517 0.240946 1.70662
0.685354 -0.0596716 1.79823
1.08329 -0.0117534 1.73251
1.077 -0.0158656 1.87095
-1.6044 0.178129 1.63364
0.844522 -0.00212894 1.58176
1.24045 -0.0846779 1.54942
-1.42697 0.0829275 1.39973
1.23864 -0.174447 1.40127
-1.95156 0.361423 1.34527
-1.91188 0.412007 1.4015
-2.01133 0.297759 1.32268
-2.0039 0.280946 1.46862
-1.93543 0.302022 1.38184
-1.3461 0.201252 1.44275
-1.7557 0.298853 1.34305
-1.55347 0.167698 1.25572
-1.63884 0.256962 1.22191
-1.56181 0.246066 1.3359
-1.52284 0.117908 1.28917
-1.54653 0.152342 1.28235
-1.54082 0.273109 1.25319
1.38934 -0.0587695 1.33515
0.179102 -0.0708659 1.21403
1.37783 -0.302455 1.19109
1.41476 -0.285353 1.1868
0.132801 0.0534379 1.21767
-1.43718 0.175753 1.15298
-1.85278 0.291304 1.02492
0.781539 -0.0683548 0.993705
-1.90734 0.301441 0.912704
-1.30622 0.151225 0.96006
-1.12705 0.115113 0.889768
-2.18062 0.358977 0.847537
0.184732 -0.0786793 0.813399
-2.04444 0.406857 0.804765
-1.92045 0.221102 0.727562
-1.40916 0.175881 0.669786
-1.99164 0.308018 0.690114
-1.98266 0.262678 0.645123
-1.84827 0.234722 0.663292
-1.85995 0.206694 0.519605
-2.1899 0.401779 0.531533
-0.668069 -0.219731 0.394208
-1.78915 0.208177 0.480857
1.7372 -0.342317 0.261255
-2.0552 0.451928 0.49881
-2.03521 0.338624 0.423139
-2.06985 0.346199 0.319557
-1.37188 0.0331809 0.0308685
-1.34985 0.114266 0.143078
-1.22499 0.0462157 0.0710855
-2.19177 0.387297 0.260442
-2.16158 0.462103 0.173283
-2.08352 0.36512 0.121332
1.08966 0.11042 -0.391993
-0.45457 -0.128633 -0.908072
-0.129824 0.749602 3.42216
-2.0041 0.323162 2.87012
0.788273 1.73875 2.85986
-2.23528 0.517715 2.70251
-1.31716 0.13781 2.62998
-2.26896 0.45407 2.20464
-1.88286 0.302604 2.21003
-0.754941 0.7505 2.05655
-1.89783 0.246189 1.78538
-2.31353 0.410169 1.53599
-2.19357 0.390746 1.5068
1.17724 -0.104404 1.529
-2.0153 0.29085 1.41534
-1.83262 0.279741 1.44457
1.30222 0.0570781 1.45948
1.44376 -0.0386384 1.38136
1.33665 -0.180291 1.44753
-1.27922 0.152362 1.30353
1.46202 0.0309512 1.3068
-1.42794 0.195309 1.14967
-1.67162 0.243888 1.01332
-1.85136 0.24642 1.02921
0.173834 -0.0689538 0.977148
0.279424 -0.106764 0.852234
-1.76317 0.193641 0.84767
-2.06284 0.15508 0.901445
-1.52683 0.187189 0.791955
-1.4899 0.13561 0.0643086
-1.75409 0.257847 0.0624983
-0.814637 -0.0621302 -0.566468
0.0475268 -0.331729 -0.764072
-1.62613 0.205303 -0.416467
-0.160311 -0.332022 -0.719295
-0.544701 -0.0968792 -0.703959
-0.267087 -0.193064 -0.863194
1.11872 2.03124 3.37135
-2.12126 0.338419 2.87101
-2.08488 0.329204 2.56866
-1.98957 0.280003 2.6145
-1.96332 0.347226 2.63719
-1.97053 0.271087 2.45295
-0.777472 0.7866 2.3992
-1.27976 0.0758559 2.13821
-1.17157 0.0639894 2.17122
-2.21849 0.460259 2.11897
1.12303 -0.0752442 1.56774
1.14251 -0.126899 1.50076
-1.05077 0.0179535 1.54148
1.51883 -0.0438464 1.40383
1.3356 -0.0909512 1.21553
0.846548 -0.132633 1.17489
-1.35233 0.0916021 1.05808
-0.858987 -0.0202878 0.644199
-1.92009 0.276902 0.550306
0.637744 -0.128503 0.352207
1.59533 -0.303334 0.0248701
0.202512 0.118259 -0.181446
2.07144 -0.213472 -0.414579
2.11398 -0.213127 -0.580083
-0.657164 -0.0637505 -0.659549
-1.16255 0.0561244 -0.572184
1.88388 -0.0432198 -1.0388
-0.0681598 0.540801 2.75905
-2.12231 0.327412 2.3872
-1.78521 0.281147 2.00725
1.08754 0.0502803 1.82468
1.12684 -0.0772622 1.85885
-1.34862 0.123701 1.55506
1.56182 -0.0862772 1.46836
-1.74883 0.22418 0.725662
-1.30811 0.132629 0.673242
-0.637305 -0.0162004 0.57686
-0.783507 -0.000230175 0.472696
2.27913 -0.354766 0.389075
-1.8824 0.224009 -0.00646149
0.258186 0.162431 -0.251572
-0.189492 -0.349549 -0.461605
-0.332165 -0.132201 -0.740834
-0.151457 0.757083 3.36239
-1.73734 0.315328 2.83858
0.988605 1.87742 2.86966
-1.36321 0.167174 1.79625
0.520782 -0.10204 1.82892
0.934663 0.0258872 1.74407
1.14867 9.88505e-05 1.614
2.01567 -0.35379 0.85033
-0.483475 0.529253 0.834445
-2.10331 0.384596 0.839752
-0.603137 0.409731 0.791011
1.42252 -0.250118 0.711146
0.334421 -0.13322 0.569592
0.223657 0.10996 -0.131657
0.801525 0.0516698 -0.313638
-0.76134 -0.0624201 -0.486786
1.12509 2.04025 3.04306
-1.96423 0.419099 1.90429
-1.04688 -0.0487483 1.89998
0.533279 -0.175015 1.82672
2.03203 -0.397436 1.61502
1.40995 0.025088 1.412
0.544307 -0.0657046 0.332032
-1.47349 0.100935 0.0440142
-1.06263 0.00641504 -0.662505
2.03975 -0.0991709 -1.16598
-0.687512 0.890024 2.50195
1.17576 -0.207876 1.39967
-0.534054 0.344981 1.1255
-1.82716 0.305109 -0.178709
-1.52851 0.0498035 2.41989
0.613868 0.095247 1.84521
-0.614688 0.409742 0.72848
-0.461341 0.405687 0.706654
-0.591798 0.445278 0.721291
-1.18693 0.0588548 1.1084
-1.1208 0.0464522 0.854894
-1.08782 -0.0160907 0.710167
2.47936 -0.414273 -0.239947
-0.446347 0.725003 2.5547
-0.295142 0.179583 1.81024
-0.0391948 -0.21612 -0.783749
0.213346 0.185245 -0.217847
-0.799674 -0.037699 -0.186396
-1.58466 0.123677 0.0950136
-2.25335 0.365641 0.185431
-0.436246 -0.158335 0.158087
1.55389 -0.299667 -0.0329782
0.652328 0.128854 0.374422
-1.65513 0.272951 0.731681
-2.05642 0.418007 0.799217
-2.03399 0.31774 0.933178
-2.19918 0.452319 1.03484
-1.81462 0.294768 1.09658
1.52533 -0.301166 1.14574
-1.81889 0.311058 1.37776
-2.04932 0.390797 1.41222
1.3657 0.0596234 1.42148
-1.35275 0.191866 1.49151
-1.52108 0.128971 1.77057
-1.93725 0.199601 1.86646
0.0197863 0.570527 2.01303
-0.769913 0.553448 2.04077
-1.78448 0.285575 1.95625
-2.06856 0.454638 2.0777
-0.283385 0.613521 2.1771
1.33196 0.176748 2.20366
1.14449 0.302302 2.37015
-1.73248 0.332674 2.38166
-1.543 0.241127 2.648
-1.76389 0.323975 2.66506
0.906582 1.87759 2.96904
-0.733138 -0.0777199 -0.552829
-2.20335 0.447104 0.0459673
-1.47525 0.185161 0.0775047
-2.17022 0.418799 0.153481
-0.243857 -0.151492 0.223076
-2.04912 0.341303 0.759262
-1.66954 0.316047 1.03915
1.3475 0.0476157 1.32161
-1.00607 -0.011474 1.88691
0.887205 -0.0497448 1.99904
-1.57808 0.152768 1.90448
-2.1096 0.395031 1.89458
-1.84379 0.276595 2.56449
-1.80134 0.294944 2.80197
-2.04625 0.325985 2.86302
-2.18646 0.315649 2.99864
2.8763 -0.673895 -0.565383
-1.00608 -0.0114539 0.135248
-0.953889 0.0534331 0.3715
-2.02531 0.387501 0.753411
-1.40598 -0.0111707 1.05825
-1.15905 0.0867975 1.02049
-1.66606 0.187383 1.86457
-1.76288 0.29867 1.97162
-1.35919 0.194187 2.08742
-1.27271 0.107857 1.86345
-0.241706 0.700814 2.03607
-1.22327 0.168578 2.47185
-1.71499 0.298092 2.38933
-1.3489 0.16011 2.72408
1.6945 1.72843 2.81174
-2.01553 0.31855 2.87171
1.50073 0.049895 1.34567
0.85164 0.0985735 2.00891
-1.22125 0.0114323 2.10782
-1.18282 0.179576 3.19383
1.93216 -0.204137 0.474482
-1.29578 0.182517 0.522427
0.378648 -0.164887 1.08648
1.18007 0.00191274 1.81921
-1.05149 0.0557439 2.17417
0.540931 0.466031 2.36823
0.899522 -0.138181 1.02599
-0.605288 0.788719 1.92978
-1.17408 0.0664279 1.08779
-1.05706 0.159723 1.1683
2.15772 -0.291809 -0.846834
1.27872 0.0564725 -0.142225
0.733171 -0.0391734 1.82993
-2.24336 0.387555 0.450209
-1.19604 0.0520122 0.452152
-2.31186 0.395315 1.51502
-1.85084 0.282458 1.5572
-1.39754 0.120592 1.49516
-1.67699 0.204065 1.86165
-1.95041 0.375637 2.19755
1.35214 -0.1172 1.35517
-1.53289 0.193482 2.33222
-1.62653 0.206529 2.65865
-1.47836 0.19186 2.61286
-1.66726 0.2302 2.6415
-1.61189 0.194188 2.84174
-1.09329 0.186158 3.20608
-2.06461 0.375832 0.875462
-2.06257 0.409887 0.855284
-0.876826 -0.0387586 0.734792
-1.01309 0.00193467 0.775072
0.948265 -0.127234 1.04795
1.33773 -0.215169 0.855437
-0.694043 0.423503 1.88744
1.24303 -0.0972731 1.27237
-2.08224 0.441903 2.66503
1.1427 0.0769126 1.83754
1.17091 -0.0105289 1.72411
1.0376 -0.02086 1.96019
-1.25933 0.151373 3.23979
2.19855 2.12053 3.46285
-1.39738 0.11706 -0.189717
-0.992715 0.0114323 1.25116
1.40728 0.0617549 1.3818
-1.77495 0.334768 2.59471
1.15153 -0.0497229 1.84048
1.16352 0.0600774 1.8281
-1.16915 0.228128 3.17968
0.820291 1.79807 3.03626
-2.15606 0.408246 2.67787
-0.0168884 0.08273 1.30162
-1.29692 0.0785644 2.38974
0.571697 0.186409 2.004
-0.663747 0.415161 0.731321
0.806388 -0.009806 1.41115
-1.03931 0.0795285 2.16922
1.1006 2.14353 3.17063
2.22298 -0.464634 -0.903497
2.10222 -0.491797 1.89988
-0.837563 0.244265 1.04737
-0.0115363 0.0366131 1.38883
0.950416 -0.06024 1.23997
1.34334 -0.0423167 1.31693
-1.27573 0.109907 0.618336
0.13582 0.181139 -0.550887
-0.916159 -0.2077 0.772032
-1.95181 0.307067 2.07446
-2.24851 0.435627 2.26854
-2.30854 0.381432 2.69794
1.31252 -0.0123571 1.40596
-0.720805 -0.10372 -0.509459
-0.736796 -0.0580151 0.408372
-0.271905 0.691423 2.00826
1.29211 -0.0411113 1.50228
0.182062 -0.0118793 1.09854
0.86388 -0.0361207 0.930321
1.03512 -0.178145 1.23331
1.32054 -0.104959 1.33923
-2.30045 0.46575 2.57425
-0.25792 -0.00487171 1.38075
0.115001 0.0287577 1.26259
0.94429 -0.0524657 0.914756
0.631374 0.166159 2.06422
1.48741 0.00283018 1.40714
