0.733409 -0.295114 0.704359
3.05173 -1.36407 0.738604
-1.11754 0.384083 0.876105
2.14949 -1.09758 0.857566
-0.202832 0.263984 1.13076
2.61029 -1.22982 1.06282
1.60387 -0.460571 1.18611
2.1428 -1.11884 1.19962
1.95723 -1.07275 1.27877
0.118183 0.260357 1.69822
0.11438 0.249433 1.82488
-0.179026 0.338595 1.84624
1.35715 -0.119405 1.73862
1.93599 -1.09046 1.81539
2.77394 -1.35525 1.78438
3.25223 -1.48869 1.9307
2.85213 -1.39387 1.98981
2.6484 -1.31117 2.01617
1.97285 -1.14231 2.19209
2.8009 -1.35767 2.09967
2.12648 -1.16282 2.19263
2.21526 -1.19716 2.18767
1.41639 1.15182 2.26426
2.17147 -1.18 2.22106
2.23901 -1.2142 2.28698
2.12397 -1.19676 2.3216
2.1561 -1.21314 2.34998
2.71946 -1.37619 2.33184
2.57209 -1.31287 2.38656
1.3765 1.19628 2.55391
1.17139 1.61318 2.60919
1.30343 1.37903 2.65511
3.71276 -1.48841 2.51584
0.532734 0.310551 -1.58619
-0.0728864 0.588823 -1.45035
-1.18328 0.903663 -1.35086
-1.13378 0.701996 -1.07453
1.3784 -0.80233 -0.128464
-1.76896 0.566137 -0.0193417
2.06898 -1.03346 0.15418
-0.459677 0.180477 0.232307
-1.05249 0.351918 0.820106
1.95576 -1.05889 1.39715
1.97011 -1.07959 1.68235
2.27962 -1.22696 1.99963
3.70784 -2.30369 1.92994
0.43958 0.330799 -1.58256
1.82095 -0.847468 -1.37116
-0.896343 0.390552 -0.104061
-0.424038 0.139739 -0.072203
2.73407 -1.23213 0.369385
1.81927 -0.983116 0.475872
0.00221622 0.0348526 1.12538
0.0985787 -0.00457474 1.18151
1.67536 -1.00974 1.23579
2.09329 -1.10303 1.28158
1.22588 -0.0764744 1.59339
1.71542 -0.210163 1.5706
0.676788 0.085534 1.72833
2.79305 -1.36772 2.21361
0.798199 -0.0974178 -0.315703
0.471042 -0.203563 -0.104035
-0.0239664 0.103448 0.219442
1.51706 -0.429576 1.08137
1.46901 -0.428291 1.24391
1.50737 -0.15487 1.55466
0.526344 0.138113 1.73491
1.74138 -0.223525 1.64612
2.04679 -1.10423 1.99437
3.4647 -1.44271 2.73883
3.6166 -1.4815 2.72741
-1.5954 0.420051 0.0705055
2.50239 -1.21581 1.3133
1.96874 -1.09396 2.05145
1.8452 -1.10893 2.29708
-0.284058 0.114916 0.707044
-0.49638 0.481837 -0.831663
-0.475014 0.187431 0.715434
-0.739123 0.294364 -0.0455808
-1.83802 0.62354 0.0531169
1.31656 -0.105633 2.45159
1.45343 -0.79667 1.30131
-3.27585 0.744014 -2.23872
-2.4944 0.490017 -1.98524
-2.10554 0.387729 -2.07478
-2.51293 0.455067 -1.4068
-2.4944 0.443893 -1.4068
-1.16939 0.903113 -1.35671
-2.75852 0.496278 -0.904087
-2.38758 0.399474 -1.09719
-0.32608 0.566303 -1.63202
-1.25015 0.732592 -0.780434
-1.20833 0.740192 -0.742202
-1.66178 0.47048 -0.202492
-1.6544 0.453693 -0.186497
-1.66111 0.466175 -0.164145
-2.00996 0.539708 0.280287
-2.01275 0.525739 0.319848
-1.71145 0.469814 0.0386234
-1.65964 0.455004 0.0314996
0.193129 -0.322012 -2.21345
-0.0373935 0.407568 -0.90898
0.379672 -0.367634 -2.1152
0.380427 -0.380561 -2.01349
-1.61536 0.365608 0.420981
0.676818 -0.446324 -2.22262
0.663012 -0.463762 -2.11293
0.663134 -0.469053 -2.09645
0.775488 -0.483615 -2.19936
-1.64181 0.455838 0.913505
-1.65698 0.449026 0.982978
-0.625985 0.299363 0.0638334
-0.700396 0.277047 0.0948222
0.424816 0.0651525 -1.01867
0.903481 -0.542133 -2.04947
0.909408 -0.545757 -2.02493
-0.709183 0.305601 0.29896
-0.751911 0.322549 0.364427
0.767019 -0.500913 -1.8301
0.581866 -0.459273 -1.62015
0.943606 -0.552158 -1.89856
-0.549713 0.385582 0.465336
0.744433 -0.521557 -1.68377
0.657952 -0.492116 -1.51158
0.644041 -0.494739 -1.4905
1.42831 -0.685014 -2.32867
0.694898 -0.500812 -1.51688
0.32218 -0.0896753 -0.699379
1.00825 -0.588245 -1.80108
0.815241 -0.541055 -1.57628
1.21333 -0.645104 -1.99515
-0.414265 0.30588 0.621495
-0.38398 0.251132 0.568544
-0.362964 0.172254 0.483263
-0.373706 0.257505 0.622176
-0.914023 0.301509 1.16312
1.53115 -0.73939 -2.0669
-0.475213 0.189174 0.734301
1.27752 -0.677899 -1.72886
0.98008 -0.612538 -1.36396
1.61747 -0.758445 -2.06111
-1.00697 0.602184 1.78937
1.57721 -0.752597 -1.83661
0.437447 1.94315 2.36828
1.32029 -0.706568 -1.48437
1.87119 -0.820659 -2.0615
1.72793 -0.797639 -1.89789
1.56061 -0.774194 -1.70676
0.55086 -0.208216 -0.133323
0.569812 -0.212057 -0.132186
1.81254 -0.819015 -1.88886
0.575015 1.90263 2.40931
-0.689693 0.498808 1.88472
1.09429 -0.680944 -0.989384
1.11727 -0.675963 -0.860578
1.01203 -0.64862 -0.679419
-0.312461 0.387393 1.73758
-0.297086 0.385422 1.72479
0.117896 0.000132066 0.963521
0.0566122 0.0186767 1.08385
1.89596 -0.877548 -1.52025
0.682935 1.851 2.71389
2.04827 -0.91675 -1.5592
1.65391 -0.826898 -0.983468
0.638067 -0.201388 0.762981
0.626457 -0.200162 0.781466
0.633032 -0.206135 0.793337
0.102086 0.256402 1.82391
0.672209 -0.213707 0.791099
2.62953 -1.0536 -1.91846
2.49454 -1.03706 -1.75082
0.301455 0.206471 1.68656
2.07592 -0.953335 -1.14321
2.24496 -0.992557 -1.21958
2.04673 -0.967398 -0.775861
0.703511 0.0848846 1.68403
1.27224 1.40484 2.49944
1.9892 -0.981462 -0.47374
0.927663 0.019863 1.65108
1.08577 -0.0406163 1.58303
1.56 -0.165798 1.58893
1.8587 -0.992673 0.632515
2.0345 -1.03747 0.460052
2.53451 -1.15591 -0.0905276
2.15774 -1.07334 0.408454
1.70495 -0.982266 1.01394
2.32737 -1.15601 0.73466
2.62218 -1.21231 0.478696
2.65487 -1.22084 0.482905
2.41273 -1.18006 1.43151
2.42255 -1.24058 1.52536
2.33015 -1.2088 1.88972
2.62253 -1.34123 2.33435
-2.4654 0.490281 -2.09159
-2.07111 0.382484 -2.1378
-1.00912 0.662305 -0.776646
-1.66784 0.464524 -0.287735
-1.65878 0.451542 0.0152392
0.187736 -0.308942 -2.10386
-1.63134 0.365748 0.440887
-1.70462 0.388393 0.545346
-1.14018 0.406301 0.666196
0.921835 -0.546468 -2.04707
-0.969481 0.358094 0.656238
1.04685 -0.586203 -2.04628
1.03281 -0.590981 -2.02743
0.997145 -0.561278 -1.96249
0.852484 -0.532592 -1.74705
1.45965 -0.687857 -2.30422
-0.500288 0.199157 0.355994
-0.49207 0.186818 0.342651
1.03737 -0.589537 -1.81097
-1.53535 0.271141 1.30059
1.16907 -0.626332 -1.86613
-1.09278 0.356806 1.16587
-0.386883 0.275938 0.610485
-0.558667 0.208987 0.711141
-0.925664 0.307273 1.15335
0.376699 -0.169703 -0.475492
-0.898941 0.300564 1.14746
-1.02222 0.610419 1.77903
1.68166 -0.794426 -1.90534
0.0020593 0.0734418 0.566691
1.0999 -0.670532 -0.957389
0.579712 1.89538 2.51164
0.745008 1.85436 2.37858
0.521262 -0.269779 0.285877
0.0264991 0.0272045 1.08581
0.108399 0.0059346 1.06389
0.616192 1.86532 2.72982
0.674802 -0.318985 0.246074
0.140413 -0.00911549 1.08883
1.25068 -0.725511 -0.662432
2.45862 -0.999942 -2.03992
-0.161256 0.340353 1.84463
0.965826 1.77736 2.49023
2.10939 -0.948521 -1.4408
0.831846 -0.375772 0.452386
1.00657 1.75196 2.6889
0.340058 0.200898 1.66818
2.29498 -1.01999 -1.37263
0.469694 0.146527 1.81083
2.63707 -1.0924 -1.5096
2.06222 -0.96706 -0.801708
0.524898 0.131713 1.82939
1.50731 -0.830441 -0.105289
1.28272 1.39163 2.46098
0.717227 0.0755725 1.75738
0.916724 0.0227531 1.64449
1.34717 1.26215 2.5114
2.78077 -1.13866 -1.22639
1.07288 -0.0308147 1.7594
2.71391 -1.17139 -0.836588
1.47886 -0.141412 1.59171
1.54589 -0.162451 1.60009
2.04915 -1.03224 0.268457
1.90821 -1.00738 0.660754
2.52546 -1.15363 -0.102693
1.3279 -0.11743 2.24796
1.49132 -0.179023 2.36878
2.25074 -1.13089 0.736625
1.5179 -0.182315 2.38156
1.9312 -1.05642 1.18231
1.52352 -0.186325 2.397
2.55838 -1.20132 0.399585
2.31082 -1.15136 0.732476
2.21222 -1.12815 0.950647
1.67872 -0.228833 2.38846
2.07955 -1.11816 1.39975
1.98692 -1.10108 1.58649
2.0312 -1.1108 1.53837
2.40436 -1.19541 1.21872
1.96052 -1.12798 2.08256
2.00553 -1.14058 2.06138
2.08977 -1.17089 2.02971
2.85393 -1.31077 1.05613
2.30436 -1.19652 1.88419
2.32276 -1.20787 1.87693
2.46071 -1.25045 1.93414
2.50833 -1.29795 2.36522
2.72993 -1.23045 2.55487
3.22697 -1.47624 1.75569
-2.69299 0.533118 -1.79323
-2.39437 0.444543 -1.51738
-2.69682 0.487436 -1.02087
-1.07584 0.723352 -0.847279
-2.45538 0.38104 -0.475663
0.195734 0.260606 -1.86233
-0.333805 0.444205 -1.17463
-1.57975 0.343123 0.62469
-1.0634 0.328586 0.307487
0.731953 -0.490459 -2.0137
0.401456 0.0724084 -1.01303
-0.285361 0.210826 -0.25411
1.23165 -0.644628 -1.95381
-0.588502 0.385978 1.17089
0.205282 0.0316252 0.300511
1.04491 -0.648424 -0.927118
1.36386 -0.726196 -1.27804
1.41651 -0.740551 -1.29259
-0.309958 0.390107 1.70257
-0.347734 0.401779 1.74503
0.484759 -0.268857 0.455424
1.98163 -0.901538 -1.37798
2.68912 -1.07605 -2.14958
-0.0312122 0.295149 1.92272
0.81484 -0.370882 0.470003
1.95839 -0.918814 -1.12599
1.14203 1.78604 2.89609
1.82581 -0.918866 -0.537498
0.629933 0.103467 1.77786
0.655822 0.0987458 1.78239
0.837678 0.0509168 1.61978
0.750027 0.0642777 1.74222
1.72371 -0.910175 -0.160706
0.943853 0.0155762 1.61486
1.27262 1.60023 3.03349
2.36102 -1.07043 -0.521945
1.14135 -0.0501399 1.75766
1.27981 -0.0878159 1.74008
1.46612 -0.139151 1.60469
1.70525 -0.214312 1.59441
1.30092 -0.107622 2.30375
1.9461 -1.06235 1.04648
2.55043 -1.19503 0.357217
2.56982 -1.19485 0.344662
1.91675 -1.05519 1.21333
1.93547 -1.06801 1.22459
1.96236 -1.08379 1.35579
2.63475 -1.2313 0.684893
2.10407 -1.1318 1.40565
2.98999 -1.32402 0.287865
2.58295 -1.22889 0.897685
2.56924 -1.2278 0.928397
3.00437 -1.32799 0.35994
1.65959 -0.1637 2.84286
2.22321 -1.1825 1.8863
2.25467 -1.20005 1.87136
2.21584 -1.1948 1.96107
2.70578 -1.29221 1.39835
2.62948 -1.28593 1.57586
3.01966 -1.38072 1.29641
2.60179 -1.29529 2.02819
2.53769 -1.28109 2.16245
2.50016 -1.27528 2.27557
3.4252 -1.47609 0.994486
2.64768 -1.31322 2.10691
3.3804 -1.46766 1.08752
2.88706 -1.39311 2.25292
3.33212 -1.54009 2.26954
3.62339 -1.48341 2.75795
-1.16468 0.913853 -1.37385
-0.578639 0.622648 -1.60676
-0.0902018 0.35559 -1.96717
-0.907714 0.5337 -0.499553
0.0519981 0.347275 -0.774146
-1.15122 0.436896 0.399509
0.181708 0.248324 -0.725027
-0.733608 0.286456 0.105075
-1.55859 0.338745 0.836121
-0.971144 0.351828 0.443155
0.459689 -0.382439 -1.5716
-1.13138 0.366285 1.20756
-0.960727 0.317955 1.19662
1.03332 -0.627948 -1.1018
1.02662 -0.644652 -1.0384
1.84813 -0.862804 -1.58443
1.22025 -0.711804 -0.797951
2.76183 -1.09614 -2.1593
0.651228 -0.307216 0.644633
1.30662 -0.770508 -0.433374
0.696302 -0.322337 0.630191
1.49598 -0.208897 0.287276
2.47612 -1.04553 -1.44832
2.50966 -1.07196 -1.46931
0.853246 -0.43141 0.785372
1.22648 1.78805 2.85728
0.916087 -0.453393 1.11874
1.38833 1.17273 2.43168
1.75011 -0.928783 0.0977804
1.39708 -0.417551 1.20119
2.04977 -1.0323 0.229247
2.39353 -1.13003 0.000660319
2.56494 -1.18304 0.056351
2.96016 -1.31506 0.384459
2.42745 -1.19062 1.21316
2.20463 -1.18669 1.82036
2.81699 -1.29473 1.02609
2.24947 -1.18725 1.82646
3.06141 -1.36038 0.84086
2.60422 -1.2816 1.51156
3.07803 -1.3722 0.89419
2.12693 -1.17425 2.29289
2.51513 -1.28075 2.19555
2.88534 -1.38328 1.94968
3.10929 -1.46731 2.19937
-2.48396 0.490812 -1.93504
-2.49415 0.49623 -1.8797
-0.233227 0.572614 -1.60725
0.145475 0.291538 -0.691269
-0.512373 0.291544 0.0366849
-0.991982 0.355072 0.767164
0.0256564 0.0644696 0.528444
-0.758676 0.521703 1.90487
2.43295 -1.01699 -1.79942
1.26508 -0.766072 -0.415197
0.451625 -0.318749 1.15999
2.31074 -1.02492 -1.13186
3.02576 -1.19015 -1.84088
1.36137 1.22642 2.56177
2.69924 -1.15409 -0.97211
1.35125 -0.096393 1.61239
1.46606 -0.133512 1.56937
1.27405 0.0139549 1.96615
1.69742 -0.964245 0.82876
2.76954 -1.22172 -0.469288
2.56191 -1.17047 0.0250117
1.92099 -1.04966 1.1444
1.8291 -0.275301 2.38054
2.28848 -1.20022 1.78476
2.19972 -1.2114 2.35512
2.52121 -1.2743 2.04354
2.48217 -1.27518 2.20402
2.87823 -1.3993 2.40373
3.67101 -1.49419 2.49105
-1.67879 0.516674 -0.439061
-0.950855 0.682653 -0.544838
0.0344921 0.406187 -0.941009
-0.589911 0.336924 -0.538261
0.0180675 0.0815366 0.32499
0.00421281 0.0921625 0.377693
0.0514916 0.0223346 1.10981
-0.178635 0.338258 1.84741
2.89827 -1.16313 -1.76797
1.39339 1.18261 2.35246
1.5925 -0.466491 1.1307
1.96077 -1.07444 1.27196
2.73631 -1.37501 1.79333
2.82621 -1.392 2.35737
3.70995 -1.49237 2.5221
0.807213 -0.528678 -1.75922
0.953821 -0.0934388 -1.04301
1.70238 -0.772991 -2.40897
0.711307 -0.147655 -0.243804
1.54057 -0.402569 0.676649
1.75567 -0.93708 0.123018
1.37897 -0.120069 1.67185
1.88532 -1.12938 2.30036
2.61069 -1.31335 2.24867
3.69928 -1.50464 2.67789
3.72486 -1.5119 2.74801
-0.461753 0.134418 0.351168
0.731708 -0.0681757 -0.686278
1.47633 -0.278741 0.204714
0.455355 0.0430093 1.56366
0.598305 0.113026 1.73179
1.37916 1.19802 2.24869
1.44357 -0.408162 1.18572
1.81465 -0.254 1.71559
2.14024 -1.09641 0.852133
-1.66558 0.350462 1.04751
0.631379 -0.348522 1.00228
0.49212 -0.121974 -0.621991
-0.282152 0.0805637 0.461211
3.77594 -1.68015 2.63
-1.92318 0.664627 -0.653562
1.26378 -0.10981 2.24725
-1.88621 0.623282 0.0892227
-0.489541 0.43162 1.53497
0.28983 -0.387501 -1.17941
1.00627 1.75274 2.689
-3.24908 0.695399 -2.00354
-3.27738 0.745088 -2.23864
-2.98747 0.62334 -1.75708
-1.02426 0.60539 1.77968
-1.00468 0.604595 1.78966
-2.68759 0.490306 -0.945198
-1.66486 0.458883 0.94291
-0.93773 0.576246 1.78185
-1.91183 0.522555 0.125783
-0.775832 0.524564 1.90089
-1.77106 0.680113 -0.491586
-2.55644 0.456211 -1.40226
-2.50948 0.458699 -1.40615
-1.71302 0.470273 0.0385534
-2.70884 0.584738 -2.15705
-2.48821 0.451666 -1.40474
-1.66224 0.465783 -0.164103
-1.65253 0.452354 -0.145451
-1.66436 0.470434 -0.223254
-1.65528 0.454179 -0.185545
-2.49521 0.492725 -1.98518
-0.385352 0.41407 1.74731
1.28898 1.3624 2.40611
-1.16909 0.903412 -1.35722
-2.14911 0.399819 -2.07625
-2.14609 0.399959 -2.09904
-1.00891 0.667301 -0.796478
-0.742702 0.318223 0.383562
-0.740152 0.317838 0.364863
-0.492914 0.355739 0.546299
-0.467761 0.334908 0.55839
-0.656246 0.271212 0.247667
0.0910316 0.258122 1.8367
-0.414834 0.306627 0.622035
0.0879047 0.268783 1.72896
-0.454175 0.142384 0.780328
-0.577108 0.305129 0.0505821
-0.517799 0.296741 0.0535105
0.238923 0.224344 1.702
-0.109897 0.139686 1.14463
-0.0404022 0.0420106 1.11041
0.45921 0.153596 1.79781
0.122294 -0.0201186 1.24379
0.847142 0.0472204 1.63766
1.26425 -0.0292896 2.69132
0.625879 -0.200241 0.77915
0.650446 -0.208076 0.781489
0.208842 0.314497 -1.93403
0.20675 0.311826 -1.94957
0.318496 -0.0914301 -0.699343
1.52334 -0.184523 2.39812
0.378014 -0.367016 -2.11443
0.655333 -0.491302 -1.5144
0.669868 -0.495126 -1.51917
1.5548 -0.418301 0.654589
0.936017 -0.645389 -0.682595
0.676889 -0.468845 -2.1028
0.766732 -0.4996 -1.83065
0.740482 -0.493258 -1.98893
0.863588 -0.538703 -1.82442
0.872052 -0.544166 -1.8093
1.06894 -0.658064 -0.947786
0.827629 -0.531647 -2.00057
0.932618 -0.571807 -1.71413
1.06753 -0.636311 -1.32334
1.33415 -0.714505 -1.40735
1.4497 -0.771319 -0.925685
1.95989 -1.07572 1.25547
1.85812 -0.991351 0.632286
2.06267 -1.10346 1.25924
2.3214 -1.2072 1.87774
1.8379 -0.925061 -0.562547
1.78438 -0.873115 -1.13325
2.1886 -1.11523 0.784733
2.15734 -1.07389 0.408227
1.85426 -0.878603 -1.17423
1.70077 -0.796066 -1.91578
2.39853 -1.17203 1.26208
1.89392 -0.876921 -1.51895
2.59334 -1.20505 0.467642
2.71313 -1.25133 0.877553
2.48869 -1.06558 -1.46645
2.48121 -1.0459 -1.62095
0.324984 1.97069 2.61934
0.346974 1.95918 2.60711
0.772392 1.84483 2.34563
0.883778 1.80008 2.57354
1.17615 1.78121 2.89295
1.17467 1.77445 2.86118
-2.00341 0.540253 0.258852
-1.75748 0.39953 0.793438
-1.60314 0.299312 1.19603
-2.54006 0.469408 -1.35484
-2.74418 0.56339 -2.05198
-0.713336 0.504882 1.8972
-1.63437 0.367107 0.443765
1.22029 1.51958 2.53189
-2.491 0.491727 -1.89672
1.28335 1.39722 2.64444
-1.12002 0.407581 0.638423
1.26258 1.42763 2.50475
-1.1042 0.399862 0.655013
-1.10653 0.414512 0.525028
1.3051 1.33892 2.49756
1.49329 1.18063 2.83028
-0.109127 0.190492 1.14596
0.227109 0.233668 1.69149
-0.0932762 0.183467 1.08861
-0.102393 0.179159 1.06801
0.300481 0.207717 1.68238
0.335925 0.198117 1.66827
-0.0252698 0.0432184 1.09865
0.447298 0.155993 1.78521
0.0547647 0.0746139 0.539404
0.623296 0.10587 1.77936
-0.0460595 0.351473 -0.699328
0.71502 0.0766191 1.754
0.703425 0.0849373 1.66233
0.181943 0.0176119 0.565901
0.0658716 0.385933 -0.873728
0.19229 0.0356343 0.317389
0.0809195 0.382666 -0.885817
0.0824479 0.387685 -0.912388
0.109069 0.371505 -0.897706
0.173479 0.248121 -0.639093
0.916293 0.0240476 1.6395
0.338793 -0.247995 0.820883
1.27499 -0.094821 2.30338
0.667558 -0.207404 0.749852
1.39018 -0.139157 2.36462
1.20122 -0.0532377 1.55648
1.49333 -0.175564 2.47164
0.423859 0.0649745 -1.01826
0.524413 -0.195769 -0.224469
0.512716 -0.180879 -0.382637
1.4535 -0.133582 1.59119
1.46737 -0.139097 1.60495
1.67871 -0.225434 2.38791
1.47613 -0.13899 1.59292
1.4918 -0.14355 1.60377
1.70951 -0.240558 2.35709
1.54585 -0.160726 1.59484
0.12603 -0.29549 -2.05244
1.55873 -0.165195 1.58674
1.81193 -0.271073 2.4005
1.79589 -0.254428 2.27429
0.184393 -0.309979 -2.10498
0.172497 -0.314841 -2.22977
0.227261 -0.315958 -2.21679
1.42744 -0.411839 1.14044
1.83287 -0.24666 1.53807
0.579971 -0.45799 -1.62144
0.938803 -0.647678 -0.661788
0.952468 -0.627792 -0.756073
0.72743 -0.47663 -2.08425
1.07232 -0.66314 -0.821001
0.882079 -0.553162 -1.74214
1.29039 -0.76696 -0.154481
1.02013 -0.618944 -1.36439
0.946666 -0.555346 -1.84873
1.27944 -0.722425 -0.841615
1.98102 -1.1383 2.20504
2.00384 -1.14016 2.06109
1.99709 -1.13492 2.01866
1.96855 -1.10081 1.73538
1.67622 -0.936365 0.414137
1.45734 -0.794564 -0.770671
1.97801 -1.09508 1.53767
1.40095 -0.729672 -1.32009
1.73401 -0.939943 0.130736
2.0804 -1.11576 1.40008
2.05459 -1.0981 1.24723
1.77312 -0.92826 -0.068395
1.82732 -0.948917 0.0872141
1.6629 -0.845823 -1.07264
1.43998 -0.685968 -2.34943
1.57648 -0.751871 -1.83684
2.0475 -1.04862 0.355933
2.05386 -1.04459 0.324124
2.02157 -1.00211 -0.0485149
1.71479 -0.803296 -1.8265
1.98649 -0.946809 -0.860404
2.25656 -1.11946 0.373183
2.34669 -1.14512 0.621668
2.0579 -0.96843 -0.801843
2.11345 -0.987787 -0.748499
2.62806 -1.28291 1.57839
2.38329 -1.10747 -0.141163
2.00934 -0.844628 -2.36485
2.54954 -1.1942 0.356673
2.5636 -1.19756 0.373423
2.14489 -0.917544 -1.88101
3.0728 -1.44876 2.23777
2.85306 -1.31174 1.05633
2.47134 -1.04796 -1.58761
3.02405 -1.3775 1.18144
3.03502 -1.37431 1.1956
2.70308 -1.13146 -1.06329
2.81225 -1.22108 -0.451919
2.63484 -1.09427 -1.51128
3.34739 -1.52156 2.0143
1.10084 1.80126 2.89976
1.2343 1.66568 2.88099
-1.11502 0.362191 1.18324
1.27659 1.40939 2.62999
-0.979741 0.325281 1.14651
-1.20746 0.761832 -0.818023
-1.18013 0.738412 -0.827607
-1.16145 0.72184 -0.826535
-0.413254 0.475584 1.10166
-0.031001 0.296269 1.95245
-0.323552 0.410491 0.968578
-0.826587 0.36518 -0.107166
-0.729727 0.385281 -0.633461
-0.50973 0.296098 0.0341955
-0.110029 0.0843113 1.14916
0.0952695 -0.00629037 1.24871
0.0124708 0.0828165 0.450119
0.688545 0.0817563 1.78767
0.275657 -0.215319 0.627076
-0.0735296 0.343981 -1.98524
0.552977 -0.334275 1.03952
1.15168 -0.0538135 1.76834
0.582998 -0.346929 1.03964
1.38357 -0.123207 2.3036
0.537765 -0.283986 0.458401
1.503 -0.181688 2.49321
1.77263 -0.198859 2.83483
0.830094 -0.373365 0.455328
1.73518 -0.248406 2.44469
0.96573 -0.647633 -0.666136
1.09696 -0.688048 -0.661267
1.08034 -0.694747 -0.694091
0.90902 -0.540873 -1.86811
1.29813 -0.774952 -0.1347
0.965563 -0.577905 -1.67519
1.88508 -1.10626 2.2648
1.32975 -0.77758 -0.419212
1.67235 -0.937198 0.439474
2.13151 -1.17789 2.28889
2.22153 -1.21908 2.40787
1.88802 -1.00705 0.507806
1.61035 -0.788083 -1.59895
2.17171 -1.12904 0.949594
2.19198 -1.12457 0.918117
2.43581 -1.19375 1.27894
2.23313 -1.07916 0.183472
2.56907 -1.22924 0.928006
2.5801 -1.22779 0.89558
2.56775 -1.1945 0.343362
2.60123 -1.209 0.480652
2.89348 -1.3913 1.78593
2.84761 -1.31311 1.08623
3.01835 -1.37916 1.2943
3.22321 -1.49386 1.87101
3.26031 -1.4938 1.92527
2.73764 -1.18205 -0.834631
2.50723 -1.01474 -2.13505
3.25571 -1.48095 1.69847
2.98871 -1.32117 0.293002
3.29933 -1.28044 -1.57006
-2.53533 0.457702 -1.28245
-1.18568 0.38307 1.20034
-2.48134 0.461319 -1.544
-1.20231 0.410529 0.920814
-2.48538 0.49432 -1.93605
-1.03912 0.360962 0.818797
-1.15742 0.436836 0.40219
-0.85314 0.288165 1.20699
-0.865828 0.293202 1.18042
-1.15622 0.719872 -0.792238
-1.03882 0.636832 -0.688676
-0.0361297 0.29696 1.92172
1.38638 1.1866 2.39878
1.54972 1.08043 2.94632
-0.486158 0.268433 -0.320929
-0.494426 0.778197 -1.85037
0.0228456 0.0617789 0.697378
-0.123478 0.168998 -0.0870348
-0.0260366 0.34231 -0.711526
0.00662791 0.335009 -0.715137
-0.087813 0.355169 -1.97632
0.378761 0.463906 -1.53016
0.397252 0.0718006 -1.01183
1.42252 -0.133264 1.60179
0.87647 -0.414372 0.776684
1.81718 -0.239056 1.5213
0.867869 -0.620731 -0.686436
1.89086 -1.03177 1.18495
1.31722 -0.711643 -1.39286
1.92058 -1.04829 1.14514
2.33664 -1.11562 2.60976
2.04862 -1.1099 1.60234
2.11226 -1.14177 1.4882
2.20189 -1.18635 1.81702
2.51522 -1.28148 2.23194
1.9215 -0.848473 -2.09782
2.33273 -1.00001 -1.41967
2.81703 -1.29551 1.02538
2.69743 -1.15532 -0.975467
2.70667 -1.13758 -1.14389
3.00378 -1.32852 0.36642
2.98554 -1.30374 0.156554
2.9103 -1.16485 -1.73476
2.98678 -1.19363 -1.51564
0.562904 1.89485 2.58912
-0.869483 0.309645 1.22552
-0.980183 0.383614 0.392447
1.42039 1.13435 2.3721
-0.700695 0.27087 0.0887918
0.0476862 0.0152494 1.21146
-0.0454896 0.427069 -0.906766
0.141298 0.053041 0.313388
0.69047 -0.350021 0.869437
1.85818 -0.279986 2.42256
0.45818 -0.422688 -1.56667
1.58658 -0.459109 1.12906
1.55145 -0.450527 1.0151
1.97217 -1.15983 2.31264
1.94044 -1.09408 1.81494
2.03966 -1.10568 1.68339
1.95871 -1.07891 1.2704
2.06231 -1.11176 1.64033
1.81006 -0.963782 0.475198
1.86645 -0.991942 0.481317
2.19187 -1.11829 0.976583
2.37202 -1.16998 0.966901
2.65449 -1.28338 1.54921
3.03932 -1.37157 1.17415
2.52878 -1.04252 -1.75203
3.65984 -1.49851 2.59797
3.73044 -1.51697 2.70112
1.17119 1.58858 2.37706
-0.268499 0.387277 1.65761
-0.5096 0.743529 -1.82009
-0.00223937 0.0570848 0.801611
-0.313998 0.26052 -0.562323
0.179682 -0.0363208 1.19156
0.0264997 0.0715173 0.522077
0.842586 -0.541878 -1.62896
1.27595 -0.754672 -0.414071
1.70797 -0.958509 0.769376
2.1589 -1.18775 2.04838
1.76487 -0.919903 -0.0140861
1.79429 -0.936183 -0.0465023
2.17161 -1.13967 1.43675
1.79805 -0.856542 -1.15277
1.79446 -0.822914 -1.77872
3.34035 -1.40334 2.56073
2.97129 -1.18535 -1.53917
0.450983 0.0259489 1.56022
1.09904 -0.034441 1.77491
0.522429 -0.279447 0.237269
2.19795 -1.16623 1.49004
1.96862 -1.00125 0.291655
2.50013 -1.2035 0.767235
2.45721 -1.12777 -0.0778715
3.69651 -1.50396 2.67014
-3.23118 0.720162 -2.15726
-0.882659 0.388131 -0.130416
1.33069 -0.0979572 2.17976
1.52068 -0.722774 -2.13252
0.577862 -0.279988 0.181292
1.43171 -0.423977 1.16141
1.82028 -0.248967 1.7248
1.28517 1.3941 2.32956
0.2597 0.149083 -0.169607
-2.16148 0.754582 -0.776171
-1.85925 0.623412 0.0778551
-1.05988 0.301998 1.22082
2.02805 -0.890293 2.59086
0.681039 1.85081 2.71555
1.0015 1.76409 2.58507
1.28118 1.38735 2.67293
1.26406 -0.0289555 2.6927
-1.01081 0.598943 1.79036
-0.525691 0.445987 1.8717
-0.561116 0.469168 1.69985
-0.388964 0.41355 1.74713
1.52352 -0.182336 2.39981
1.57857 -0.201933 2.39151
1.57307 -0.193587 2.26854
0.107179 0.260447 1.73612
0.454891 0.150987 1.79744
0.236201 0.224663 1.70142
-1.6612 0.452431 0.984229
-1.6619 0.459197 0.944677
-0.981064 0.322042 1.16857
0.475257 0.15207 1.62603
-0.479116 0.330848 1.17958
2.25883 -1.22063 2.4359
-0.137984 0.221334 1.10117
-0.357551 0.402854 0.904694
-2.01532 0.529427 0.322045
-2.00193 0.530092 0.285395
3.42694 -1.42423 2.54815
-1.91376 0.522464 0.126002
-0.432626 0.130694 0.726911
-1.86163 0.50328 0.103361
-0.729825 0.319872 0.500905
-0.390142 0.284463 0.613549
-0.375223 0.259355 0.622288
-0.488848 0.361827 0.54852
-0.358568 0.227187 0.61251
1.97321 -1.11047 1.7487
3.02317 -1.44052 2.1893
-1.69577 0.46307 0.0358872
-1.6649 0.451361 0.030214
2.20776 -1.1864 1.78898
-0.53861 0.356427 0.401206
1.90382 -1.06925 1.63744
2.56816 -1.28078 1.89422
-0.0520734 0.0874193 0.580838
1.88896 -1.07117 1.5645
-1.65281 0.45556 -0.143515
-1.65679 0.456446 -0.183888
0.671938 -0.244869 0.826039
-1.65817 0.460265 -0.22226
-1.66397 0.473497 -0.240745
0.617715 -0.195185 0.746952
0.667313 -0.210632 0.76337
-0.710665 0.26849 0.0963695
-0.0845677 0.115496 0.331985
1.7016 -0.992205 1.27427
-1.76973 0.679684 -0.491951
3.25023 -1.51435 1.94913
0.201789 0.0362569 0.304596
3.38645 -1.51512 1.83219
2.40831 -1.17351 1.33159
2.08055 -1.08895 1.15305
0.593366 -0.290144 0.350861
0.516467 -0.271594 0.284758
2.89742 -1.37334 1.49987
2.98123 -1.39708 1.50924
0.944568 -0.374479 0.415719
-1.09442 0.678498 -0.68686
-2.74664 0.517942 -1.40843
-1.1219 0.727498 -0.849078
-2.51779 0.454259 -1.4055
-0.953579 0.675122 -0.777961
1.85945 -0.990643 0.633119
-3.26231 0.723226 -2.01981
2.12722 -1.0693 0.697037
1.64867 -0.928786 0.447579
1.66011 -0.928376 0.442825
2.3228 -1.15829 0.734914
1.68675 -0.930989 0.396149
-3.2379 0.733877 -2.20759
-3.30734 0.756061 -2.24364
-1.36761 1.02157 -1.48063
2.07663 -1.0662 0.45323
1.77554 -0.939454 0.279519
2.87176 -1.30707 0.830538
-2.36574 0.45371 -2.10416
-2.10065 0.397691 -2.06884
2.97986 -1.32478 0.705439
2.60143 -1.21086 0.476972
2.61726 -1.21158 0.479299
2.64261 -1.21597 0.467678
2.246 -1.08867 0.185864
1.95836 -0.981684 0.0175684
0.935475 -0.644505 -0.678672
0.999254 -0.64852 -0.701404
2.15191 -1.03168 -0.0941506
2.53152 -1.15417 -0.0896852
1.4587 -0.797653 -0.754699
1.11426 -0.675324 -0.978007
0.462524 -0.437403 -1.47789
1.44877 -0.773132 -0.926351
1.23094 -0.718686 -1.06107
3.43993 -1.43516 0.268727
0.511302 -0.438487 -1.57613
1.23571 -0.701571 -1.15643
0.653908 -0.490353 -1.51351
0.562943 -0.455885 -1.57696
0.672628 -0.49438 -1.51331
0.690699 -0.499471 -1.51307
0.486434 -0.43135 -1.64171
0.9681 -0.627396 -1.35663
1.65137 -0.826935 -0.982935
1.05688 -0.632455 -1.36859
0.202777 0.312471 -1.93483
2.04446 -0.969064 -0.776056
2.92658 -1.27199 -0.246576
0.137338 -0.309976 -1.99007
1.65093 -0.845331 -1.05322
1.64606 -0.840287 -1.06638
1.33231 -0.714701 -1.40636
1.92506 -0.913783 -1.07591
0.194429 -0.315588 -2.22655
0.861622 -0.537797 -1.82394
0.849064 -0.531402 -1.83529
1.99951 -0.954182 -1.12326
1.02555 -0.586555 -1.79324
1.11139 -0.616266 -1.75223
0.934591 -0.547174 -1.91047
2.35345 -1.04399 -1.11243
1.05517 -0.579367 -1.97015
1.8922 -0.877066 -1.52023
1.69457 -0.803455 -1.83081
1.7052 -0.795472 -1.89603
1.6287 -0.753408 -1.99479
2.7427 -1.11387 -1.68597
1.98443 -0.850636 -2.25889
2.41304 -1.00279 -2.1212
1.1786 1.76746 2.99633
0.327897 1.96827 2.6192
0.648418 1.86047 2.68076
1.00288 1.75262 2.68906
1.00204 1.76112 2.54824
0.465381 1.9415 2.3943
1.49167 1.18215 2.82934
0.665237 1.87586 2.37464
1.2835 1.39663 2.64701
1.21376 1.5296 2.52102
1.29541 1.3267 2.49954
1.26246 1.42449 2.45254
1.65976 -0.163315 2.84113
1.68757 -0.172087 2.83414
-0.337553 0.385935 1.85116
-0.132815 0.320594 1.91182
1.39082 -0.139557 2.36753
-0.0627606 0.308607 1.84251
1.72959 -0.249194 2.43971
1.81256 -0.271742 2.40227
-1.53618 0.276446 1.29744
-1.61854 0.303713 1.21257
-1.60036 0.300681 1.19639
0.623604 0.104902 1.7826
-1.09708 0.36045 1.16437
-0.964692 0.313591 1.19486
-0.947329 0.309433 1.18023
-0.9296 0.308843 1.15214
2.13608 -1.2023 2.43144
0.822794 0.0543237 1.63433
-0.464099 0.335415 1.158
-1.68452 0.389596 0.773714
0.913653 0.0263211 1.64254
-0.300356 0.348086 1.13535
1.33063 -0.110752 1.7509
1.15745 -0.0607904 1.64983
-0.156651 0.223144 1.12027
-1.58509 0.339124 0.623897
-0.0993339 0.0726121 1.15205
-0.308209 0.401943 0.980375
-0.112188 0.208719 1.07709
-1.14351 0.407171 0.669014
1.96669 -1.13366 2.09553
-0.368669 0.418094 0.901714
-0.0549314 0.0550542 1.09902
2.49922 -1.27586 2.27881
-1.12417 0.406749 0.640866
1.4765 -0.140588 1.59609
-1.64418 0.384702 0.433857
1.9758 -1.13203 2.02676
-1.05041 0.397597 0.612981
0.15686 -0.0452022 1.12321
-0.998555 0.371076 0.63139
1.54219 -0.160357 1.59834
1.99491 -1.13587 2.01942
2.59837 -1.30422 2.25838
-0.955796 0.357269 0.62738
1.80926 -0.248976 1.69194
-0.925011 0.350484 0.626606
2.60119 -1.30189 2.12084
1.89773 -1.07946 1.79371
2.1366 -1.15227 1.83864
2.27673 -1.19198 1.85202
3.10919 -1.46363 2.19202
2.25046 -1.19563 1.79945
1.79943 -1.04241 1.5859
0.316427 -0.245431 0.850697
0.356604 -0.261608 0.857172
0.125929 0.0268895 0.700707
0.356172 -0.257202 0.829983
-0.0206887 0.0795499 0.595692
-0.00288814 0.0752761 0.56538
2.32861 -1.20854 1.72709
-0.411226 0.152306 0.385757
3.12914 -1.46008 2.06523
0.125082 0.0377021 0.557057
3.18958 -1.47186 2.04111
2.1176 -1.14095 1.52651
0.670976 -0.213361 0.737847
2.6731 -1.30348 1.70919
1.96111 -1.07526 1.35666
3.17875 -1.47251 1.88785
3.25606 -1.49193 1.90416
2.03237 -1.0852 1.32093
2.11307 -1.14055 1.35157
1.93516 -1.06994 1.24554
-2.69332 0.485282 -0.945177
2.63212 -1.29314 1.55251
2.5498 -1.27133 1.50474
2.63151 -1.30812 1.53685
-2.91603 0.546091 -1.08614
1.72143 -0.975066 1.07278
1.85071 -1.01579 1.05214
-0.232233 0.194931 -0.158602
-0.963144 0.579766 -0.565486
1.63516 -0.951807 0.803549
2.71251 -1.28703 1.31014
1.73231 -0.977843 0.789308
2.79617 -1.31031 1.30742
1.75645 -0.977016 0.785049
2.12262 -1.11174 0.965136
-2.54498 0.472083 -1.36213
2.03041 -1.06 0.879826
-1.00385 0.667692 -0.775968
-0.958217 0.674443 -0.774624
0.920951 -0.364341 0.245832
-0.914024 0.682866 -0.877979
1.90534 -1.0109 0.66381
2.99355 -1.36878 1.20652
2.74295 -1.26368 0.998328
2.81976 -1.29289 1.01882
1.72549 -0.942271 0.403491
2.36719 -1.15533 0.692496
2.39382 -1.15587 0.696858
2.66271 -1.2412 0.822885
3.09662 -1.38531 0.927564
-2.46789 0.480009 -2.07755
2.86215 -1.29863 0.770666
3.07929 -1.38073 0.88304
2.22336 -1.08728 0.401886
2.96574 -1.33249 0.800641
-2.39469 0.465958 -2.11168
0.0868451 0.387662 -0.901588
3.3374 -1.45071 0.95215
-2.11503 0.406212 -2.08426
0.212388 0.345096 -0.951643
0.687066 -0.0508632 -0.669544
1.17858 -0.720174 -0.338087
1.79006 -0.937892 -0.0869767
1.55835 -0.843337 -0.394994
1.06875 -0.662259 -0.818572
1.0643 -0.661044 -0.948253
2.52142 -1.1508 -0.10106
1.92391 -0.970684 -0.459146
1.45391 -0.79871 -0.770194
2.81056 -1.23177 0.0267184
1.44434 -0.778051 -0.856655
3.42531 -1.43392 0.26906
1.24639 -0.725312 -1.05194
1.79687 -0.916168 -0.724663
0.641677 -0.491225 -1.49027
1.97675 -0.959171 -0.74801
1.98299 -0.95467 -0.809536
2.15685 -1.00542 -0.75585
2.83022 -1.22404 -0.34723
2.81387 -1.21605 -0.450092
0.880333 -0.550456 -1.73813
0.17452 -0.311297 -2.23036
1.85444 -0.878631 -1.17334
0.220079 -0.313933 -2.22207
1.67553 -0.814147 -1.30448
1.17237 -0.648198 -1.72461
0.743571 -0.484015 -2.03004
0.826625 -0.528569 -1.99774
1.25471 -0.685491 -1.74469
2.25433 -1.02709 -1.13091
2.72753 -1.18198 -0.855708
1.35431 -0.691954 -1.84147
1.65512 -0.788446 -1.72939
2.28639 -1.00568 -1.33929
1.48578 -0.729331 -2.08981
1.5422 -0.745026 -2.05502
1.90746 -0.857632 -1.82077
2.63319 -1.09283 -1.51035
2.32369 -0.96451 -2.03748
2.93771 -1.17545 -1.65793
2.8168 -1.10026 -2.03028
1.0983 1.79968 2.89778
1.22011 1.69296 2.8833
0.619931 1.87131 2.67825
1.27922 1.40777 2.63164
1.2336 1.49983 2.5409
1.35324 1.2527 2.51983
1.41818 1.14166 2.55186
1.30106 1.35008 2.41912
1.26059 -0.0819567 2.65418
1.49869 -0.180272 2.49068
-0.374086 0.406057 1.76179
-0.356401 0.40039 1.75011
1.49765 -0.170101 2.3892
1.68021 -0.224459 2.27615
-1.07974 0.349433 1.30344
2.08226 -1.1922 2.40158
2.04908 -1.17925 2.3591
-0.236477 0.323853 1.143
2.39496 -1.26414 2.41003
2.42091 -1.26184 2.41131
-0.927716 0.329389 0.886585
-0.06328 0.0485301 1.18202
2.53171 -1.30631 2.30545
-1.6524 0.370561 0.459347
2.00392 -1.14722 2.06083
1.4476 -0.12745 1.59081
2.9018 -1.41334 2.36012
-1.1148 0.416103 0.522841
2.53743 -1.28181 2.1634
2.21249 -1.204 1.96525
2.8722 -1.38793 2.22571
2.8923 -1.39578 2.22267
2.64647 -1.31381 2.10662
1.78581 -0.224336 1.51894
2.13627 -1.15193 1.8551
-0.381477 0.244394 0.565861
-0.321998 0.223087 0.568377
2.93428 -1.4042 2.12284
2.53756 -1.2816 1.94226
2.16338 -1.14981 1.7521
0.695031 -0.384849 1.02416
1.09109 -0.506002 1.08697
2.43607 -1.2346 1.75081
1.84307 -1.03586 1.47851
-2.47093 0.380266 -0.470195
1.97046 -1.08517 1.52141
1.88827 -1.04063 1.43891
1.4094 -0.423602 1.0548
1.94125 -1.06866 1.35076
0.59295 -0.281907 0.645744
3.22415 -1.50423 1.94203
2.44841 -1.24186 1.55127
0.657393 -0.306737 0.640285
-1.81914 0.840429 -0.67152
0.484079 -0.269811 0.455451
0.532334 -0.284161 0.456085
1.62447 -0.957048 1.02259
3.34268 -1.49612 1.76417
0.827156 -0.373771 0.457448
-1.25516 0.765147 -0.830082
1.70478 -0.956876 0.759583
-1.16718 0.719183 -0.830444
-0.176415 0.211491 -0.354428
-2.44035 0.442915 -1.48796
-2.35508 0.411038 -1.47165
-2.3822 0.42941 -1.49576
-2.41588 0.44585 -1.51354
2.58141 -1.22782 0.896303
2.33072 -1.15797 0.759681
2.6168 -1.2331 0.898443
1.78884 -0.949227 0.409711
0.188282 0.284113 -0.608563
0.0821636 0.32101 -0.782243
-0.540528 0.504713 -1.15403
0.130222 0.324823 -0.845982
0.0562012 0.390427 -0.89419
-2.30375 0.437784 -2.10307
3.42773 -1.47986 1.01497
0.852243 -0.630704 -0.444858
2.54843 -1.19334 0.385819
1.20575 -0.728983 -0.368801
1.7905 -0.935424 -0.0654565
-0.789645 0.697072 -1.62227
-0.834402 0.750384 -1.66565
0.392421 0.0705637 -1.01276
0.891226 -0.634119 -0.68386
1.3166 -0.754981 -0.688131
3.01709 -1.32804 0.291713
1.34873 -0.761403 -0.692945
0.980323 -0.626557 -0.911114
1.44803 -0.800116 -0.686107
3.09226 -1.3403 0.275227
1.36801 -0.759377 -0.796943
1.27907 -0.713916 -0.884318
1.47661 -0.79193 -0.781769
1.58282 -0.829469 -0.741496
0.408475 -0.41795 -1.48224
2.56647 -1.16295 -0.251457
2.67881 -1.18648 -0.260924
0.245632 -0.324519 -2.09699
0.935076 -0.571186 -1.68
0.962332 -0.581087 -1.6794
1.12186 -0.632379 -1.60302
0.212122 -0.317831 -2.18522
1.01526 -0.594184 -1.71736
0.961597 -0.563825 -1.82236
1.94899 -0.89959 -1.3086
2.35791 -1.03015 -1.13937
1.06732 -0.586309 -2.054
1.24903 -0.650484 -1.96743
2.5018 -1.05966 -1.15148
2.45799 -1.05497 -1.58313
2.13007 -0.934786 -1.82096
2.07164 -0.892948 -1.86571
1.45903 -0.693469 -2.30455
2.99762 -1.20382 -1.22912
2.62127 -1.08129 -1.56293
3.12386 -1.24309 -1.23754
1.27318 1.40243 2.6579
1.27477 1.42257 2.61066
1.35636 1.22113 2.38015
1.37799 -0.13397 2.34483
1.85242 -0.279738 2.42013
-0.938545 0.304348 1.33052
1.8381 -0.244562 2.13131
-0.852338 0.296045 1.18338
-0.501407 0.333482 1.19631
-1.64942 0.376759 0.775783
2.30689 -1.23552 2.41021
-0.963155 0.336467 0.92357
3.41405 -1.43731 2.75649
0.144603 -0.0203211 1.24184
2.88186 -1.40058 2.40857
1.93508 -1.10511 2.00739
-1.73302 0.469569 0.340497
0.213347 -0.0311785 1.09233
-1.15874 0.438929 0.397705
2.90863 -1.40299 2.24869
1.97138 -1.11242 1.81029
-0.390809 0.293963 0.601584
2.21737 -1.19807 1.86028
1.86509 -1.06039 1.66255
2.18844 -1.17102 1.77869
1.88764 -1.06163 1.64071
2.38273 -1.22632 1.85218
1.41693 -0.410217 1.07001
1.52448 -0.444541 1.10908
2.08625 -1.11825 1.41574
2.65919 -1.29341 1.63849
2.47213 -1.25122 1.54451
-1.83504 0.773166 -0.607563
0.0974156 0.0964432 0.245529
-0.08163 0.307055 0.0344477
3.45563 -1.53495 1.78711
0.768676 -0.356778 0.418074
-2.9396 0.595596 -1.39901
2.20672 -1.12215 1.11081
-0.48901 0.246256 -0.334008
-2.53175 0.450014 -1.22403
2.06864 -1.08642 0.961738
2.17048 -1.12877 0.953286
3.18082 -1.43342 1.42757
-1.05276 0.721946 -0.847442
2.53918 -1.21169 1.07564
3.01744 -1.38061 1.29238
-0.895229 0.646722 -0.844263
1.92524 -1.03273 0.722442
2.80046 -1.31614 1.15483
-0.289034 0.233261 -0.520662
2.84531 -1.32479 1.1213
3.02841 -1.36634 1.13531
1.66114 -0.946521 0.431946
3.00924 -1.35881 1.11256
-0.0218607 0.340158 -0.707947
2.71803 -1.25985 0.84055
2.09072 -1.05692 0.421411
-2.50275 0.479816 -2.05871
2.70458 -1.25078 0.72429
-0.0213443 0.387456 -0.901996
-0.503634 0.509063 -1.15962
3.39383 -1.47529 1.04081
0.113376 0.342016 -0.844067
3.29023 -1.44071 0.972781
3.04987 -1.36999 0.819107
3.43636 -1.47563 0.957661
2.55242 -1.187 0.320402
0.85748 -0.621667 -0.687106
-0.566091 0.624878 -1.60465
2.49659 -1.14635 -0.0932207
2.61872 -1.172 -0.040349
2.98539 -1.30461 0.156912
1.84303 -0.928352 -0.539127
2.50838 -1.1447 -0.223378
1.94164 -0.940343 -0.675754
1.20041 -0.694728 -1.2197
0.759894 -0.514708 -1.54025
2.04843 -0.981795 -0.773769
2.32811 -1.06029 -0.658753
0.704778 -0.495308 -1.75426
1.74776 -0.849668 -1.28156
0.88486 -0.533217 -1.84906
2.00876 -0.914582 -1.39973
1.18074 -0.620296 -2.03649
2.26609 -0.999591 -1.31736
1.66912 -0.794821 -1.82603
1.67114 -0.783456 -1.90068
1.49406 -0.695027 -2.32316
2.95696 -1.18603 -1.50784
1.21174 1.68933 2.8704
1.40143 1.14421 2.55706
1.41216 1.16131 2.41039
1.29096 -0.103793 2.42043
-0.133916 0.33019 1.85709
-0.179398 0.339571 1.84222
0.0879975 0.18391 1.55799
-1.60147 0.34659 1.03197
-0.973343 0.350993 0.880509
2.02835 -1.13779 2.21616
2.19488 -1.19473 2.2562
-0.293869 0.360468 0.997792
0.183827 -0.034434 1.24972
1.41243 -0.264118 1.4706
2.50893 -1.26802 2.0458
-1.01888 0.415168 0.368387
1.96522 -1.10058 1.77632
0.158795 0.00451425 0.849708
-0.532977 0.368943 0.493733
0.0674906 0.0441767 0.710891
1.92714 -1.06281 1.59609
1.86609 -1.05793 1.53898
0.687667 -0.351275 0.871758
-1.6899 0.524234 -0.434852
1.78009 -1.00844 1.21864
3.22123 -1.47487 1.73247
1.64896 -0.959616 0.837446
-0.965947 0.626948 -0.650791
-0.932566 0.597826 -0.639806
-2.71507 0.510184 -1.44415
0.60691 -0.251158 0.0455489
-1.016 0.680457 -0.887146
-1.69485 0.834424 -1.37478
2.06311 -1.05973 0.475502
0.111929 0.296677 -0.72793
2.23939 -1.08289 0.149432
0.876517 -0.629763 -0.643135
-0.445255 0.578657 -1.62314
-0.483703 0.787816 -1.83883
2.82612 -1.22951 -0.213987
0.219929 -0.334178 -2.06498
1.42942 -0.726282 -1.33561
1.31295 -0.701528 -1.51809
0.724173 -0.489098 -2.00658
2.7187 -1.16594 -0.870317
2.45317 -1.04496 -1.54539
1.35753 1.23247 2.55451
1.74214 -0.263883 2.40917
1.82823 -0.275231 2.37897
0.485906 0.139161 1.81142
2.19144 -1.20509 2.39576
1.29519 -0.0975921 1.7274
-0.210675 0.262386 1.12986
2.06006 -1.15148 2.20274
1.73287 -0.224769 1.72243
1.6891 -0.21993 1.70754
3.70684 -1.50961 2.71058
1.31022 -0.250945 1.42175
-1.68607 0.501939 -0.0255945
3.12389 -1.46043 1.94369
2.75778 -1.34886 1.74996
-0.927355 0.715958 -0.532527
0.53615 -0.269828 0.196704
2.57086 -1.2492 1.25188
0.292614 -0.161987 -0.160812
1.91663 -0.984331 0.299489
0.0167562 0.406088 -0.937363
0.191164 0.131477 -0.84055
1.27309 -0.756347 -0.411354
2.94271 -1.29768 0.3054
2.47104 -1.13529 -0.181638
0.825601 -0.517114 -2.00117
2.64626 -1.13932 -1.01883
1.17438 1.58788 2.44186
1.40488 -0.141123 2.34611
1.34442 -0.123443 2.28027
1.35913 -0.0996957 2.0846
1.36565 -0.124506 1.61762
-0.42274 0.261558 0.558163
-0.514901 0.232192 0.453984
-0.522204 0.265825 0.398645
0.0541759 0.0827387 0.409565
-0.00526204 0.0946857 0.359662
-1.14869 0.681319 -0.602228
-0.969136 0.54378 -0.616862
0.611033 -0.271981 0.115219
2.61203 -1.22919 1.06599
-0.0296866 0.376587 -0.8203
3.07879 -1.36337 0.700342
1.53066 -0.836376 -0.37569
0.489375 -0.359957 -1.65281
0.815151 -0.495362 -2.15996
0.290552 0.214688 1.69678
0.684484 0.0871104 1.71427
-0.433651 0.139668 -0.0707036
-1.31153 0.671223 -0.7612
-3.30373 0.76924 -2.15601
0.524447 0.138728 1.72749
-0.217156 0.291264 1.17168
1.46087 -0.435493 1.24282
-0.517387 0.220477 -0.00437371
-0.644493 0.363216 -0.101806
-0.744533 0.46424 -0.642929
-0.132788 0.0588237 0.957677
-0.705153 0.243896 0.708735
-0.485529 0.184119 0.711797
-0.35519 0.150123 -0.0811914
-0.487327 0.503051 -0.81561
0.730066 -0.37253 -0.744996
0.550751 -0.415437 -2.21004
1.34253 -0.662004 -2.07286
0.847703 -0.514781 -2.148
0.950129 -0.559595 -2.01691
0.924871 -0.553609 -2.01973
0.769179 -0.506802 -2.01224
0.721582 -0.493263 -2.00344
0.756189 -0.498207 -1.99703
1.85776 -0.834737 -1.81773
1.50192 -0.756554 -1.74153
2.50255 -1.07339 -1.47853
2.48874 -1.06263 -1.46258
1.42225 -0.716807 -1.58106
1.45555 -0.738418 -1.58256
-2.44088 0.472042 -2.11263
-2.47144 0.49595 -2.08736
1.87854 -0.866562 -1.45517
0.583375 -0.459311 -1.61957
0.671843 -0.486516 -1.60229
-2.76617 0.575389 -2.04205
0.613634 -0.472755 -1.4918
2.40672 -1.01722 -1.25955
1.38793 -0.720202 -1.32834
1.02092 -0.616707 -1.36397
1.45196 -0.739049 -1.29711
0.990786 -0.62605 -1.35001
1.91584 -0.893175 -1.2218
2.06018 -0.942829 -1.16265
1.54676 -0.795475 -1.08553
1.98095 -0.929284 -0.988703
-2.92794 0.597416 -1.38079
2.71041 -1.16862 -0.833585
0.0820437 0.384378 -0.881646
1.99358 -0.948039 -0.854939
2.28431 -1.05943 -0.779528
2.04613 -0.971658 -0.775451
1.07217 -0.658983 -0.818135
1.45573 -0.797396 -0.76775
1.00315 -0.64645 -0.700305
2.3265 -1.05481 -0.536132
3.04603 -1.27551 -0.374667
1.6137 -0.852994 -0.428962
1.72723 -0.884072 -0.310775
2.45383 -1.11682 -0.116375
-1.67305 0.458477 -0.223552
1.41566 -0.811911 -0.139271
1.11596 -0.717807 -0.0945906
-1.77154 0.649312 -0.0864994
2.28435 -1.07875 0.046738
2.45732 -1.13662 0.0851304
2.40697 -1.12575 0.084425
1.83198 -0.952458 0.0908745
-0.0296469 0.141214 0.25527
1.72937 -0.945176 0.403423
1.70385 -0.934777 0.411912
2.20773 -1.10359 0.447039
2.02956 -1.04439 0.460926
1.90771 -0.997492 0.462495
0.115026 0.036104 0.568761
-1.05924 0.388318 0.631503
-0.498619 0.191003 0.725305
2.96919 -1.32996 0.645597
0.650097 -0.206734 0.781574
0.683295 -0.211545 0.779902
2.60073 -1.23033 0.70505
2.98233 -1.32848 0.705912
2.35341 -1.15949 0.71405
0.605569 -0.207788 0.796025
2.32418 -1.15597 0.736409
3.3577 -1.44539 0.76146
1.73545 -0.977114 0.790745
2.61872 -1.23095 0.780182
2.85173 -1.29754 0.841201
3.02684 -1.36687 0.854212
3.04764 -1.38403 0.910991
2.0996 -1.0942 0.958576
-0.172988 0.228051 1.09437
0.218077 -0.03168 1.06933
-0.947333 0.316107 1.16594
2.1705 -1.10755 1.05124
2.22762 -1.12343 1.06035
2.8521 -1.31291 1.05866
1.99106 -1.08162 1.25077
1.66369 -0.983187 1.26982
1.72231 -1.00148 1.27807
2.71461 -1.2864 1.3125
2.72532 -1.29312 1.32168
1.91697 -1.06144 1.37463
2.09711 -1.10977 1.50325
0.299066 0.213773 1.68733
0.914101 0.0266151 1.64653
0.70167 0.0859453 1.6671
2.0679 -1.12853 1.54431
2.45384 -1.24509 1.53064
3.31862 -1.47607 1.5267
1.33966 -0.103374 1.71949
-0.523006 0.444713 1.86993
0.699093 0.0826153 1.77709
-0.688487 0.49661 1.88473
1.33007 -0.103446 1.73422
-0.77911 0.520515 1.90099
-0.709916 0.502402 1.89672
1.70135 -0.220922 1.71211
1.33464 -0.109821 1.75086
2.21547 -1.18934 1.80703
2.14156 -1.15094 1.84015
2.59587 -1.28684 1.86
2.57006 -1.27615 1.8944
2.46967 -1.25252 1.91471
2.16205 -1.19192 2.01815
2.61806 -1.30846 1.97514
2.63778 -1.31311 1.97156
3.38656 -1.53266 1.94704
2.97354 -1.40793 2.04742
1.48826 -0.16804 2.3032
0.575913 1.90348 2.41036
1.52383 -0.183421 2.40013
2.63253 -1.34461 2.3457
2.77257 -1.23526 2.57918
2.19725 -0.927263 -2.0994
1.8849 -0.828763 -2.0647
2.3582 -0.998717 -1.78113
1.02571 -0.569173 -1.96611
0.830158 -0.521699 -1.99308
1.88725 -0.851522 -1.81842
2.99108 -1.184 -1.56239
0.871027 -0.544862 -1.80755
1.24689 -0.671889 -1.75592
2.11276 -0.933749 -1.53543
0.68384 -0.488809 -1.70001
-0.835519 0.703925 -1.61274
1.42395 -0.744926 -1.28915
0.752894 -0.534099 -1.33751
2.70556 -1.13519 -1.06155
0.8122 -0.552224 -1.26295
-3.21992 0.696236 -1.68764
-2.44443 0.43807 -1.45644
-2.50771 0.455179 -1.449
2.74964 -1.17533 -0.886881
2.95646 -1.22762 -0.821799
1.98393 -0.953764 -0.810306
2.10318 -0.985729 -0.793568
-2.31929 0.380469 -1.12616
1.33371 -0.742204 -0.807081
1.92149 -0.934659 -0.723343
-1.80525 0.81662 -0.81419
1.09045 -0.698727 -0.66645
1.87361 -0.929294 -0.540005
1.84443 -0.928643 -0.539513
2.11557 -1.02376 -0.465719
-0.519435 0.301479 -0.398166
-0.431407 0.2693 -0.389859
2.96252 -1.26137 -0.280989
0.998611 -0.669632 -0.389699
3.24894 -1.35616 -0.217465
3.01185 -1.27698 -0.163277
2.39359 -1.10636 -0.126717
1.74844 -0.918073 -0.1163
1.75507 -0.924246 -0.101761
1.7629 -0.926161 -0.0841605
2.18122 -1.05058 -0.00538271
1.75087 -0.921288 0.0502591
-0.69956 0.271971 0.113147
0.92635 -0.348812 0.146654
2.98336 -1.30485 0.156666
3.32607 -1.39773 0.17399
2.06553 -1.03034 0.186289
0.14578 0.0850803 0.247056
0.674611 -0.320478 0.246542
2.62548 -1.21067 0.33578
2.58884 -1.2012 0.338323
-0.93001 0.371488 0.402406
3.06045 -1.35602 0.392535
2.72242 -1.23688 0.410414
2.62598 -1.22778 0.412693
0.454173 -0.256225 0.470241
0.45432 -0.26991 0.489102
0.0779075 0.0677224 0.538738
2.00023 -1.02212 0.492315
-1.58844 0.342199 0.624592
0.276144 -0.212194 0.630545
0.293629 -0.233817 0.634924
0.652946 -0.201773 0.747952
2.73635 -1.25129 0.683919
2.28024 -1.13867 0.730775
2.59201 -1.24107 0.74344
2.15825 -1.10206 0.756159
-0.33741 0.39442 0.921072
-0.397405 0.449028 0.963984
1.89171 -1.02381 0.95045
0.548377 -0.331294 1.03858
0.679894 -0.383517 1.04042
2.01373 -1.07719 0.984137
1.5393 -0.444293 1.07332
2.23438 -1.12283 1.01833
1.09589 -0.507215 1.08588
2.33353 -1.15872 1.0405
-1.13637 0.367564 1.20646
3.23735 -1.4256 1.07393
3.38724 -1.47375 1.07505
1.74628 -1.01544 1.28392
2.07858 -1.1244 1.41236
1.88988 -1.04213 1.43978
2.5778 -1.27567 1.50436
0.275514 0.214379 1.70883
0.890869 0.0302218 1.66899
2.59271 -1.28825 1.52473
0.709147 0.0798157 1.76248
1.35883 -0.115097 1.72322
0.89454 0.0132751 1.76401
0.615302 0.109038 1.7937
1.06907 -0.0316215 1.75976
1.80093 -0.250832 1.7075
0.529156 0.12819 1.82816
0.487568 0.137548 1.87108
1.73695 -0.23901 1.78093
3.09762 -1.42619 1.66592
2.00739 -1.12064 1.76752
2.04236 -1.12285 1.76814
2.29259 -1.20126 1.77437
2.57288 -1.28817 1.77169
3.49389 -1.53782 1.73183
2.57199 -1.27968 1.86657
1.9966 -1.14341 2.04547
2.19 -1.20467 2.02701
2.96008 -1.40903 1.95061
1.96925 -1.14235 2.05994
1.83918 -0.264711 2.25087
1.68247 -0.226512 2.27685
1.90309 -1.13913 2.34632
2.87231 -1.38988 2.22707
1.51529 -0.184492 2.38182
1.49416 -0.174947 2.38921
2.75655 -1.38423 2.33961
2.51908 -1.30009 2.38355
3.20189 -1.50923 2.31438
1.25717 1.43885 2.50405
0.87144 1.79831 2.57298
0.622375 1.87211 2.67773
1.98212 -1.0217 2.62737
0.562148 1.88889 2.7197
1.00008 1.75293 2.68871
2.74301 -1.23724 2.57273
1.10489 1.79579 2.89606
2.39309 -0.991585 -1.9
1.74649 -0.807245 -1.79604
3.08556 -1.21199 -1.57371
0.890507 -0.527252 -1.84823
2.62076 -1.0853 -1.56302
-2.74923 0.552758 -2.05434
0.950167 -0.588685 -1.54383
0.879179 -0.571163 -1.53281
1.71603 -0.814925 -1.39624
1.95293 -0.891271 -1.36417
1.55972 -0.773107 -1.37795
1.28015 -0.701976 -1.24044
0.987403 -0.603035 -1.25766
1.54714 -0.787631 -1.16655
2.33943 -1.04425 -0.809455
1.30144 -0.731533 -0.838023
0.187376 0.280357 -0.692122
1.09756 -0.685327 -0.761616
1.94385 -0.937426 -0.673421
-0.264703 0.19752 -0.226622
1.5071 -0.835054 -0.166076
1.28492 -0.769056 -0.150674
1.79504 -0.937356 -0.0851831
2.65249 -1.21716 0.351088
2.63874 -1.21901 0.383278
2.5258 -1.18312 0.403963
2.75746 -1.2585 0.421537
-1.7461 0.394877 0.606081
1.55436 -0.408294 0.639432
3.36277 -1.43618 0.62424
-1.6358 0.371367 0.775198
-0.0102235 0.059888 0.830454
1.70929 -0.954668 0.759708
-1.5742 0.32309 1.01103
2.61737 -1.22787 0.900807
2.16244 -1.10709 0.933653
2.79672 -1.28868 0.92356
0.698553 -0.38602 1.02283
2.13805 -1.11168 0.966305
2.04165 -1.0761 0.973582
1.76234 -0.985906 0.989184
2.15105 -1.11291 0.980823
3.37755 -1.46684 0.971492
1.95944 -1.05852 1.04303
2.17319 -1.11568 1.11116
2.20597 -1.12171 1.10802
2.99972 -1.37838 1.18962
2.76686 -1.30276 1.31632
2.47777 -1.21597 1.3812
1.84678 -1.03848 1.47994
0.482919 0.151468 1.64853
2.62661 -1.29388 1.50829
1.20859 -0.0663622 1.65212
1.82301 -0.249955 1.68939
1.86458 -1.06056 1.65948
1.20987 -0.0686938 1.73835
2.04311 -1.10908 1.70623
2.15313 -1.14352 1.7693
2.37952 -1.22083 1.75615
2.27866 -1.19655 1.7961
2.87697 -1.37557 1.76647
2.43211 -1.23547 1.80754
2.40663 -1.24619 1.96996
2.88795 -1.38589 1.9503
2.25537 -1.23071 2.02269
2.57488 -1.29308 2.03376
2.39588 -1.23887 2.09089
2.99222 -1.41307 2.03168
2.67721 -1.32203 2.09792
2.2277 -1.19919 2.21197
2.73365 -1.35499 2.23691
2.25879 -1.20845 2.30558
3.1826 -1.48762 2.19385
2.67875 -1.33539 2.30425
3.30386 -1.52524 2.26501
2.72502 -1.37745 2.34272
2.11374 -1.18188 2.46497
2.43637 -1.26797 2.42475
3.25183 -1.51792 2.32628
1.33992 1.27005 2.51702
1.36008 1.23154 2.56513
1.27871 1.41621 2.61032
1.14154 1.78741 2.87892
0.887992 -0.533401 -2.01573
2.1574 -0.946861 -1.79553
2.43921 -1.03732 -1.6326
2.44422 -1.03903 -1.43647
2.41009 -1.03442 -1.41596
1.41944 -0.741896 -1.55131
-2.50879 0.473407 -2.06464
3.08561 -1.24144 -1.25499
1.69955 -0.837956 -1.28916
1.23984 -0.700858 -1.2296
2.77064 -1.18563 -0.868466
2.29302 -1.05949 -0.761613
-0.922305 0.671393 -0.815743
-2.24307 0.742781 -0.783395
1.27065 -0.761079 -0.406909
2.43318 -1.11881 -0.145055
-0.0277219 0.102169 0.346159
2.87685 -1.28358 0.393981
0.554385 -0.289041 0.44193
2.26103 -1.12843 0.444877
2.56498 -1.21579 0.871968
1.98174 -1.06606 1.01156
1.93664 -1.06197 1.01892
-0.850861 0.291446 1.18923
2.07054 -1.07589 1.11131
2.99749 -1.3575 1.13863
1.79016 -0.228778 1.51976
1.90406 -1.05784 1.50159
1.93662 -1.06743 1.52151
0.88721 0.032068 1.64357
3.03927 -1.41502 1.80768
2.56627 -1.29893 2.02606
