2.33022 -1.02307 -1.43816
2.04034 -0.979042 -1.94463
2.27805 -1.11683 -1.65523
2.54352 -1.14155 -1.71526
2.73775 -1.20206 -1.98951
-2.57193 0.44219 -0.452618
-1.4649 0.346858 1.08965
0.718174 1.89035 2.66682
-0.952971 0.334298 0.853635
-0.202263 0.244636 1.31905
-0.223237 0.300226 1.53525
-1.19254 0.731794 -0.381629
-1.05115 0.575628 -0.454118
-0.122662 0.378863 1.18838
-1.01352 0.691627 -0.426748
-0.412196 0.0236743 0.23974
-0.683484 0.243177 -0.293072
-0.515983 0.229007 -0.140311
-0.264188 0.215286 -0.118455
1.55025 1.76486 2.5404
0.579147 -0.146764 1.30101
-0.528305 0.460145 -0.981031
0.745496 -0.274105 1.01021
0.831654 -0.299255 0.763149
0.905079 -0.339396 0.523961
0.968657 -0.372124 0.702012
1.28305 -0.443655 1.15813
1.00277 -0.456978 0.559227
0.932903 -0.134265 -0.187812
1.88534 -0.515726 0.993315
2.2094 -1.15607 0.864853
1.23804 -0.738264 -1.2187
2.47693 -1.06683 0.920223
2.44253 -1.22828 0.666627
3.32122 -1.4895 1.96283
2.72123 -1.29755 1.00688
1.90838 -0.958301 -0.632395
3.02424 -1.38624 1.42296
3.28348 -1.46811 1.77714
2.74404 -1.24057 0.258042
2.54267 -1.17136 -0.229975
2.76589 -1.32208 0.193255
2.69653 -1.19184 -0.220708
2.7534 -1.27428 -0.165408
2.73623 -1.17672 -0.263892
2.33212 -1.11418 -0.788875
2.39071 -1.11771 -0.942466
2.23968 -1.05937 -1.6183
3.34123 -1.51535 0.211161
3.1323 -1.3285 0.0488116
2.25562 -0.978461 -2.55792
-1.16181 0.244145 1.39728
-0.668805 0.379399 1.8837
-1.72452 0.760256 -0.234969
-0.312085 0.458164 1.96985
-0.805983 0.273885 1.2594
-0.603795 0.235649 1.6725
-0.591273 0.192061 1.52294
-0.92555 0.426874 0.829014
-0.451233 0.264558 1.56045
-0.518497 0.238168 1.58819
-0.753288 0.373405 1.22993
-0.647146 0.255058 1.16094
-1.1027 0.543828 -0.35047
-0.973841 0.663289 -0.491821
0.194858 -0.041646 0.737443
0.533488 -0.173459 1.2464
-0.10084 0.11734 -0.0597808
0.1293 0.128733 0.268681
0.534009 -0.106398 0.718686
0.90708 -0.319156 1.22432
0.890075 -0.428673 1.12562
0.0800116 0.289013 -0.524494
1.21992 -0.470412 0.711923
1.42471 -0.783468 -0.480216
1.64695 -0.928683 -0.191529
1.55404 -0.789957 -0.481088
2.47408 -1.14823 0.654416
2.44175 -1.17293 0.163692
2.52142 -1.16194 0.0887925
2.28297 -1.10931 -0.606949
2.56867 -1.19468 -0.128627
1.55894 -0.903274 -2.1544
3.59678 -1.58557 1.40988
3.30942 -1.42302 0.211196
2.6451 -1.15204 -1.38031
2.25157 -1.07357 -1.54439
2.83152 -1.23633 -1.07077
2.68529 -1.18417 -1.21629
-0.583076 0.256785 1.65679
-0.760932 0.261775 1.52069
-1.70891 0.722875 -0.249617
-0.688891 0.340337 1.38553
-0.625559 0.281645 1.17282
-0.559654 0.231009 1.68253
-0.651591 0.163733 1.46348
-0.684888 0.354978 -0.236594
-0.221481 0.0592949 0.473056
-0.17235 0.100623 0.673562
0.388917 -0.108948 1.22876
0.145948 0.109475 0.60199
0.172826 0.104016 0.566784
0.342413 0.0275032 0.412988
1.3843 -0.033004 1.7128
1.53771 -0.093284 1.6245
2.07282 -0.227736 1.50146
2.75133 -1.29194 0.820967
3.33193 -1.5036 1.58113
3.32231 -1.40216 0.919634
2.76166 -1.22986 -0.222442
3.28813 -1.37995 0.558882
3.09897 -1.30445 -0.105788
2.59696 -1.16766 -1.3711
-0.669607 0.344905 1.38992
-0.891617 0.446538 0.707615
-0.746156 0.564935 -0.48973
1.6163 1.70968 2.68041
0.160258 0.0416011 1.00376
0.0310775 0.143585 -0.134018
0.687678 -0.297065 0.27874
1.71741 -0.151793 1.53418
1.88711 -0.247087 1.61447
0.749421 0.0658836 -0.755937
1.72011 -0.29436 0.370594
1.04636 -0.731134 -1.8114
3.29107 -1.42229 1.99465
2.6261 -1.24845 0.885022
2.99366 -1.39571 1.28993
3.12844 -1.40183 1.40915
2.69447 -1.19968 -0.209516
3.32451 -1.39001 0.54395
2.33268 -1.04464 -1.34873
2.87253 -1.28908 -1.38562
-0.356475 0.285415 -0.21537
-0.0358525 0.329922 -0.742237
0.0705434 0.286797 -0.743277
1.30433 -0.838038 -2.09809
2.77194 -1.26895 0.434158
2.04452 -1.01654 -1.56388
-1.03791 0.673824 -0.342387
-0.613091 0.260249 -0.221485
0.742834 0.0559317 -0.702012
2.20923 -1.04153 -1.56184
-0.478582 0.166291 1.62432
-0.604466 0.287973 0.680102
-0.270158 0.21886 0.390837
0.0646823 0.233714 -0.905547
1.51914 1.74636 2.66442
1.37027 1.77393 2.57854
1.58226 1.76507 2.59082
-1.2438 0.438755 1.46325
-1.25236 0.434135 1.39766
0.554423 0.260473 1.98459
0.474809 0.252199 2.09989
-0.614443 0.280635 1.58529
-0.26678 0.240382 1.50381
-0.808036 0.397813 1.08557
-0.766693 0.29969 0.984655
-1.67313 0.398617 0.581949
-2.08247 0.294016 0.441957
0.205 0.178333 1.30859
-1.46645 0.395908 0.462943
-1.48579 0.3125 0.467581
-1.49827 0.376277 0.512476
-2.5797 0.462301 0.0138675
-2.55967 0.424429 0.0579026
0.829624 -0.469513 1.32902
-2.90127 0.508097 -0.434465
-2.49604 0.413091 -0.499658
-0.428133 0.277227 0.363433
-0.326668 0.200282 0.395155
-2.33922 0.39341 -0.554897
-2.50583 0.411118 -0.533984
-0.398931 0.282396 0.372262
0.922171 -0.296326 0.910322
-2.32858 0.383453 -0.691014
-2.32234 0.403443 -0.726664
-1.09835 0.545226 -0.410139
-2.00632 0.137369 -1.07995
1.29691 -0.447262 0.602323
1.33519 -0.49456 0.626237
1.28716 -0.495006 0.436914
1.13993 -0.394227 0.35403
3.38841 -1.3662 1.15786
2.45103 -1.21453 0.859067
0.588193 -0.285429 -0.0783917
0.715258 -0.308864 0.0153141
3.39404 -1.52954 1.02564
1.14262 -0.31491 0.169186
1.10779 -0.427269 0.175148
0.68117 -0.251193 -0.200643
0.621954 -0.196745 -0.428225
0.0937741 0.397966 -0.649662
3.32583 -1.48414 0.559854
2.83734 -1.26826 0.274789
1.69178 -0.973424 -0.467235
0.0449239 0.302723 -1.00542
1.33495 -0.691843 -0.778994
1.96764 -0.932864 -0.618528
0.710362 -0.569956 -1.25725
1.8463 -1.00845 -1.18969
1.34399 -0.706509 -1.80697
0.811521 1.91746 2.78506
0.678592 1.98646 2.64607
0.841589 1.9729 2.65619
1.25915 1.87417 2.84299
1.78083 1.70233 2.97131
1.65736 1.79711 2.43389
1.62727 1.67072 2.58233
1.51478 1.71477 2.5664
1.53995 1.65255 2.46994
1.55966 1.73904 2.4334
-1.28092 0.408738 1.37355
-1.25794 0.288772 1.353
-0.975653 0.194767 1.14419
-1.14711 0.33813 1.29454
-0.389079 0.25831 1.41263
-1.41178 0.297609 1.06397
-0.293975 0.229491 1.50561
0.772301 0.082654 1.80716
-0.736301 0.348569 1.10049
-0.231594 0.388228 1.26815
-0.873941 0.414045 1.13697
-0.829297 0.325014 0.931823
-0.797625 0.36115 0.960252
1.52543 -0.0499642 1.77429
0.565149 -0.0621085 1.23009
-1.50273 0.508877 0.258258
-2.75292 0.451424 -0.310239
0.864708 -0.353071 1.31397
-2.55044 0.412597 -0.32631
-2.97463 0.593656 -0.533086
-0.232564 0.063803 0.686353
2.26019 -0.291088 1.63139
1.78294 -0.336052 1.32164
1.76793 -0.493098 1.13553
1.71594 -0.47375 0.928377
1.35766 -0.650775 0.675206
-1.12664 0.730017 -0.537071
2.52746 -1.22388 1.05857
-2.14491 0.325882 -0.941689
-1.92348 0.223098 -0.923982
-0.97622 0.617515 -0.504948
-0.956761 0.630001 -0.363514
1.17369 -0.446232 0.525182
3.77585 -1.67918 1.55861
1.12079 -0.368024 0.283544
2.48929 -1.14433 0.863883
2.50543 -1.26105 0.609341
3.04687 -1.42415 0.887513
-0.0580953 0.401859 -0.446364
0.019676 0.326873 -0.375286
0.579861 -0.250031 -0.220355
2.73382 -1.41764 0.668944
0.419941 -0.118765 -0.49737
2.17502 -1.05801 0.147162
1.96691 -0.95856 -0.222066
1.97796 -0.983465 -0.221074
1.091 -0.77171 -0.642086
1.26754 -0.818212 -0.639176
1.75969 -0.93845 -0.397043
2.16855 -1.07767 -0.443367
0.732325 -0.602169 -1.49293
2.42801 -1.08378 -0.979388
0.857111 -0.61067 -2.00934
1.12942 -0.650213 -2.03276
2.98368 -1.31498 -1.21948
2.85411 -1.27285 -1.27586
1.71961 -0.810153 -2.51184
1.749 -0.859454 -2.4835
3.20472 -1.41668 -2.58076
3.1404 -1.27613 -2.77375
-0.300857 0.533055 2.323
1.51583 1.70428 2.63966
-0.460322 0.563711 2.04433
1.58828 1.74316 2.64364
-0.292502 0.402709 2.02853
-0.484222 0.32637 1.39424
1.06403 -0.00651062 1.89478
-0.135902 0.396469 1.15825
-0.949588 0.491726 0.762082
-0.893038 0.469806 0.691147
-1.48826 0.421337 0.537441
-1.43744 0.338424 0.474348
0.627015 0.0111889 1.2628
-2.7619 0.426352 -0.216579
-2.54038 0.354471 -0.51476
1.32504 -0.470716 1.19435
0.863963 -0.310514 0.724752
0.17341 0.10382 0.529484
0.120463 0.0737984 0.45441
0.979814 -0.354276 0.683016
4.12789 -1.57291 2.16483
0.855044 -0.369807 0.553237
0.350017 0.0764518 0.443913
1.76482 -0.55722 1.09372
-0.0030302 0.256101 0.217479
-1.0526 0.626274 -0.213286
0.0448447 0.239859 0.295905
4.05116 -1.64099 1.82062
3.06345 -1.32653 1.39381
-0.603288 0.287857 -0.275718
2.45164 -1.18095 0.979433
2.74858 -1.16885 1.11199
3.63418 -1.61979 1.28805
-1.10707 0.675131 -0.618259
3.79405 -1.58504 1.31585
3.35783 -1.44952 1.08634
0.72151 -0.399382 -0.105635
2.08651 -1.05151 0.543129
-0.861993 0.55318 -0.802767
0.104775 0.367743 -0.534741
-0.0546846 0.412658 -0.671049
2.81051 -1.38161 0.58361
2.80739 -1.23461 0.494862
-0.0703594 0.335117 -0.559809
2.53522 -1.232 0.317759
2.93184 -1.31456 0.405662
-0.19963 0.366407 -1.0326
0.296214 0.0920363 -1.10173
3.16446 -1.44819 0.0570695
2.69661 -1.25865 -0.246157
1.92858 -0.977899 -0.645551
2.90574 -1.24976 -0.190196
1.17824 -0.720926 -1.26639
2.05701 -0.955473 -1.18448
1.76377 -0.884571 -1.27371
1.55731 -0.885549 -1.80641
1.73222 -0.910162 -2.47918
2.15074 -1.0161 -2.57452
2.28392 -1.01912 -2.56497
-0.433862 0.444491 2.04231
0.420366 0.297747 2.17321
-0.687567 0.247109 1.61513
-0.657476 0.282331 1.50094
-0.392558 0.237182 1.59139
-1.3555 0.249584 1.04128
-1.46823 0.306597 0.887019
-0.828396 0.374681 1.02278
-2.15153 0.298401 0.212108
-2.28385 0.324969 0.0494289
0.442104 -0.0049674 1.38031
-1.02724 0.590613 0.593621
0.723826 -0.337799 1.19817
0.80206 -0.370906 0.926989
1.39445 -0.538981 1.25275
0.368226 0.028174 0.68842
0.426402 -0.135803 0.790006
-2.61156 0.379927 -0.687067
0.149851 0.110778 0.527045
3.35472 -1.43222 1.85242
1.75776 -0.435871 1.12516
0.207419 0.0769246 0.504446
0.252668 0.016148 0.424915
0.00572855 0.241316 0.287759
-1.00551 0.685009 -0.348706
2.34558 -1.15214 0.856553
-0.782674 0.643531 -0.562296
2.78352 -1.1976 0.991033
-1.03637 0.602643 -0.751568
-0.847832 0.587564 -0.810667
0.0114919 0.220701 -0.381124
3.42788 -1.55046 0.578927
0.1664 0.353168 -0.717155
-0.162185 0.389454 -0.924281
2.44746 -1.13119 0.0592678
-0.0345804 0.313585 -0.979142
2.03623 -1.06621 -0.671536
2.56698 -1.18368 -0.362701
2.31826 -1.12198 -1.31369
1.08617 -0.665779 -1.96498
2.1742 -0.988244 -1.46239
2.8761 -1.29437 -1.40652
1.3762 -0.857662 -2.38109
2.16154 -1.03108 -2.55151
-0.489251 0.412847 1.94484
-0.715085 0.289536 1.53568
-1.03966 0.22948 1.38991
-1.32276 0.309058 1.32779
-1.24086 0.28584 1.42026
-0.522406 0.266968 1.51206
-0.536409 0.275486 1.47105
-0.75465 0.319414 1.2959
-0.737698 0.305544 1.3889
-0.704858 0.332248 1.27263
-0.745557 0.305069 1.20968
-0.668591 0.320217 1.1671
-0.806928 0.381685 0.80932
-0.666083 0.335216 0.748258
1.50956 -0.0967359 1.72669
-2.43819 0.391474 -0.0543664
0.343524 -0.0834724 0.942211
4.14786 -1.61223 2.08329
-1.37559 0.564409 -0.28376
3.06657 -1.47683 1.37698
-1.06293 0.671035 -0.316121
2.49297 -1.2112 1.07436
3.06459 -1.27331 1.32832
3.67305 -1.6394 1.4456
2.69744 -1.27236 0.966222
2.72815 -1.23443 0.786902
-0.111418 0.240049 -0.369036
-1.35759 0.936958 -1.03088
3.41761 -1.45726 0.440813
2.86141 -1.30466 0.202346
3.12243 -1.3137 -0.165411
2.29535 -1.09339 -2.21681
2.46982 -1.12196 -2.35704
1.50054 1.65513 2.62981
-0.193025 0.343284 1.47384
-1.49207 0.333048 0.561408
2.084 -0.234582 1.55593
0.241221 0.0386637 0.695976
0.79788 -0.290634 0.816422
1.20866 -0.485305 1.09679
0.800258 -0.206497 0.509866
4.2305 -1.67864 2.09939
-0.376511 0.319176 -0.114767
0.638101 -0.238777 -0.375963
2.99292 -1.34273 0.509458
0.00543155 0.267028 -0.704606
1.46907 -0.832076 -0.320249
0.0589452 0.152285 -1.03698
2.89703 -1.33876 0.136846
2.64178 -1.18087 -0.321865
1.37749 -0.841364 -1.72747
2.17091 -1.02316 -1.59696
1.17993 -0.611391 -1.94142
1.89099 -0.963986 -2.39449
-1.1823 0.255647 1.11824
0.892656 -0.446294 1.15108
0.27428 0.0466472 0.520341
2.13374 -0.564869 1.27335
-0.710286 0.296363 -0.277238
1.72816 -0.311364 0.374147
0.860228 -0.156933 -0.165698
0.929991 0.0559296 1.85828
-1.31224 0.37062 0.347831
1.97435 -0.231665 1.48365
-1.62494 0.74036 -0.232751
3.24456 -1.47844 1.94067
0.678202 -0.263091 0.549376
0.775915 -0.373606 0.446082
3.6704 -1.58442 1.57897
-0.888248 0.332491 1.49289
-1.71651 0.627484 -0.0508606
3.40106 -1.41354 1.90629
-0.351648 0.173 0.152558
1.53546 -0.43379 0.537599
1.64652 -0.444247 0.612499
-0.434912 0.0288487 1.08739
1.12531 -0.400974 1.04191
0.29145 0.271556 -0.453153
0.943912 -0.320774 -0.025649
1.32516 -0.698961 -2.14408
2.83682 -1.26958 -2.45692
0.591294 -0.578752 -1.5834
-1.95034 0.269702 -0.872195
-0.947732 0.583815 -0.905099
1.98733 -1.02402 -1.78627
-1.94594 0.261813 -0.774046
2.55726 -1.09918 -1.61801
-2.11183 0.223908 -0.578875
-1.00102 0.799274 -0.331383
1.81973 -0.987904 -1.16112
-2.37425 0.350043 -0.0223444
-2.17263 0.234014 0.477854
1.86917 -1.09837 -0.171861
2.43351 -1.05519 -0.0753454
1.15161 -0.482996 0.410176
0.54118 -0.0371663 0.713547
-0.689642 0.329321 1.00834
0.44376 -0.0220986 0.754356
2.8483 -1.31585 0.125327
-0.226164 0.11111 1.01895
-0.231007 0.130132 1.10206
1.23145 -0.556551 0.644593
-1.28365 0.400942 1.38846
-1.30729 0.432875 1.43422
-1.29856 0.36545 1.43848
-0.0388963 0.311187 1.12581
-0.594269 0.281373 1.61367
-0.504655 0.249441 1.47333
-0.74614 0.346753 1.56118
-0.0324487 0.266605 1.46885
-0.667959 0.170275 1.51949
2.34217 -1.20588 0.855799
3.28741 -1.3245 0.959698
-0.401718 0.313929 1.99057
3.38338 -1.52739 1.04552
0.330832 0.142978 2.07425
3.3046 -1.50133 1.416
1.49207 1.64115 2.61092
3.04847 -1.30183 -2.24265
1.34191 -0.818339 -1.79252
2.34205 -1.09063 -1.78453
1.95593 -1.02568 -1.38403
-2.67647 0.438054 -0.297154
2.18376 -1.09924 -1.40879
1.78168 -0.960145 -1.14426
-2.41568 0.368362 -0.0332709
-0.537507 0.413032 -0.259461
-1.6981 0.625126 0.0697909
-0.456579 0.258597 -0.191645
-0.4999 0.318069 -0.153285
2.14053 -1.02082 -0.965019
2.46623 -1.21499 -1.08129
1.83903 -0.999153 -0.909243
1.40755 -0.833449 -0.623539
-0.608822 0.325226 0.0345425
-0.695428 0.330441 0.037404
-0.642132 0.282479 0.162766
-2.08164 0.304491 0.334878
2.35438 -1.07609 -0.665054
1.41476 -0.867005 -0.376222
0.085601 0.251007 0.206415
-0.824031 0.353695 1.0269
-0.851564 0.384487 1.13338
0.408442 0.0664593 0.696021
-1.43691 0.237401 1.22134
1.26829 -0.532061 0.649298
-1.31057 0.408221 1.45497
2.93229 -1.1625 0.368105
-0.139119 0.404775 1.31641
3.26554 -1.42995 0.450948
0.42854 -0.011276 1.3286
-0.75062 0.246818 1.61741
-0.60587 0.299988 1.74648
0.420558 -0.103712 1.46825
3.40207 -1.4384 0.974079
-0.476292 0.482349 2.02618
2.02553 -0.280395 1.52852
-0.517937 0.519046 2.12008
0.0389162 0.275588 2.02324
0.725911 0.0962595 1.84923
0.373419 0.164249 1.94469
-0.19697 0.378884 2.21542
-0.0957788 0.27829 2.2506
1.19316 -0.00923012 1.8296
3.51981 -1.58234 1.97929
3.15251 -1.39649 1.9916
1.54349 1.64372 2.60081
2.30668 -1.12712 -2.33088
2.33762 -1.00903 -2.00699
2.35325 -1.05612 -1.52469
1.3186 -0.73188 -1.12355
0.092765 0.315415 -0.442346
2.86539 -1.1999 -1.16366
-2.36486 0.257292 0.163225
2.63932 -1.16633 -0.432971
0.394026 0.0315564 0.491455
2.67504 -1.22326 -0.234707
3.14956 -1.28701 -0.0242391
0.514981 -0.110355 1.00823
3.3045 -1.50781 0.49895
0.426596 -0.171831 1.32194
2.15577 -0.307551 1.58355
0.622629 0.136113 2.02415
3.59231 -1.65829 1.38669
3.63209 -1.6546 1.94694
3.61159 -1.47908 1.99324
1.15986 1.93512 2.91481
0.0652712 0.402604 -0.628439
0.124083 0.259316 -0.661196
-0.927922 0.619325 -0.365694
0.0466221 0.308855 -0.52875
-2.55994 0.506143 -0.0709775
-1.53208 0.352718 0.683782
0.318383 0.0610721 0.466303
-1.27119 0.245866 1.01238
-0.109154 0.188281 0.875211
0.795359 -0.296776 0.759398
3.1435 -1.31872 0.387566
1.81405 -0.550484 1.21641
0.52275 0.156876 2.04936
1.28554 1.73543 2.69513
0.225668 0.446692 -1.28031
2.80607 -1.2299 0.421469
2.96273 -1.26999 0.391437
0.125154 0.360354 2.17057
-0.746999 0.721775 -0.645688
-1.2015 0.677725 -0.390775
-1.5687 0.503053 -0.0435757
2.59045 -1.22925 -1.19374
-0.168196 0.210083 -0.249993
-2.10119 0.298266 0.123924
0.245178 0.227681 1.40861
-0.737681 0.290513 1.60125
2.31283 -1.09781 -1.80216
-0.387277 0.334308 -0.376785
-2.23962 0.228815 0.418853
0.382285 -0.0109778 0.981421
-0.505141 0.197848 1.39348
-0.685737 0.496587 2.04332
-1.37757 0.332576 0.447337
-0.847727 0.342063 0.392076
2.97343 -1.33684 0.162438
-0.783704 0.150687 1.02674
-0.659131 0.348322 1.46233
-0.690967 0.230424 1.7259
1.64543 -0.223718 1.48351
2.38232 -1.03888 -1.05909
-0.512945 0.452917 -0.0358705
1.61892 -0.55399 0.565729
-2.00237 0.267689 -0.953986
-2.60952 0.423412 -0.311756
0.188757 0.369208 -1.27963
-1.59698 0.579958 0.406978
-1.43702 0.434486 0.286252
-1.58287 0.508061 0.515075
0.757355 -0.635694 -1.82026
0.127024 0.246254 -0.738687
0.412108 0.315857 -0.842135
-1.41003 0.387438 1.00548
-0.860283 0.374059 1.04299
-0.627536 0.276492 1.00147
-1.27962 0.337883 1.39965
0.162883 0.141165 0.342694
2.59149 -1.07891 -1.70271
1.29784 -0.818201 -0.720669
1.41335 -0.857678 -0.695107
-0.237996 0.0735228 0.968062
-0.597161 0.177009 1.45346
-0.191369 0.377295 1.21216
-0.495091 0.274834 1.49924
2.87818 -1.2548 -1.05602
2.9809 -1.30117 -1.17896
0.457439 -0.0483078 1.24814
0.600312 -0.133032 1.22703
0.127227 0.332761 2.11245
0.393056 0.166156 2.13395
0.897842 0.0914533 1.69218
2.18325 -1.08061 0.642648
1.1245 1.85878 2.53119
-2.58137 0.411134 -0.224681
-2.02548 0.154787 -0.663609
-2.40704 0.352316 0.159224
-2.12735 0.244153 0.392035
-0.554094 0.309201 -0.514005
0.450715 0.0353928 -1.06389
-0.103748 0.1579 -0.424051
-0.523939 0.222903 0.000944684
3.12759 -1.32177 -2.45802
1.99119 -0.97895 -1.57522
-0.133381 0.161572 0.821272
-0.578288 0.21923 1.25111
0.411854 -0.0932613 0.448495
-0.219338 0.130158 1.02587
0.28793 0.0165666 0.925438
-0.213409 0.392581 1.45728
-0.661898 0.262212 1.69013
0.923806 -0.369184 0.725352
-0.312937 0.427963 1.82082
-0.529443 0.589171 2.06843
1.17246 -0.478448 0.550221
1.23313 -0.539636 0.966009
3.10867 -1.39829 -0.028309
2.61558 -1.11831 1.06908
3.08554 -1.38485 0.956764
3.10848 -1.38267 1.02486
-1.12468 0.6557 -0.37946
-0.879032 0.586987 -0.331847
-1.36418 0.373817 0.0866413
0.676734 -0.534693 -1.59759
1.08468 -0.612541 -1.74771
0.110919 0.344951 -0.497315
-0.98751 0.672254 0.577731
-0.272582 0.258463 -0.0930903
1.38427 -0.829401 -1.56626
-0.724609 0.360726 0.683733
0.0281119 0.287433 0.279956
-0.203056 0.136326 0.942517
-0.632331 0.308741 1.53962
2.69127 -1.30412 -1.30666
1.87069 -1.02262 -0.501471
-0.604583 0.276355 1.57391
1.89251 -0.984003 -0.265681
0.302805 0.128427 1.31038
1.81645 -0.321657 0.350933
2.24546 -1.10071 0.0833474
1.1177 0.00170984 1.82469
1.32083 -0.0615043 1.75186
2.9168 -1.29172 0.662721
2.79853 -1.28935 0.701417
1.74158 -0.192888 1.67687
1.96965 -0.17043 1.52259
3.84535 -1.60014 2.2158
-1.03175 0.686577 -0.320696
-1.05918 0.655558 -0.409302
-0.868374 0.606903 -0.348831
-1.14174 0.675126 -0.324182
-2.05642 0.247134 0.327513
1.48615 -0.835103 -2.40297
0.0883989 0.287723 -0.529663
0.0346242 0.204137 0.309702
0.21681 0.0521923 0.505469
0.750324 -0.33287 0.0778249
-0.762547 0.47901 1.82591
0.967732 0.104217 1.74326
0.448056 -0.0571598 -1.05634
0.563025 0.0181659 -0.838599
-0.334723 0.183391 -0.0603583
-0.331396 0.169316 0.249579
-0.282651 0.253613 0.356588
-0.410992 0.196221 0.324825
-1.45766 0.515669 1.2933
0.0900511 0.334149 1.34231
1.67182 -0.33151 0.118477
2.5827 -1.28463 1.01888
3.71931 -1.54217 2.00858
3.37314 -1.35455 2.28037
-2.58628 0.403202 -0.395637
0.521536 0.221739 -1.52032
0.734735 -0.386657 0.974994
1.59903 -0.526332 1.46469
1.75454 -0.41194 1.47072
1.16761 1.79325 2.64977
-1.24349 0.339267 0.31464
1.79223 -0.466587 1.31788
-1.27285 0.294741 1.43135
0.0676773 0.0318758 0.861116
-0.755082 0.510117 -0.869478
-0.783664 0.353758 0.687641
-0.792046 0.338708 1.1047
0.0808121 0.316854 -0.637341
0.535589 0.0300481 -0.925911
-0.829286 0.504112 1.81041
0.991669 -0.658985 -2.0023
-0.19005 0.144971 0.97602
-0.265863 0.360089 1.16715
0.489491 -0.0644304 0.729139
0.812122 -0.350889 0.486247
0.42254 0.208631 2.05776
1.82092 -0.324534 1.2484
-0.820517 0.707569 -0.491487
-1.4686 0.339932 0.947507
-0.477202 0.154206 -0.0020031
-0.461178 0.206304 -0.0400928
-0.357233 0.159575 0.514125
-0.6038 0.24917 1.2297
-0.701899 0.321416 1.56728
0.177206 0.273357 0.267436
-0.376729 0.0779565 1.57565
0.646058 -0.215103 -0.273735
1.73548 -0.896753 -2.39382
1.38394 -0.821175 -0.517392
1.36045 -0.859531 -0.480934
2.67913 -1.19939 -0.403754
2.44797 -1.19611 0.547114
3.02854 -1.40235 1.45397
-2.39457 0.430959 -0.527017
-0.138001 0.27219 -0.329999
0.00599796 0.0779681 0.0931631
-0.604352 0.286762 1.24221
1.00324 -0.719939 -1.66452
-0.187737 0.401593 1.24361
-0.382517 0.185418 1.75348
1.42433 -0.758598 -2.2673
0.348598 -0.0628824 1.30607
1.18042 -0.483137 0.995786
1.14516 0.0063582 1.87291
1.86185 -0.523815 0.962719
2.41147 -1.21011 0.199473
2.84372 -1.29052 0.643714
3.28412 -1.47017 1.7021
-2.05252 0.262649 0.374752
-0.651641 0.286198 -0.247557
-0.895058 0.265915 1.56564
-0.286026 0.326777 1.59544
0.227785 0.0172541 0.625992
0.18661 0.0201521 0.529749
0.404662 0.0274864 0.515905
1.24434 -0.790993 -0.43156
1.6651 -0.225825 0.291967
2.56549 -1.16522 -1.37959
3.09595 -1.35066 -0.00834717
-1.0594 0.202131 0.923776
-0.728781 0.349093 1.20566
-0.62466 0.249139 1.55002
1.35168 -0.460885 0.981153
-0.453659 0.354198 -0.0875368
-0.294795 0.194548 0.532763
-0.0872063 0.0561385 0.0545913
1.41479 -0.259001 0.282559
1.57208 -0.313415 0.158552
-1.38134 0.531462 -0.306575
-1.50434 0.685561 -0.182417
-1.39741 0.473157 -0.266613
-1.27575 0.144017 1.53285
-0.366512 0.221306 -0.186611
-0.126809 0.201378 -0.14295
1.74124 -0.541139 1.1368
-0.55648 0.267492 0.0955475
-2.08439 0.289847 -0.816517
-1.27559 0.402417 1.33353
-1.01802 0.340057 0.910374
-0.371703 0.134552 0.320104
0.178564 0.0556525 0.534721
0.352525 0.0521104 0.725476
0.483906 -0.048367 1.24412
0.955119 0.0960874 -0.867881
1.21451 1.83794 2.42942
1.15637 -0.677665 -0.738356
1.45118 -0.624146 0.96653
1.61671 -0.804883 -1.74508
1.703 -0.917599 -0.266065
2.20011 -1.11034 0.0179083
3.11289 -1.35022 1.20131
3.11789 -1.37083 1.28192
3.63814 -1.6528 1.87545
-2.74767 0.486673 -0.225147
-2.67418 0.435757 -0.230258
-2.61571 0.47466 -0.631704
-1.37758 0.263796 1.28284
-1.3256 0.485703 1.46244
-1.34894 0.317436 -0.0916868
-1.08911 0.12511 1.66375
-0.624138 0.332351 1.16482
-0.282048 0.226167 -0.309618
-0.00312686 0.312485 0.292302
0.287576 0.0576197 0.68384
0.252575 0.0198989 1.12561
0.472421 -0.10774 1.01613
0.451724 -0.120786 0.935734
0.778545 -0.658161 -1.72908
1.10201 -0.794289 -0.572988
1.36069 -0.855363 -0.788573
1.34993 -0.887508 -0.567317
1.62008 -0.778613 -0.151818
2.00392 -0.919427 -1.11617
1.93245 -0.875994 -2.2382
2.2235 -1.03329 -0.643456
2.43764 -1.17166 -0.181151
2.66518 -1.21558 -2.5487
2.73143 -1.25634 -1.81849
3.19408 -1.4761 1.57143
-0.576943 0.364968 0.166613
-0.444418 0.358893 1.97953
-0.421703 0.2565 1.52011
0.268769 0.0412813 0.795019
0.818156 -0.285792 0.420645
0.733916 -0.308068 0.374415
1.29063 -0.866879 -1.40974
1.98779 -0.92353 -1.51421
1.87959 -0.959677 -1.10092
2.17819 -1.03973 -2.65354
2.49592 -1.25864 -0.210772
2.81125 -1.29377 0.688796
2.86568 -1.17174 0.547116
3.72714 -1.62264 1.94707
-1.03183 0.623104 -0.354134
-0.789432 0.208863 1.00231
-0.874965 0.305845 1.6241
-0.578518 0.182824 1.09496
-0.615085 0.198636 1.28717
0.224616 0.284353 -1.15692
0.252924 0.00545782 0.557788
0.294166 0.0664206 0.72005
0.278551 0.0679271 0.387174
0.363632 -0.085885 0.773581
0.555716 -0.0570995 1.01877
0.865128 -0.356702 0.718232
1.79534 -0.345492 1.36176
3.02218 -1.38724 1.32609
3.26275 -1.45347 1.64085
-1.93537 0.30239 -0.817138
-0.863041 0.423471 1.2906
-0.750287 0.287228 0.237416
-0.670895 0.314513 1.6251
-0.468628 0.321966 -0.350798
-0.210207 0.232732 0.538628
0.30639 -0.0186412 0.82186
0.394473 0.0529754 0.589489
2.50557 -1.31249 1.02866
2.62347 -1.15334 -1.31894
-1.33509 0.274708 0.758338
-0.830171 0.401363 1.44087
3.2142 -1.3768 -0.192423
3.18237 -1.35108 -0.190945
0.868595 -0.282958 0.810659
1.62069 1.66358 2.78254
-1.57212 0.527988 0.541528
4.19678 -1.55273 2.19205
0.915484 -0.0139443 -0.989677
1.67912 1.70813 2.58617
1.32889 -0.389837 0.416149
-2.90009 0.586817 -0.463587
-2.56393 0.414224 -0.650984
-1.38598 0.355011 1.40443
-1.25644 0.364029 1.41712
-1.05453 0.19641 1.42635
-1.89279 0.170539 -0.856318
-0.712166 0.370829 1.47317
-1.05089 0.584911 0.622581
-0.640435 0.244846 1.54581
-0.684256 0.260282 1.25716
-1.18175 0.766121 -0.410529
-1.17759 0.732459 -0.559538
0.905505 1.98141 2.73275
0.0786617 0.377139 1.88841
-0.189221 0.354928 1.33264
1.08613 1.89562 2.81065
-0.310122 0.233801 0.382512
1.16164 1.79512 2.68313
1.13745 1.87845 2.44979
0.702299 0.155172 1.80792
0.402734 -0.0268356 0.980446
-0.0313572 0.438942 -0.652846
0.560242 -0.326914 0.945561
0.310852 -0.0450931 -0.846673
1.22854 -0.533118 1.23412
1.24629 -0.565032 1.15296
0.806549 -0.0333021 -0.606217
0.753099 -0.587714 -1.5841
1.13941 -0.627713 -1.956
2.1866 -1.1982 0.571047
2.31014 -1.09526 0.202233
3.44097 -0.134208 2.53488
2.46251 -1.16097 -0.339446
2.63768 -1.26612 -0.361429
2.3747 -1.04918 -2.00931
-2.69812 0.455021 -0.0765632
-2.48571 0.406642 -0.493627
-1.08135 0.23903 1.71843
-1.41443 0.329933 1.04263
-0.870153 0.354419 1.40221
-0.549888 0.304946 1.16565
-0.972878 0.598614 -0.199846
-1.02765 0.632167 -0.199803
-1.00699 0.568686 -0.299385
-0.114317 0.335643 1.53275
-0.919333 0.658386 -0.382391
-0.120782 0.427336 1.25287
1.06635 1.85995 2.48735
0.3519 0.230148 2.03829
-0.654363 0.377821 -0.360944
-0.494357 0.303681 -0.18141
-0.0931287 0.120696 -0.0532507
-0.103189 0.12276 -0.0520223
-0.451256 0.408719 -0.993979
1.6334 1.68297 2.52197
0.0197514 0.334171 -0.482756
0.545448 0.0440939 0.3911
-0.228764 0.301495 -1.03188
0.6696 -0.320593 1.01208
0.830201 -0.42323 1.26201
0.826338 -0.260107 0.83878
0.884149 -0.289745 0.800418
0.378898 -0.307402 -0.384042
0.62964 -0.174312 -0.00105649
1.42692 -0.0978206 1.61984
0.483811 0.00681731 -0.799803
1.94624 -0.560463 0.941903
1.79984 -0.496299 0.584333
1.3349 -0.839781 -0.603182
0.936177 -0.547387 -1.71253
1.23906 -0.7162 -1.51829
2.26319 -1.05026 0.604638
2.27243 -1.09162 0.214871
2.55918 -1.24381 0.727294
2.82462 -1.19321 0.991027
2.76968 -1.18643 0.888924
3.14268 -1.45771 1.35603
3.13123 -1.33398 1.3298
2.35507 -1.05805 -1.04419
2.67017 -1.21268 -0.145482
2.59406 -1.13599 -0.0837439
2.01336 -1.02911 -2.14188
2.22238 -1.09217 -2.63738
2.85221 -1.18514 -1.97603
2.80575 -1.15525 -2.59286
-0.262598 0.572412 2.39813
-0.577446 0.269363 1.60584
-0.519292 0.220612 1.45223
-0.561289 0.130716 1.17229
-0.165699 0.311835 1.40374
0.338701 0.344985 1.98162
-0.666888 0.309706 -0.210151
-0.220165 0.0772347 0.690308
-0.0398887 0.103208 0.725965
0.149623 0.0317325 0.388129
0.45897 0.00145159 1.20799
0.196212 0.0243844 0.366503
1.59004 1.61325 2.60295
0.60142 -0.121569 0.917954
0.176741 0.323959 -0.340414
0.775464 -0.347186 1.31525
0.024288 0.260976 -0.605632
0.706167 -0.339945 1.05445
1.54781 -0.0697101 1.72025
1.0434 -0.39266 0.504167
0.692876 -0.588276 -1.67505
2.0046 -0.315184 1.47909
2.04425 -0.299592 1.63116
1.62616 -0.917062 -0.358177
2.20817 -1.10552 0.584939
2.44499 -1.19882 0.849373
2.32402 -1.08548 0.54799
3.22547 -1.25076 2.23639
3.27125 -1.50007 1.97311
3.10591 -1.42236 1.42861
3.17979 -1.50569 1.48423
3.32428 -1.513 1.39719
2.80334 -1.29094 0.441437
3.25786 -1.46469 1.5792
2.35585 -1.00172 -1.35394
3.2822 -1.47785 1.13811
3.64733 -1.60986 1.45705
3.0071 -1.37784 0.132871
3.02582 -1.28028 -1.17747
2.98716 -1.30113 -1.09559
-0.7724 0.346668 1.02782
-0.681851 0.298496 1.13746
-0.84996 0.319845 1.05109
-0.594231 0.348776 1.01329
0.113232 0.408487 1.93301
0.325564 0.0292502 0.83999
0.472291 -0.145083 0.822125
0.926998 -0.330053 0.190059
1.44845 -0.736751 -0.767672
2.64946 -1.30694 0.749293
3.1132 -1.44856 1.38999
1.59613 -0.899731 -2.12074
2.77384 -1.15545 -0.232253
2.14007 -1.09399 -1.68325
4.25121 -1.62656 2.09759
-0.734249 0.295342 0.966581
-0.602277 0.191748 1.43177
-0.739633 0.375016 1.02716
0.420028 0.0452506 1.27942
0.281088 -0.0254063 0.745085
0.306752 0.062126 0.618026
0.218586 -0.000422844 0.537985
0.428006 -0.0213524 0.754059
1.1082 0.0357674 1.80282
0.669071 -0.277528 0.318493
1.32715 -0.555391 1.1237
1.85182 -0.572203 0.901569
2.41346 -1.15097 0.601398
2.60768 -1.22478 0.797295
2.36856 -1.013 -1.31504
3.2886 -1.45283 0.375258
3.301 -1.40451 0.496534
-1.65503 0.669933 -0.254505
-0.964231 0.457544 0.59835
-0.807014 0.330195 0.71036
-0.683523 0.358741 0.0730951
-0.550649 0.291336 -0.251072
-0.530394 0.301326 -0.269638
2.24787 -1.13127 0.0996305
3.01906 -1.37756 1.49541
2.31699 -1.08001 -0.535729
3.0013 -1.44274 1.46795
3.11695 -1.4796 1.45211
3.05029 -1.46407 1.36843
2.66649 -1.17174 -1.20995
-0.77845 0.305209 0.82674
-0.505886 0.253464 1.57129
0.0556484 0.32473 -0.632152
2.8293 -1.22192 0.378929
4.07767 -1.63584 2.00868
0.00862206 0.0865121 0.241004
-0.111758 0.341797 -0.76971
0.09397 0.291025 -0.649106
0.836214 -0.146759 -0.317413
2.37145 -1.19218 0.0522902
0.0615053 0.303981 -0.147795
0.630371 -0.17512 -0.596142
1.70436 -0.491288 1.23874
1.84659 -0.380735 0.490523
-0.0890222 0.236047 0.34373
0.83248 1.84888 2.76016
-1.2641 0.383937 1.46693
-0.306574 0.496093 2.1619
-0.0560693 0.459401 2.11489
-1.37448 0.322454 0.978018
-1.69929 0.324361 0.662386
-0.401589 0.258723 1.39652
-0.161383 0.372126 1.39443
-1.51629 0.453815 0.161025
-2.43239 0.413139 -0.745489
-1.88553 0.244529 -0.736104
-1.92743 0.277505 -0.866102
-0.334725 0.334217 0.387405
-0.397511 0.167886 0.378655
-0.314255 0.156027 0.388105
0.172804 0.0383862 0.749268
-0.708553 0.338781 -0.0508112
0.356624 -0.0185876 0.456525
1.7558 -0.453957 1.28033
1.78486 -0.551317 1.03714
-0.125753 0.243728 -0.671536
0.598109 -0.263124 -0.292511
1.01633 -0.575238 -0.760926
2.33792 -1.17549 0.344217
2.25974 -1.07307 0.31932
3.5752 -1.6206 1.36803
2.24403 -1.09559 0.226486
3.18607 -1.45328 0.832445
0.812107 -0.574872 -1.62093
3.19945 -1.45265 0.111923
1.57433 -0.887185 -1.38313
1.13052 -0.696179 -1.98744
1.11363 -0.723759 -2.29727
-1.51253 0.373397 1.12622
-0.541106 0.2134 1.73162
-2.74576 0.536867 -0.282967
1.47153 1.75816 2.48907
1.54956 1.60059 2.61037
0.536961 0.274061 2.0324
-1.33038 0.33376 0.432905
-2.44398 0.438449 -0.499533
-1.12292 0.582701 0.423638
-0.929534 0.623377 0.415049
-0.401452 0.184081 0.521639
0.387879 -0.0425255 0.939076
-1.19925 0.661918 -0.836498
0.0481266 0.239319 0.314395
-0.182146 0.209355 -0.0888341
0.299411 -0.039269 0.430074
-0.771113 0.597701 -0.737486
-0.990369 0.653684 -0.826126
-0.248074 0.325474 -0.392369
0.878247 -0.318335 0.707194
-0.664395 0.503251 -0.888847
1.24509 -0.491607 0.502348
-0.0602843 0.388116 -0.618813
-0.211884 0.376867 -0.942219
-0.161027 0.350089 -1.01899
0.269953 0.25305 -0.803396
2.4468 -1.27543 1.05575
2.20981 -1.17973 0.893327
2.35628 -1.18509 0.844454
3.00575 -1.34406 1.26319
2.22179 -1.01491 0.474772
3.96496 -1.60177 1.75607
0.306226 0.414742 -1.40353
1.25772 -0.781509 -0.591882
1.51677 -0.86812 -0.460033
1.93976 -1.01015 -0.195702
2.43955 -1.11563 0.298278
2.57339 -1.19796 -0.10699
2.53709 -1.19272 -0.0675812
0.978853 -0.642096 -1.63544
2.35752 -1.12251 -0.896319
1.34459 -0.837215 -1.78323
2.44027 -1.09187 -1.00818
2.73792 -1.20035 -2.63893
-0.720633 0.371006 1.48847
-0.566288 0.251041 1.45627
-0.481664 0.248222 1.48261
-2.75517 0.590749 -0.431181
1.76007 1.66575 2.82426
-0.865281 0.367197 1.04066
-2.51009 0.431406 -0.423488
-0.108832 0.338693 1.39009
-0.912014 0.341706 0.822645
-0.695371 0.387093 0.727565
0.361998 -0.0121804 1.10257
0.355344 0.00189646 0.769566
-0.454029 0.192204 -0.0444319
0.465151 -0.129914 0.737433
0.0801948 0.308744 0.253931
-0.10843 0.121071 0.0209316
1.33697 -0.444038 1.28925
-0.251144 0.1541 -0.334034
0.0613732 0.394635 -0.515965
0.0482319 0.320533 -0.519444
3.38105 -1.43753 1.80336
3.08115 -1.38448 1.61855
1.72339 -0.256436 0.24179
3.59422 -1.53331 1.69054
2.55553 -1.28057 0.786418
2.47331 -1.10734 0.75793
2.51481 -1.17181 0.555501
3.40265 -1.4324 1.49261
0.866452 0.0198413 -0.812097
4.25815 -1.59805 2.06623
4.39831 -1.6917 2.06628
1.60135 -0.866088 -0.386443
2.78437 -1.26121 0.153571
0.895974 -0.536097 -1.42101
3.21015 -1.4444 0.356959
2.30979 -1.11691 -0.632491
3.24578 -1.41152 -0.0519313
2.34867 -1.05683 -0.972844
1.46747 -0.810725 -1.99614
2.92216 -1.23326 -1.26233
2.65328 -1.18623 -2.02394
2.18034 -1.03904 -2.53612
1.07589 1.7609 2.51758
-0.594017 0.375018 1.58007
-0.876657 0.349672 1.28238
-0.774738 0.360894 0.915114
-2.35944 0.399307 -0.447378
-0.899769 0.636001 -0.407613
0.691017 -0.40302 0.95704
1.22832 -0.519923 1.18145
1.70565 -0.490968 1.03241
2.90474 -1.26104 0.581376
3.29531 -1.55362 0.833671
2.8511 -1.31829 0.467952
0.797395 -0.515572 -1.55907
2.7205 -1.26061 -0.249239
1.58536 -0.851082 -1.84349
2.66692 -1.20273 -2.08478
-0.701739 0.377863 1.46461
1.36591 1.68985 2.66589
0.326112 0.228009 2.01278
-0.816096 0.3687 1.11331
-1.69677 0.621731 0.0056591
0.806416 0.0878697 1.83067
0.475491 -0.0468321 0.834958
0.336379 -0.0452807 0.878331
0.788602 -0.398876 1.24683
1.44261 -0.0405965 1.7
0.787256 -0.383849 1.0671
1.69201 -0.421156 1.36717
1.29211 -0.482866 1.05396
-0.716039 0.531733 -0.842959
2.07542 -0.156665 1.39413
0.0934452 0.416679 -0.722762
3.36365 -1.52291 1.86827
3.01907 -1.38263 1.24686
4.26132 -1.57002 2.13038
2.75463 -1.36851 0.522389
2.88847 -1.29759 0.415302
1.61055 -0.827312 -2.03698
-0.902255 0.288764 0.964019
0.495315 0.230796 2.0362
1.51468 -0.118332 1.80625
1.21464 -0.515884 0.76318
-0.41031 0.496373 -0.888352
2.99648 -1.36251 -0.224655
-0.204227 0.221205 0.408648
-0.605876 0.295605 -0.304256
-0.3554 0.285978 -0.16528
0.7988 -0.403363 0.43005
1.05852 -0.381625 0.0725327
2.88201 -1.24108 0.595972
2.574 -1.23687 -1.21299
-0.314116 0.325785 -0.217987
1.54587 -0.3455 0.536415
1.74406 -0.291686 0.494335
2.63804 -1.31155 0.817056
2.83932 -1.26327 -0.854942
1.23393 -0.220289 -0.0322504
-0.270943 0.0820033 1.29633
-0.286761 0.210525 0.719918
0.0177594 0.131558 0.796084
-0.000993541 0.346199 -0.621197
1.65038 -0.377199 0.302517
1.32221 1.69132 2.77954
1.54419 1.72291 2.60025
0.316319 0.28194 2.00205
-0.638897 0.267542 1.5568
-0.889399 0.385003 1.31928
-1.06996 0.157279 1.26175
-1.0978 0.189179 1.16722
-1.28056 0.307811 1.13537
-1.32855 0.290717 1.0356
-0.63206 0.281422 1.28732
1.74829 -0.223005 1.68791
0.55222 -0.00565296 1.34752
0.500466 -0.0666321 0.995529
-2.34257 0.337344 0.0910948
-1.46332 0.428881 0.323881
0.152884 0.00649078 0.48931
-2.03406 0.217899 -0.831303
3.69875 -1.61322 0.640262
0.0710532 0.415391 -0.447453
1.41201 -0.797351 -1.75352
2.11304 -0.93121 -2.52222
0.822867 1.93459 2.71609
1.23767 1.81882 2.81873
-0.281268 0.427093 2.12918
0.460771 0.291664 1.95173
-0.274422 0.341235 1.52658
-0.0401219 0.39766 1.36546
-1.56662 0.361875 0.962161
1.70546 -0.183924 1.74104
-0.822324 0.38098 0.986011
0.565615 -0.0666478 1.25815
3.78052 -1.63452 2.00033
0.998545 -0.361476 1.25516
0.198894 -0.0388222 0.813425
1.77133 -0.494163 1.09972
-2.60326 0.457176 -0.247232
1.73398 -0.525019 0.997458
0.29179 0.0887662 0.399933
-2.53377 0.418111 -0.408121
1.02735 -0.407524 0.466514
-0.588575 0.327456 0.0352048
-0.604331 0.27721 0.0477529
3.38434 -1.44333 0.916102
-2.05326 0.340429 -0.962994
0.683214 -0.276118 -0.225787
0.0593546 0.353259 -0.690935
2.95927 -1.226 -1.28694
1.12098 0.090859 1.97262
1.02472 0.023363 1.78756
-0.325113 0.185949 1.47416
0.877425 0.178876 1.70264
-1.61109 0.349414 0.887966
-0.824781 0.45427 0.987065
3.48012 -1.53041 2.15662
1.8418 -0.252039 1.57965
-0.147471 0.0933756 1.02094
-0.963636 0.505185 0.671333
-1.31733 0.280663 0.472432
-0.973989 0.642076 0.533954
-2.18402 0.246406 0.1432
3.01652 -1.34777 1.23388
-0.371155 0.279543 0.370088
0.148166 0.098928 0.398494
2.24425 -1.09151 0.975395
0.334993 0.0939879 0.370548
0.794625 -0.367456 0.499303
3.35514 -1.5045 1.10235
2.40597 -1.11289 0.645321
2.4162 -1.21042 0.639463
2.78 -1.30448 0.560958
2.81216 -1.25805 0.472646
-0.438688 0.279871 -0.426968
-0.93749 0.622456 -0.733184
1.66179 -0.868009 -0.212408
2.72012 -1.24634 -0.171342
3.14759 -1.34954 -0.159796
2.51829 -1.13312 -0.331085
-0.103823 0.267758 -0.955465
1.89258 -0.961568 -1.11598
1.2146 -0.768193 -1.46762
2.33791 -1.02901 -1.63922
2.82165 -1.2709 -1.38544
1.81759 -0.859186 -2.18457
1.72438 -0.920986 -2.42858
1.39102 1.70757 2.57145
-0.598731 0.584617 2.1589
-0.821403 0.257376 1.60522
-0.723829 0.279634 1.55706
-0.629332 0.168577 1.39004
-1.53735 0.315579 1.13917
-0.415406 0.266093 1.43182
-0.719086 0.293934 0.97765
-1.50863 0.440535 0.643131
-0.812491 0.348296 0.671684
1.80109 -0.357956 1.30269
-1.23057 0.366253 0.427261
1.75626 -0.448488 1.18264
3.34862 -1.37816 1.4713
0.711216 -0.374525 0.825383
3.62485 -1.59231 1.54242
2.98666 -1.34096 1.27431
0.22962 -0.00579301 0.566875
1.05261 -0.465401 0.534652
0.063691 0.300703 0.216351
-0.432923 0.271298 -0.229523
-0.989942 0.612438 -0.32209
1.66253 -1.03093 -0.212758
2.23674 -1.09319 -0.400846
2.3043 -1.00927 -1.4894
1.49365 -0.741813 -1.9846
1.58686 1.6623 2.62573
1.05429 1.74494 2.51177
-0.826433 0.373601 1.27861
-0.83839 0.353456 0.869645
3.24849 -1.32622 1.84209
0.333923 -0.0453939 1.03637
-1.60787 0.570215 0.429663
0.22805 -0.00137416 0.610404
0.297576 0.0591375 0.533397
-1.08664 0.80879 -0.429782
2.65953 -1.2045 -0.171471
1.9292 -1.02475 -1.20949
1.76369 -0.774802 -1.72269
-0.118557 0.311681 1.47733
-0.0168362 0.0813859 0.778458
-1.33518 0.285911 0.345909
0.256791 -0.0293593 0.495943
1.40164 -0.326337 0.247003
1.63233 -0.843219 -0.359611
0.764543 -0.0636498 -0.72212
1.3074 0.015566 1.65234
1.39099 -0.135311 1.51095
1.59832 -0.0852138 1.62456
-0.404028 0.233263 0.845109
1.84528 -0.531633 0.94408
0.611063 0.19914 2.10959
-1.27385 0.362007 1.38391
0.812575 -0.311902 0.495647
-0.390019 0.178584 -0.369742
-1.2886 0.629528 -0.375089
-0.989654 0.76082 -0.394015
0.0899822 0.299713 -0.729372
-0.19164 0.174181 1.27341
-0.233653 0.135334 1.69514
4.7588 -1.84183 2.19685
1.44812 1.75236 2.57608
0.382867 0.28106 2.06756
-0.556354 0.511588 2.12664
0.110015 0.3434 1.96299
0.107827 0.302871 1.97317
2.92303 -1.20979 1.01126
-1.08763 0.198137 1.65512
1.28203 -0.528119 1.0648
-0.70816 0.258751 1.58883
-0.0523173 0.303521 1.40856
-0.471128 0.178903 1.47151
-0.681628 0.337191 1.57188
2.54544 -1.27192 0.699799
3.02421 -1.26492 0.645612
-0.22913 0.236231 1.1768
-0.193677 0.424397 1.18678
1.1413 -0.382485 0.662787
-1.06692 0.295869 1.13089
1.27623 -0.531777 0.657705
0.366587 0.024849 0.419319
-0.473148 0.289137 0.319865
-2.09187 0.259534 0.389672
-2.10415 0.267158 0.342622
-2.08355 0.143763 0.339291
-2.36842 0.349348 0.180051
1.80925 -0.952416 -0.778477
1.17677 -0.683868 -0.654639
-1.03178 0.612845 -0.438063
-1.18859 0.715608 -0.415157
-1.11835 0.729682 -0.431102
0.0319301 0.354819 -0.669303
-2.44152 0.446707 -0.587512
0.178699 0.375792 -0.835417
-2.42356 0.414635 -0.473703
0.961687 -0.68989 -1.37036
-2.02295 0.290651 -0.946064
2.29059 -1.06681 -1.84205
-2.20911 0.252506 -0.908933
-2.08659 0.341173 -0.956142
0.679944 -0.649071 -1.63585
1.03979 -0.692355 -1.82266
2.25433 -0.97268 -2.20843
1.72083 -0.860659 -2.50145
3.90776 -1.61831 1.83604
1.60239 1.71869 2.09818
0.458418 0.33675 2.01954
-0.477158 0.57146 2.07635
-0.481912 0.626 2.10582
-0.421328 0.381866 1.95424
1.6501 -0.139565 1.57689
3.37791 -1.49741 0.909462
-0.659059 0.294672 1.48612
-0.316909 0.188839 1.41465
-0.393384 0.212272 1.43911
1.82929 -0.611286 0.9518
-0.406939 0.226971 1.45389
-0.060982 0.383804 1.32464
0.580631 -0.135783 1.22231
0.437162 0.0102824 1.09613
-1.23447 0.465164 1.43743
2.34126 -1.09748 0.669657
2.88663 -1.27593 0.540925
-0.147418 0.407718 1.15013
3.41039 -1.50518 0.36198
-0.14098 0.180502 1.02029
-1.37081 0.299832 1.21038
-0.941731 0.400269 1.17372
-0.838645 0.433992 1.05351
-0.876682 0.223459 0.956453
1.31201 -0.450894 0.567863
0.310034 -0.00448331 0.77104
-1.33346 0.351505 0.860914
0.315064 -0.0403345 0.564885
0.127251 0.120732 0.26099
2.32237 -1.2341 -0.497798
-2.14111 0.211476 0.406005
0.649156 -0.236434 -0.142546
-1.35 0.370163 0.242377
1.50466 -0.851037 -0.406694
-1.29222 0.345787 0.207701
1.31968 -0.769442 -0.457944
-0.709603 0.324977 0.117957
0.667235 -0.228559 -0.255665
-2.21378 0.348592 0.311657
-0.469674 0.205863 -0.043273
-2.39204 0.329319 0.0895118
1.53854 -0.799585 -0.816459
-1.66306 0.565938 -0.0608218
-0.575544 0.372941 -0.262979
-2.56596 0.456082 -0.257515
-0.477585 0.379592 -0.577138
-0.966369 0.666502 -0.49332
0.276394 0.275615 -0.727699
-2.27608 0.32742 -0.636892
-1.96992 0.227516 -0.855841
1.40189 -0.75718 -1.65084
1.83842 -0.972258 -1.67796
1.48721 -0.819808 -1.73259
3.00193 -1.27599 -2.11414
1.54248 -0.856833 -2.19465
1.4375 -0.703396 -2.20018
1.73546 -0.911733 -2.19658
1.62475 -0.825012 -2.49603
2.27893 -0.986561 -2.53433
1.00266 1.84484 2.97406
1.01493 1.81025 2.47715
3.14129 -1.43901 2.05353
3.15344 -1.43169 1.69387
-0.199867 0.399132 2.20007
-0.519205 0.509317 2.11056
1.72936 -0.293703 1.4785
2.02183 -0.59591 1.21996
2.59531 -1.14873 0.954363
0.532289 -0.117714 1.24054
0.192934 0.212267 1.42823
-0.192144 0.308014 1.4183
-0.176536 0.330382 1.43953
0.480727 -0.0764008 0.936207
-0.0984979 0.148981 1.04826
-1.32095 0.31055 1.18267
-1.52659 0.368291 1.03273
1.81815 -0.27648 0.223528
1.66183 -0.389743 0.204414
0.737139 -0.353641 0.26474
-0.558917 0.246978 0.433522
-1.48297 0.335879 0.51076
0.0867657 0.277119 0.290428
2.96535 -1.22483 -0.56907
-2.3054 0.341313 0.237526
-1.56495 0.462898 0.071744
1.83194 -0.925158 -0.89492
3.15739 -1.42417 -1.20992
-0.630376 0.218015 -0.345899
-2.64679 0.46248 -0.125489
0.0514085 0.401663 -0.433583
-0.498787 0.285773 -0.38027
-0.849294 0.555825 -0.400182
1.24114 -0.786261 -1.05108
-2.31497 0.285816 -0.478998
1.34564 -0.771163 -1.18269
1.59125 -0.850706 -1.45569
1.39885 -0.714378 -1.32048
2.31969 -1.00538 -1.69308
-0.759961 0.61009 -0.911713
2.35052 -1.07146 -1.8138
1.79329 -0.891646 -1.91487
2.31866 -1.04034 -2.02332
1.77783 -0.880035 -2.19928
0.706054 -0.459862 -1.95901
1.69274 -0.905973 -2.3035
2.24537 -0.990723 -2.72172
0.848461 0.0964516 1.60858
-0.447804 0.18885 1.64008
1.73042 -0.27786 1.35678
0.441789 -0.0625127 1.28759
0.141458 -0.0668188 0.425341
0.219615 0.0479989 0.453066
2.69553 -1.23124 -0.192731
-1.55782 0.41651 0.686942
0.766465 -0.293119 0.0776706
-0.0572926 0.135467 0.265972
-2.13601 0.20121 0.162605
1.3931 -0.756404 -0.752538
1.7077 -0.856982 -0.800545
-0.150378 0.196148 -0.381707
2.72088 -1.1597 -1.27183
2.97987 -1.26567 -1.3998
2.92366 -1.21952 -1.45343
1.0043 -0.739563 -1.61311
3.2403 -1.49907 1.90082
0.572385 0.144698 2.17148
3.57029 -1.52781 0.843621
1.73342 -0.562868 1.25319
-0.62608 0.17764 1.57015
-0.325934 0.189667 1.43319
2.97431 -1.36364 0.464359
-1.35236 0.400537 1.31798
0.106325 0.272923 0.19788
0.0596027 0.325977 -0.322725
0.716307 -0.00892159 -0.803692
2.73558 -1.10922 -1.47021
0.00917723 0.405559 -0.622845
-1.46886 0.593897 -0.508687
3.21849 -1.44473 1.4805
-0.815756 0.517648 2.04553
-0.430715 0.382526 1.96272
0.157399 0.203221 1.3727
2.36804 -1.10426 0.925684
-0.261084 0.245116 1.37928
2.85753 -1.18644 0.55057
-0.711499 0.375183 1.22314
2.72229 -1.35931 0.471867
1.65543 -0.347133 0.418985
1.69737 -0.477706 0.0903592
2.62122 -1.2016 -0.0457558
-0.534874 0.0539202 0.200585
0.791716 -0.22026 -0.0619596
-0.438972 0.12594 0.132816
-0.24315 0.165888 -0.124818
-0.547897 0.290572 -0.231901
-1.70622 0.684351 -0.00364265
2.57971 -1.22932 -1.05898
-1.65401 0.73682 -0.260834
0.0379428 0.40138 -0.752617
0.374811 -0.0271599 -0.965599
1.75548 -0.986622 -1.59232
1.2859 -0.768171 -1.75516
2.99169 -1.40018 1.62688
-0.125049 0.498139 1.94108
1.99864 -0.346671 1.35212
3.67086 -1.61864 0.352792
-0.806326 0.327878 1.19584
-0.0131192 0.219723 0.75118
-2.21117 0.388993 0.514361
-1.79108 0.740881 -0.00641068
-1.36473 0.61208 -0.432533
2.35654 -1.0835 -1.89192
0.161922 0.446571 -1.31021
1.81551 1.57507 2.81603
-0.65213 0.428936 2.05762
-1.18185 0.289599 1.47511
3.04625 -1.38688 0.0838462
-1.37573 0.431874 0.373784
-1.31049 0.750568 -0.521265
0.46907 0.366965 -1.43988
1.60533 -0.198275 1.49805
-0.642673 0.271403 1.44201
-0.756324 0.180985 1.00647
-0.989159 0.410334 0.504199
-0.652014 0.259789 1.67276
1.59784 1.69002 2.77382
-0.2849 0.157722 0.618444
-1.00114 0.570473 -0.408459
2.26696 -0.946288 -1.06023
-0.0734363 0.0684326 1.4603
2.47473 -1.22519 -2.54266
2.24563 -1.05067 -2.22661
-0.597138 0.354182 -0.951379
-2.38013 0.402187 -0.464009
-0.801283 0.672827 -0.48855
2.26951 -1.00277 -1.30725
1.52531 -0.991004 -0.818573
-2.16044 0.196658 0.129767
-0.247291 0.213142 -0.125668
-0.255726 0.198924 -0.129782
-0.448619 0.375839 -0.0164762
-2.23447 0.325543 0.40146
0.00597447 0.313468 0.306526
2.95726 -1.26703 -0.489583
-0.702203 0.368034 1.04191
-0.587916 0.297152 1.28029
-1.25024 0.332762 1.36892
-1.10356 0.189684 1.46096
3.53693 -1.42535 0.462375
3.58983 -1.47717 0.500133
-0.572356 0.272995 1.70982
3.28555 -1.42323 0.887483
3.46012 -1.56659 1.14635
0.620864 0.128376 1.9969
1.56278 -0.0389251 1.70114
-0.325977 0.443171 2.18993
3.30971 -1.49261 1.38756
0.573085 0.164162 2.01873
1.27626 1.80449 2.48
0.762234 2.00834 2.74671
1.28045 1.68961 2.84075
1.59614 -0.828557 -1.44833
2.00422 -1.01995 -1.47927
-0.910505 0.639279 -0.337804
2.80562 -1.18132 -1.12076
-0.732984 0.378797 0.0157548
-0.593101 0.224188 0.143719
-0.153861 0.0238543 0.0117681
-0.68576 0.282602 0.207656
1.48044 -0.869282 -0.411917
0.10836 0.174724 0.234804
0.808245 -0.288493 0.493349
-1.39149 0.395297 1.14236
-0.169794 0.103575 0.993632
2.25141 -1.19758 0.529687
2.95678 -1.30702 0.419973
-0.429566 0.0642382 1.62312
1.76224 -0.504632 0.933314
-1.03621 0.160892 1.69184
2.76697 -1.30669 0.595943
-0.35008 0.17796 1.62174
0.671284 0.140306 1.82403
0.360122 0.202293 2.06314
0.641185 0.178695 2.11061
0.852814 1.90777 2.79092
4.03911 -1.55306 2.3473
1.76006 -0.906752 -2.18128
0.165089 0.507714 -1.25441
1.48891 -0.733086 -1.82007
-1.06157 0.70437 -0.725961
-2.88496 0.478447 -0.360826
-2.70891 0.422818 -0.385142
-1.10108 0.654193 -0.399833
-2.6155 0.393996 -0.304462
-0.622082 0.291519 -0.409257
-0.592843 0.296303 -0.26146
-0.37529 0.190846 -0.208076
2.33446 -1.05414 -0.983156
-1.3758 0.480485 0.84843
0.343632 0.0122622 0.488189
0.213308 0.163989 1.32284
-0.375289 0.180995 1.57179
1.75939 -0.569476 1.18373
1.74602 -0.435006 0.98654
-0.0452975 0.395926 1.93663
0.423533 0.252917 1.88863
2.98778 -1.3884 1.25609
1.30321 0.0528664 1.86191
1.46161 1.72338 2.53568
-1.44561 0.533873 -0.467281
0.835556 -0.314336 0.552511
-1.41428 0.426008 1.15673
-1.29517 0.302195 1.28435
0.294448 0.280614 1.82373
3.48664 -1.62238 2.05491
1.54733 -0.837912 -1.82358
2.19445 -1.1416 -1.75612
-1.63895 0.665365 0.00559643
-1.61749 0.534783 0.484917
2.19663 -0.966863 -1.87036
0.092472 0.217293 -0.510828
2.85 -1.32846 0.50295
-0.210451 0.435102 1.98862
1.70451 1.82063 2.72799
1.6143 -0.871453 -1.1206
2.9949 -1.28371 0.0117778
-1.30359 0.322331 1.54282
1.00796 -0.14596 1.51101
1.26504 -0.481497 0.88148
0.704824 0.205016 1.7567
-2.20703 0.325522 -0.800624
1.7272 -0.925225 -1.77633
-1.40649 0.430253 0.498142
-0.480586 0.155916 0.00885812
-0.436148 0.279987 -0.193398
-0.0674269 0.136891 -0.04705
0.0258792 0.203885 0.375291
-1.60841 0.372985 1.13838
-1.27467 0.519882 1.4576
-0.14339 0.123683 1.1139
-0.634488 0.311554 1.38638
-1.19327 0.292613 1.69473
-0.268926 0.435596 1.34681
-0.0227762 0.454972 1.29991
1.24316 -0.458516 0.975417
0.947842 1.96219 2.74325
-2.37387 0.391101 -0.139389
-0.951566 0.580933 -0.481522
0.771864 -0.656389 -1.63686
-0.502233 0.300034 -0.418103
-1.25955 0.347417 0.0154958
-0.105049 0.257595 -0.400945
-0.498312 0.274744 -0.096589
3.03226 -1.36138 -2.48525
-0.714767 0.161029 0.818538
0.64016 -0.285374 0.195177
2.00168 -1.02496 -0.172796
-0.262606 0.117507 1.44158
-0.792096 0.426059 1.83269
-0.303288 0.55676 2.33488
0.753333 0.141343 1.8072
0.665156 0.075639 1.87536
1.64892 -0.371182 1.33664
2.31953 -0.321644 1.38231
1.02493 1.84892 2.5069
1.59333 1.70231 2.68409
3.72765 -1.6277 1.92464
3.63444 -1.48087 2.07353
-1.18791 0.689774 -0.577007
-2.30777 0.34664 -0.117389
2.14962 -1.00732 -2.52676
-0.653176 0.382391 -0.45781
0.282255 0.250118 -0.76276
-0.00909761 0.142755 0.118237
-0.15599 0.197716 1.46102
-0.737228 0.476017 1.93487
2.84061 -1.34673 0.507766
-2.54116 0.375215 -0.559948
-2.51469 0.407575 -0.485242
-2.70506 0.440791 -0.323683
0.0941378 0.163511 -0.566814
-0.0278767 0.221821 -0.578773
-0.405928 0.180869 -0.0959025
-1.43764 0.242437 1.1933
-1.43399 0.360138 1.19862
-0.725147 0.298113 1.77204
-0.749727 0.378144 1.89857
0.496339 0.215969 1.88786
