0.917738 -0.560046 -2.54509
1.13417 -0.625942 -2.62783
-0.344862 0.411488 -0.790111
0.99514 -0.605626 -1.79661
1.4924 -0.768652 -1.68592
-0.588131 0.265216 0.568064
2.75918 -1.79397 -2.61033
2.44239 -1.05191 -1.27912
1.10687 1.73882 2.28375
-0.000213477 0.339381 1.63627
1.29709 1.4242 2.44918
2.79664 -1.26611 1.52565
-2.83592 0.524912 -2.57614
-2.1941 0.299447 -2.84202
-0.90275 -0.0343605 -2.74747
-2.06407 1.02479 -1.22705
-0.152032 -0.247528 -2.61224
-1.28774 0.700642 -0.798058
0.436374 -0.443902 -2.44045
-0.287697 0.389851 -0.891777
-0.21627 0.28334 -0.983241
-0.230824 0.245238 -0.985595
-0.991757 0.409346 -0.317543
1.98352 -0.875786 -2.10632
1.72265 -0.828307 -1.87914
1.21736 1.51438 2.23492
1.23583 -0.00997424 1.49604
1.69971 -0.148415 1.42432
1.97746 -0.970246 0.613453
1.88752 -0.991227 1.28089
3.42038 -1.28732 2.0908
-2.89542 0.555778 -2.62111
-2.09334 0.262831 -2.51773
-1.27927 0.188481 -2.6623
-0.954617 -0.0128543 -2.69793
0.570108 -0.472525 -2.50566
-1.04862 0.35064 0.353804
-0.762871 0.31117 0.441072
1.48532 -0.812519 -0.76037
1.37698 -0.0380454 1.42222
2.11287 -1.08297 1.98656
3.36348 -1.27289 2.06355
3.68893 -1.37056 2.18817
1.31439 -0.712586 -1.88623
1.37691 -0.748382 -0.0407459
3.57075 -1.33113 2.07084
3.63473 -1.34729 2.01204
3.50356 -1.31734 2.19651
3.60769 -1.3339 2.07769
3.73614 -1.36694 2.13553
3.72042 -1.37413 2.19508
3.75051 -1.38201 2.21387
1.29605 -0.663431 -2.76336
1.43979 -0.81832 -1.94454
0.367037 -0.208129 0.886761
-2.40584 0.371488 -2.68047
-2.08766 0.672639 0.0642074
-0.753686 0.393274 0.467506
-0.593857 0.357729 0.751524
-0.576929 0.104285 0.684224
1.03841 -0.479321 0.438723
-1.04257 0.759475 -1.64018
0.338028 -0.433146 -1.82446
-1.01563 0.363017 0.339499
-0.593936 0.246996 0.551204
1.34877 -0.710101 -1.88761
1.56819 -0.786945 -1.68803
1.22251 1.52584 2.23859
0.360718 -0.209174 0.299815
0.486553 -0.233339 0.51909
0.233987 -0.214592 1.02252
0.627357 0.145728 1.62945
2.79452 -1.26986 1.52485
-1.67515 0.99688 -1.37673
-0.943299 -0.0326043 -2.71133
-1.29988 0.512647 -0.41039
-0.202231 0.374223 -0.910798
0.487635 -0.444928 -2.47736
-1.24256 0.43088 0.590799
-0.818292 0.365869 0.298618
-1.33145 0.456348 0.775125
-0.772254 0.373144 0.407374
-0.713048 0.254196 0.514978
-0.513756 0.327772 0.931707
-0.107466 0.119151 0.319214
2.40104 -0.97982 -2.57904
-0.0402344 0.0741072 0.874629
0.222381 -0.17373 0.381121
0.20898 0.273643 1.61179
0.613975 0.160403 1.61544
1.15435 0.0176502 1.39751
1.77762 -0.905547 0.0967024
1.95256 -0.96837 0.0957407
3.41508 -1.29069 2.09474
3.6806 -1.36684 2.23302
-1.97924 0.713439 -0.481733
-0.219669 0.332539 -0.914518
-0.734605 0.231676 0.306384
-1.79048 0.374242 1.20287
0.102438 -0.0889815 -0.27476
-0.819041 0.589291 2.03615
0.630912 -0.316933 0.749948
3.39558 -1.28234 2.08016
3.50349 -1.32089 2.20095
3.53735 -1.31853 2.19881
3.71585 -1.37244 2.19319
-1.58209 0.971835 -1.47851
-1.72568 0.218285 -2.66589
-1.09727 0.748923 -1.60368
-2.24445 0.895893 -0.545208
0.905122 -0.561232 -2.53916
-0.752883 0.289965 0.270714
-0.789487 0.313191 0.407559
-0.59471 0.220901 0.568777
-0.0899518 0.134171 0.15043
3.62319 -1.34967 2.00637
-1.68933 1.04737 -1.42142
-2.22513 0.836977 -0.472071
-2.13384 0.466088 0.791334
3.64264 -1.34228 2.08362
3.74286 -1.36677 2.11533
-0.79802 0.385787 0.380225
-0.630592 0.354234 0.732211
-0.753583 0.38909 0.481311
0.46831 -0.257091 0.736583
1.27939 -0.209382 0.254615
-3.83496 0.806572 -2.14921
-2.16291 0.790726 -0.48145
-0.880502 0.497396 -1.97941
-1.16751 0.463063 -0.681699
0.93807 1.85696 2.31932
1.09851 1.74481 2.29688
1.12907 1.72779 2.44937
-1.25318 0.398966 1.29287
-1.02516 0.62564 1.85647
0.383465 -0.419172 -2.50205
0.428196 -0.437196 -2.48938
0.436078 -0.453631 -2.47368
0.496001 -0.447014 -2.42426
0.297554 -0.410277 -1.77409
0.0171126 0.0431567 1.03934
-0.0288051 0.056924 1.19232
0.233168 -0.219442 1.01716
1.61738 -0.806103 -1.68618
1.27332 -0.0235488 1.44982
1.26312 -0.0191492 1.50264
1.2784 -0.0261545 2.18706
1.66336 -0.132496 1.47941
1.79172 -0.902829 -0.566094
3.37633 -1.27674 2.07513
-2.12622 0.801639 -0.556393
-1.15776 0.188375 -2.7961
-0.522645 0.387762 -1.96977
-0.332923 0.430494 -1.27789
-1.20345 0.410052 0.833281
-0.828594 0.3485 0.267814
0.307092 -0.408934 -1.73854
-0.376556 0.449493 1.64549
-0.102613 0.0969902 0.615224
1.07396 -0.601084 -2.64093
-0.0900381 0.0899587 0.922776
-0.00977276 0.0484477 1.1222
1.43499 -0.707395 -2.61463
0.573284 0.156095 1.68254
0.59579 -0.303606 0.766827
0.639711 -0.321275 0.662584
1.3685 -0.0574641 2.22811
1.8068 -0.923303 0.0338408
2.75626 -1.18554 -0.0719734
2.84484 -1.22333 0.329325
3.39447 -1.28561 2.08091
3.42296 -1.28235 2.04335
-1.34919 0.550388 -0.315798
-0.811362 0.379961 -0.431654
-0.195816 0.414186 -0.949405
-0.791744 0.367656 0.338352
-0.70123 0.282078 0.586036
0.343758 0.0364002 -0.794767
-0.143167 0.145356 0.228095
-0.162486 0.13945 0.455575
0.902467 -0.555932 -2.52832
-0.0197411 0.078503 0.854361
1.60522 -0.791432 -1.73325
0.986802 -0.425582 0.828841
1.28903 -0.0383389 2.0854
2.18841 -0.970952 -1.40514
2.0898 -0.971938 -0.256537
2.362 -1.08793 0.519659
3.54198 -1.3201 2.19848
3.68563 -1.36907 2.23832
-1.27071 0.498172 -0.530106
-0.763544 0.292228 0.27938
-0.779457 0.341333 0.428567
-0.706236 0.516845 0.971392
-0.584689 0.210665 0.540841
-0.314756 0.170674 1.05454
1.28706 0.496427 2.35203
0.820933 -0.332295 0.835619
1.32323 -0.308728 0.367076
1.349 -0.0433161 2.22829
3.38584 -1.27705 2.15384
3.50095 -1.31745 2.1969
3.4205 -1.28679 2.10546
3.61205 -1.33419 2.07843
-0.944827 0.433239 0.515173
0.945427 -0.403921 0.765166
-0.648412 0.492034 -0.804343
-0.698422 0.285009 0.0897896
0.517103 -0.230598 0.72899
1.8612 -1.02349 2.00574
-1.37109 0.551988 -0.736003
-0.728997 0.472982 -0.397503
-3.01416 0.586026 -2.47449
-0.507265 0.528796 -0.963126
-1.20941 0.422521 0.894235
-0.384106 0.450771 1.64554
-0.186192 0.107151 0.798008
-0.110472 0.107381 0.677517
0.297457 -0.386904 -2.50801
0.232528 -0.223238 1.01514
1.06918 -0.605107 -2.65354
1.28034 -0.0257938 2.19045
1.66455 -0.134037 1.47538
1.85649 -0.859722 -1.67444
2.54643 -1.16702 1.25862
-3.83732 0.788892 -1.74344
-0.874743 0.524429 -2.13255
-1.38992 0.218749 -2.55796
-1.29934 0.199247 -2.73569
-1.74245 0.368148 1.14599
-0.167384 0.170855 0.175733
-0.276206 -0.22951 -2.37624
-0.0813311 0.106504 0.606919
-0.0102975 0.0667533 0.815314
0.0175042 0.060059 1.10901
0.498082 0.205056 1.60727
0.489401 -0.445674 -2.41294
1.03738 -0.595459 -2.66538
1.41831 -0.823626 0.215589
1.85688 -1.00473 1.41761
2.75573 -1.18885 -0.0782775
3.35932 -1.27235 2.06797
0.858638 -0.358502 0.712478
1.30109 -0.0271072 1.98032
1.36528 -0.700871 -2.38838
2.35298 -1.09178 0.44826
2.84617 -1.23562 0.431857
3.55196 -1.32156 2.19547
-1.53367 0.753411 -0.620227
-2.21983 0.516157 0.543797
-0.474751 0.507254 -0.934469
-0.335809 0.409684 -0.860968
0.549667 -0.458527 -2.55413
2.22947 -0.976407 -1.48991
3.72264 -1.37247 2.19455
3.28557 -2.03181 0.812442
3.75903 -1.38305 2.20335
-1.14818 0.16584 -2.66643
-0.793361 0.362003 0.340762
-0.773776 0.324631 0.228358
-0.204707 0.230245 -0.766911
-2.30045 0.740977 0.356849
-1.36677 0.557954 -0.50576
-0.662237 0.224666 0.451992
-0.440173 0.251618 0.132112
-0.521633 0.189575 0.372554
2.66955 -1.14755 -0.187623
3.52348 -1.31563 2.06564
3.50919 -1.31941 2.28939
3.75329 -1.87348 1.97467
-0.514072 0.196197 0.364227
-0.536024 0.142841 0.638649
-0.146305 0.149904 -0.997448
3.59213 -1.32789 1.96902
-1.00206 0.344862 -0.484961
-0.0838298 -0.0581853 -0.0118281
-1.0242 0.379243 -0.0124882
1.31007 0.0229525 2.04552
-1.35249 0.704992 -0.578083
-1.35976 0.456516 1.05487
-1.31068 0.423746 1.30378
-1.33432 0.453951 0.770048
-1.20322 0.420251 0.891849
-1.21578 0.41845 0.517088
-0.786237 0.41524 0.441783
-0.198626 0.116469 1.07414
-0.103766 0.118527 0.60811
-0.0640965 0.0803792 0.908691
0.00849067 0.0579729 1.05239
0.422275 0.106991 -1.02668
0.477984 -0.44425 -2.3979
1.71361 -0.913407 0.417967
1.99439 -0.990899 0.570022
2.55228 -1.15539 1.17349
3.67601 -1.35688 2.07625
-0.290874 0.167831 0.572955
-0.151798 0.14015 0.340041
0.173876 -0.185402 1.06259
-0.696184 -0.108903 -2.33706
1.1675 0.0128122 1.48618
0.455606 -0.443158 -2.38357
1.42545 -0.821399 0.215913
1.46843 -0.809728 -0.412222
2.51667 -1.16023 1.20122
3.37191 -1.29872 2.01065
-1.53613 0.581648 0.0740395
-0.515794 0.274532 -0.241678
-0.458488 0.369247 -1.99628
-0.0212149 0.079409 0.848375
1.42181 -0.828474 0.916624
1.78527 -0.90907 -0.106376
-0.0129053 0.0855668 0.671079
0.889422 -0.561199 -2.39458
1.80267 -0.9246 0.0321122
2.2646 -1.09985 1.06807
3.40375 -1.28203 2.03428
-2.19634 0.513611 0.6775
-0.35401 0.225828 0.278985
-0.0798863 -0.289465 -1.90584
3.48743 -1.31634 2.31508
-2.12008 0.740847 -0.065829
-0.941374 0.429677 0.487525
-0.794408 0.415953 0.495537
0.271942 0.0332514 -0.816864
2.67811 -1.15416 -0.178285
-2.08793 0.687603 -0.071238
-0.497236 0.241846 0.112922
3.72075 -1.90501 1.95715
-0.833344 0.418561 0.0553079
-1.25988 0.447453 -0.274456
0.841828 -0.169475 -0.139481
-0.819182 0.351105 0.203755
-0.247215 0.144572 0.830873
-0.0235012 0.0703464 1.0404
-0.00814818 0.0533792 1.05512
-0.12661 0.136395 0.275882
1.7227 -0.90578 0.42153
2.02273 -1.04064 1.15734
3.55297 -1.3246 2.13861
3.17419 -1.36032 1.44984
3.66017 -1.34959 2.01633
-0.719719 0.390417 0.492256
1.17597 0.00312912 1.56556
-0.234033 0.299795 -0.984683
1.92917 -1.0199 1.8243
2.15027 -1.0858 1.6023
2.51598 -1.15649 1.19865
3.43809 -2.3194 0.347067
3.22359 -2.23068 -0.604843
3.18491 -2.20251 -0.851146
-0.656759 0.205571 0.715965
-0.300067 0.157291 0.739034
0.539331 -0.266855 0.585372
1.30547 -0.310719 0.491322
-0.0582442 -0.319683 -1.77802
0.314901 -0.396973 -1.77626
1.90363 -1.00897 1.8267
1.8937 -1.00786 1.763
1.76168 -0.892771 -0.0986952
2.81531 -1.21425 0.351158
2.84828 -1.22585 0.352811
-0.489911 0.483338 -0.818637
2.0851 -1.03134 1.13783
1.50315 -0.827289 -0.207978
2.11317 -1.0346 1.1052
2.31443 -1.076 0.455985
-0.688705 0.343837 0.678906
-0.663673 0.201598 0.444302
-0.792489 0.322893 0.0145967
-2.2047 0.72991 -0.0976001
-1.30923 0.648098 -0.229205
-0.740706 0.265262 0.296183
0.330325 0.0852116 -0.809737
-0.0107178 -0.315896 -1.87147
3.55178 -1.33025 2.14345
-1.0107 0.443211 0.245243
-0.530469 0.231539 0.667002
0.418246 0.0284169 -0.565924
3.65032 -1.35198 2.10529
-0.812735 0.405949 -0.0578495
3.55755 -1.29742 1.97446
1.41713 1.18742 2.34888
-1.10919 0.362921 1.41575
-0.566215 0.157155 0.873712
1.85124 -0.18487 2.14362
-0.424612 0.354536 -1.88388
-1.60399 0.293328 -2.72102
2.00329 -0.993828 0.593555
3.48561 -1.2873 2.08318
3.19738 -1.3741 1.86201
1.4695 -0.817126 -0.759703
0.72388 -0.548625 -1.95179
-0.522982 0.486302 -0.857911
-2.37114 0.381109 -2.68217
1.94314 -1.03358 1.86644
1.92025 -1.03313 1.81821
1.88923 -1.0092 1.75628
1.35301 -0.145854 0.0962085
3.39238 -1.29574 2.26686
3.53037 -1.30353 2.13403
3.55331 -1.3231 2.13857
3.16266 -1.36392 1.8238
1.8009 -0.913118 -0.0306779
3.66763 -1.34548 2.0176
0.933142 -0.590852 -2.35788
1.0826 -0.621077 -2.65177
1.12882 0.0208534 1.50041
0.528664 -0.249919 0.552038
-1.57844 0.208699 -2.61446
2.84832 -1.22262 0.365357
2.66823 -1.15301 -0.253131
1.40935 -0.806694 0.208829
2.58238 -1.17932 1.3163
0.871782 -0.552076 -2.40574
-1.31678 0.662011 -0.170593
-1.29804 0.742578 -0.419436
-1.34114 0.612944 -0.292786
0.344874 -0.225323 0.834542
-0.17569 0.358631 -0.384948
-0.53357 0.433875 -2.05546
3.39369 -1.28421 2.16541
3.447 -1.30213 2.20615
3.46666 -1.30217 2.12155
3.63357 -1.35021 2.15608
-0.790096 0.269867 0.716161
1.81371 -0.99179 1.95752
3.63476 -2.39563 1.68196
2.19694 -1.03114 1.01339
-0.80895 0.208008 0.742738
1.41349 1.19182 2.34272
-0.555677 0.140789 0.848478
0.0650223 -0.115846 0.258002
-0.926123 0.506094 -2.04632
1.6351 -0.871869 0.248087
1.80004 -0.919024 0.000760198
0.740693 -0.552168 -1.93297
3.51053 -2.37676 0.341588
1.694 -0.129101 1.27469
-0.62825 0.405419 -1.92055
1.79834 -0.917373 -0.0298393
1.21762 -0.677577 -2.03964
1.39877 -0.711291 -2.38025
0.550283 0.178719 1.68802
0.7928 0.107168 1.52125
1.41659 -0.0488682 1.3963
-0.971896 0.426586 -0.548614
2.09965 -1.03758 1.15666
3.65647 -1.34498 2.04487
3.70119 -1.36242 2.0012
2.78733 -1.23607 1.3376
-0.366758 0.340821 -1.93428
1.14736 -0.00423445 1.52968
-0.685726 0.344254 0.591889
0.00623055 0.0952206 -0.873915
-0.500955 0.41451 -2.01269
-1.32815 0.662218 -0.167369
-1.36368 0.614312 -0.243321
-0.52804 0.166712 0.44884
-0.753377 0.2815 0.271288
-0.691968 0.175881 0.320993
-1.3188 0.624006 -0.302768
-0.729576 0.339198 -0.463984
-0.206574 0.350733 -0.390206
3.43718 -1.2965 2.13428
3.47859 -1.30409 2.11517
3.65786 -2.04436 1.8336
3.28036 -1.88581 0.701788
0.0104781 -0.11874 -1.63445
0.265128 -0.00941773 -0.526631
0.921315 -0.145936 -0.0275751
1.26255 1.49001 2.46192
1.36049 1.22512 2.05538
-0.0857358 0.363144 1.78963
1.82148 -0.185496 2.13798
-0.604074 0.602036 1.01364
-0.443533 0.470012 1.08456
2.10066 -1.07164 2.02785
1.56309 -0.0953696 1.32701
1.3205 -0.124075 0.10175
2.16879 -1.04384 0.621013
2.0326 -1.0035 0.405293
2.84996 -1.23559 0.743546
2.90143 -1.25033 0.766705
-0.337201 0.38506 -1.98519
2.71602 -1.18304 -0.0372132
1.68775 -0.843122 -1.07464
3.51149 -2.38641 0.346665
-0.402509 0.37074 1.05906
-0.300886 0.271873 1.05954
1.92683 -1.04637 1.99123
2.74184 -1.11361 2.178
1.64072 -0.117971 1.24094
-0.758678 0.265639 0.341739
2.77268 -1.26747 1.90536
2.00307 -1.01452 1.20237
2.82711 -1.26226 1.52839
2.75854 -1.2387 1.49581
3.19503 -1.36356 1.4605
1.45115 -0.835158 0.208646
1.93327 -0.96283 0.425715
1.79154 -0.918818 -0.00181783
-0.39702 0.377458 -1.87844
-0.626632 0.510207 -2.14816
-0.275602 0.337086 -1.93077
0.841229 -0.541655 -2.53036
2.44704 -1.15626 1.54836
1.32361 -0.758836 -0.0624448
1.27352 -0.748904 -0.106055
0.436623 -0.472917 -1.18678
1.5991 -0.750541 -2.73357
1.32559 0.701195 2.28165
1.1672 0.0139032 1.56283
-1.04867 0.390204 -0.0360177
2.23849 -1.07135 0.865641
1.40465 -0.26269 0.0694632
-1.46421 0.191737 -2.59727
-0.492327 0.46884 1.02688
-0.0523306 0.140732 1.04739
3.67319 -1.3524 2.12646
0.483062 0.0137554 -1.0814
1.38416 1.23879 2.33063
-0.696871 0.232647 0.39081
-2.15446 1.10002 -1.25875
-2.23784 0.881601 -1.07863
1.12855 1.65146 2.23068
1.35903 1.27764 2.34169
1.28995 1.35281 2.07212
1.36071 1.23478 2.05144
2.06049 -1.05837 2.00597
1.13606 0.0136269 1.54915
3.6361 -1.33391 2.01828
1.31188 -0.0217525 1.3717
-0.512086 0.520904 1.07941
-0.495245 0.49897 1.0296
-0.443768 0.462359 1.04563
-0.422654 0.444852 1.04521
2.67314 -1.21064 1.68396
2.04035 -1.02894 1.44732
1.87049 -0.971638 0.947007
0.437973 -0.235041 0.492899
1.92607 -0.981607 0.886611
2.16094 -1.04477 0.619453
2.89011 -1.235 0.778545
2.04689 -1.0018 0.408374
1.20683 -0.730196 -0.126371
-0.470368 0.493218 -0.89632
0.386961 -0.485667 -0.497551
3.50884 -2.36814 0.344697
1.44941 -0.755775 -1.3769
-1.4996 0.235742 -2.63583
-1.4019 0.221 -2.61779
-1.50396 0.24345 -2.67583
1.94779 -0.897888 -1.92641
2.44044 -1.16197 2.05882
1.46947 -0.0680924 1.35484
-0.504466 0.504355 1.04995
-0.441972 0.468443 1.05674
2.11013 -1.08596 1.70409
-0.361128 0.343672 1.05959
3.15293 -1.35672 1.77804
1.98496 -1.00355 1.42478
1.96895 -1.00713 1.21571
2.01202 -1.01771 1.20517
3.45545 -1.41624 1.43952
2.74083 -1.19741 0.731451
1.34677 -0.155544 0.105626
2.17814 -1.03647 0.36359
2.93737 -1.24378 0.420114
1.30283 -0.756113 -0.0822393
2.7709 -1.21177 0.311306
2.88838 -1.22213 0.300675
2.44378 -1.09709 0.0321897
2.7117 -1.18197 -0.036529
2.63258 -1.16057 -0.312903
0.449674 -0.473879 -1.1834
0.354378 -0.461837 -1.23066
-0.804757 0.472752 -2.01803
-0.447008 0.378413 -1.89881
0.847512 -0.541799 -2.52514
2.06626 -1.06515 2.0303
0.40909 0.21398 1.52789
3.61442 -1.36121 1.98047
-0.559887 0.440535 0.995658
2.31133 -1.12547 1.60199
2.14922 -1.08126 1.43995
2.80396 -1.2223 0.758389
1.93875 -0.963665 0.430797
2.45605 -1.10911 0.414767
1.30506 -0.224428 -0.0648995
0.548928 -0.0327382 -0.370287
1.26886 -0.752739 -0.109258
-0.318197 0.245789 -1.94824
1.55852 -0.745414 -2.7294
3.43723 -1.30525 2.20927
2.67089 -1.22668 1.91139
-0.587012 0.591815 1.0069
-0.5566 0.507881 1.01185
2.34074 -1.07991 0.907812
2.51667 -1.15444 0.884122
2.01573 -0.99564 2.0645
0.893342 0.0930991 1.40675
-1.21967 0.500667 -0.0544991
1.32312 -0.316659 0.0434054
2.30138 -1.17525 1.96194
1.21628 -0.0271742 1.39966
-0.754303 0.249563 0.374381
-1.03963 0.134164 -2.73776
3.75701 -1.50671 2.07586
-0.46406 0.352816 0.985011
0.662148 -0.360534 0.823374
1.1163 1.72174 2.27671
1.13065 1.64401 2.2319
1.10201 1.71984 2.14036
3.49034 -1.31463 2.2687
1.29591 1.37133 2.0683
3.62624 -1.34106 2.01925
2.66708 -1.21848 1.68518
2.07835 -1.05935 1.51185
1.39659 -0.0647184 1.40765
1.31335 -0.019633 1.3699
1.93797 -1.03095 1.46979
1.66179 -0.11575 1.25352
2.02462 -1.02158 1.2095
3.28542 -1.36148 1.19377
-0.440917 0.438775 1.04884
-0.38164 0.393382 1.04665
-0.465299 0.452978 1.01408
2.95365 -1.28799 1.04284
1.94046 -0.990992 0.890613
1.95869 -0.983673 0.849576
0.416816 -0.230039 0.488274
-2.08272 0.664762 -0.038011
0.321033 -0.152531 -0.0456164
-0.0342812 -0.0906776 -0.196435
2.45355 -1.10946 0.0347832
1.27922 -0.766046 -0.102198
2.83177 -1.20755 -0.0249646
2.61519 -1.14163 -0.328869
3.2803 -2.25782 -0.472439
0.56218 -0.519417 -1.19986
1.29015 -0.759151 -1.33107
-0.573406 0.40326 -1.88854
-0.461336 0.380101 -1.90484
2.39542 -1.04078 -1.26713
-0.395353 -0.180409 -2.27891
-1.76298 0.239381 -2.71702
-1.52849 0.269298 -2.66695
-1.50175 0.232281 -2.68607
-1.13982 0.099406 -2.78607
1.39722 1.21645 2.33926
1.34977 1.26101 2.33262
1.30807 1.38813 2.30288
1.29024 0.0546321 2.52008
3.55115 -1.32283 2.13492
3.47665 -1.29575 2.05003
3.71985 -1.37571 1.98903
2.53165 -1.19851 1.96224
3.30077 -1.39432 1.73347
2.09041 -1.04581 1.70986
1.85314 -0.986169 1.70376
0.320909 0.265699 1.51745
0.994681 0.0578664 1.44701
3.42224 -1.42644 1.44051
1.99186 -1.01131 1.43129
1.45939 -0.0704999 1.31685
2.47089 -1.15155 1.39026
-0.525995 0.52162 1.07839
-0.650451 0.548406 1.07518
-0.294316 0.311394 1.08472
-0.351442 0.372755 1.06455
-0.504059 0.48859 1.03391
2.5104 -1.17868 1.12629
-0.4919 0.3598 1.01517
2.66928 -1.20662 1.08882
1.35233 -0.331898 0.896907
1.98091 -1.01704 0.911313
2.77508 -1.20333 0.362939
2.16594 -1.0288 0.109654
-1.37237 0.608803 -0.527822
-1.33604 0.729261 -0.531627
1.0468 -0.682582 -0.345652
-0.18171 0.29932 -0.610076
2.60869 -1.15742 -0.315763
2.70313 -1.1602 -0.368266
-0.254399 0.250629 -1.07126
-0.36611 0.649211 -1.63574
-0.366749 0.342921 -1.88702
0.269839 -0.373922 -1.78143
-0.877379 0.462668 -2.07565
-0.625037 0.507911 -2.11986
1.55571 -0.785684 -1.68073
-1.63233 0.250218 -2.63907
-0.859647 -0.0851814 -2.53302
-1.35173 0.230506 -2.79206
1.60962 -0.761316 -2.7264
3.71489 -1.36495 2.04748
3.26834 -1.41096 1.78907
2.29434 -1.12287 1.38929
1.65513 -0.914624 1.30327
-0.478633 0.457842 1.10841
-0.294672 0.246119 1.0695
-0.440332 0.342678 0.954826
-0.691312 0.185474 0.759295
2.00982 -1.00335 0.870395
0.314074 -0.217941 0.334968
2.75238 -1.20193 0.311814
1.53887 -0.821339 0.177024
1.29785 -0.127015 0.0709664
1.28982 -0.797976 -0.0875427
1.47288 -0.816728 -0.137541
-1.34597 0.598708 -0.546908
2.20316 -1.01387 -0.329563
-0.227983 0.211339 -0.748525
2.64512 -1.14227 -0.351338
1.5235 -0.823808 -0.763545
0.593584 -0.506208 -1.26412
-0.173131 0.518824 -1.59837
0.626389 -0.493577 -2.21461
1.20681 -0.641931 -2.75644
1.32464 0.0829889 2.58863
3.51769 -1.31903 2.07398
1.86612 -1.00688 2.06289
3.09941 -1.34476 1.85232
2.2539 -1.09306 1.45959
0.349857 -0.0356125 1.41276
3.38011 -1.40441 1.21963
-0.24745 0.205567 1.12332
-0.285331 0.119624 1.09917
-0.712633 0.169882 0.806899
-1.08896 0.384885 0.128935
-1.05475 0.414229 0.0709024
-1.11521 0.352882 -0.0440273
2.7179 -1.16113 0.290453
2.87243 -1.23867 0.296665
1.72344 -0.891362 -0.00842389
-0.269911 0.560592 -1.63583
-0.0593551 -0.209746 -1.6733
0.0791947 0.0766214 -1.66902
-0.369313 0.323835 -1.92389
1.46184 -0.743899 -2.07566
0.421978 -0.437133 -2.50191
2.74994 -1.21017 2.03229
1.51851 -0.0948392 1.26187
-0.569068 0.461204 0.999994
2.38718 -1.13346 1.12424
-0.589772 0.432825 0.957495
1.50762 -0.846857 0.209887
-1.1083 0.346551 -0.0983778
0.00359232 0.0184222 -0.156367
-0.385673 0.271405 -1.96557
2.93532 -1.31317 1.51468
-1.91113 0.765874 -1.05842
1.39817 0.0807673 2.53693
-0.461193 0.305931 1.17518
-0.521696 0.566798 1.1069
2.20998 -1.07231 1.13933
-0.733198 0.369572 0.585204
-0.491281 0.182173 -0.101585
-0.714634 0.461875 -0.383632
0.00640597 -0.405598 -1.67741
3.74297 -2.59742 2.04909
2.27605 -1.1502 1.89355
-0.501436 0.358764 0.99946
-0.934894 0.505698 0.633696
3.54508 -1.33564 2.26092
3.49402 -1.31263 2.24525
2.89311 -0.498331 2.41817
3.37534 -1.27343 2.09599
3.31688 -1.26443 2.10868
3.42225 -1.31349 2.07283
3.4326 -1.31028 2.05709
1.29373 0.093865 2.47709
1.14206 1.69949 2.42645
1.3977 1.21863 2.33821
1.37469 1.24126 2.33127
3.27375 -1.3964 1.80951
3.33108 -1.4432 1.79141
2.39121 -1.14664 2.04622
2.64668 -1.23138 1.94404
2.65116 -1.22105 1.90707
1.11339 1.72715 2.27653
1.38435 1.22392 2.18076
1.098 1.72857 2.14019
1.34907 1.247 2.05164
1.38779 -0.0311805 1.92075
2.85934 -1.28955 1.53032
2.5919 -1.19603 1.59263
1.91794 -0.993841 1.7361
2.8707 -1.26754 1.50837
1.85237 -0.975554 1.7475
2.46602 -1.15136 1.52395
2.41734 -1.13973 1.5194
2.74399 -1.23113 1.35323
3.2553 -1.36624 1.23216
3.1246 -1.33591 1.25768
3.05471 -1.31838 1.2694
2.86561 -1.26789 1.30577
2.81373 -1.23595 1.30594
1.79057 -0.977207 1.50374
2.91846 -1.2748 1.26325
1.92211 -1.00177 1.45002
1.22186 0.0015185 1.59961
2.84264 -1.2622 1.08213
1.84431 -0.980153 1.26765
2.97555 -1.28759 1.04286
2.90159 -1.27674 1.05731
2.09578 -1.05927 1.20389
3.0336 -1.30074 1.02774
1.29569 -0.0172856 1.37093
1.64279 -0.120257 1.27051
1.55886 -0.0967045 1.2815
1.65461 -0.11684 1.25439
1.64227 -0.914516 1.10155
1.94153 -0.993045 1.03992
2.0989 -1.03961 0.959666
-0.697224 0.431593 1.19881
-0.756509 0.468501 1.19473
-0.258955 0.189366 1.10753
-0.282786 0.261483 1.1149
1.24624 -0.304533 0.863752
1.2647 -0.308849 0.844853
1.61913 -0.900909 0.726943
-0.567452 0.523904 1.07921
-0.420051 0.426821 1.04909
-0.550773 0.457661 0.970197
-0.595352 0.520179 0.975772
2.84974 -1.22097 0.433686
0.368549 -0.175688 0.691662
2.24303 -1.07258 0.354358
2.95156 -1.24353 0.245714
2.77006 -1.1913 0.265086
0.497386 -0.236803 0.530322
0.377139 -0.24056 0.489028
1.80394 -0.921258 0.155227
0.334217 -0.204154 0.290015
2.09085 -1.0219 0.0928058
2.03633 -1.0042 0.0929784
1.68093 -0.876167 -0.0150783
1.80057 -0.919528 -0.0275225
1.27342 -0.0779688 0.0918853
1.4376 -0.796187 -0.149532
0.308593 -0.150487 -0.0470992
0.291797 -0.185971 -0.116739
0.719507 -0.587869 -0.246878
0.70298 -0.593593 -0.264647
-0.0104458 -0.0892346 -0.196634
0.689645 -0.581149 -0.279617
2.79857 -1.17687 -0.374375
2.76007 -1.16862 -0.380752
2.51444 -1.10141 -0.645895
-0.400041 0.440098 -0.807094
1.16128 -0.703803 -0.959108
-0.4789 0.501095 -0.865288
1.32973 -0.747767 -0.975837
0.47077 -0.215792 -1.11393
0.477107 -0.500112 -1.17185
-0.309279 0.386743 -1.1379
2.39988 -1.04743 -1.26683
2.14003 -0.943456 -1.46589
-0.306884 -0.206308 -2.01701
1.89123 -0.870048 -1.91839
-4.38585 0.994578 -2.60076
-0.374091 -0.216898 -2.33318
-2.38327 0.439975 -2.6257
-1.51457 0.250223 -2.66629
-1.48318 0.244131 -2.68103
2.11341 -0.909222 -2.23653
-1.39499 0.223609 -2.71837
0.774466 -0.525534 -2.50976
-0.553332 -0.162959 -2.76967
-0.471339 -0.148583 -2.77077
1.8954 -0.855348 -2.47457
3.36343 -1.27578 2.11635
3.66608 -1.35199 1.99534
1.53062 1.20056 2.59156
3.03177 -1.34215 1.88872
3.29817 -1.4129 1.79307
3.00281 -1.32787 1.8648
3.03295 -1.32467 1.81495
2.14744 -1.07774 1.96203
1.13357 1.64062 2.23126
1.31225 1.30921 2.17063
3.4159 -1.42752 1.42752
1.49058 -0.0697959 1.89953
2.93002 -1.30135 1.52037
2.19722 -1.09644 1.69345
2.30086 -1.13353 1.66386
2.04021 -1.05808 1.71361
2.1548 -1.10415 1.6796
3.29017 -1.38123 1.23308
2.40734 -1.15942 1.40745
1.79827 -0.199228 1.55215
3.11056 -1.3405 1.24696
2.87813 -1.25921 1.29001
2.74075 -1.22299 1.31896
2.95189 -1.28039 1.27129
2.71835 -1.23177 1.30919
1.67204 -0.121175 1.50705
3.25726 -1.36709 1.00139
1.91074 -0.999115 1.24429
2.76745 -1.2401 1.08124
1.86203 -0.970562 1.24301
1.99569 -1.01193 1.21686
1.62321 -0.908146 1.28378
2.79094 -1.23567 1.06206
2.97992 -1.28415 1.02435
1.6994 -0.943374 1.26321
0.966947 0.0733144 1.43558
-0.162992 0.375311 1.62745
0.0068864 0.21192 1.51092
0.424801 -0.110975 1.40919
1.81321 -0.948191 1.07972
1.57198 -0.891088 1.12048
1.79589 -0.966768 1.06539
2.00338 -1.02212 1.02931
0.338775 -0.15642 1.28933
2.22058 -1.01352 0.916685
2.88509 -1.24158 0.745334
2.57519 -1.15999 0.785914
2.75664 -1.21033 0.753715
2.36953 -1.0868 0.797761
2.08771 -1.01136 0.768256
-0.196385 0.132561 1.13916
1.2821 -0.302358 0.885235
1.73409 -0.925258 0.723817
-0.412522 0.359831 1.06398
-0.396287 0.347485 1.04302
2.1935 -1.04781 0.62933
-0.669609 0.515265 0.997004
2.28992 -1.06395 0.458355
1.63427 -0.864391 0.528244
0.693861 -0.333903 0.658845
-0.62457 0.332162 0.828381
0.635216 -0.308298 0.643133
2.7717 -1.2021 0.360727
1.73463 -0.9263 0.469636
2.26854 -1.06936 0.39058
2.15446 -1.03982 0.362298
2.52247 -1.11878 0.273918
-0.683003 0.303264 0.56211
1.74579 -0.928188 0.188508
0.462452 -0.236731 0.309747
1.261 -0.205811 0.019165
1.67804 -0.879058 -0.138587
-2.08388 0.669867 0.106364
1.88595 -0.946125 -0.218968
2.29032 -1.05574 -0.314488
2.62657 -1.14323 -0.330676
1.14107 -0.686083 -0.333839
1.04558 -0.679212 -0.345748
1.12716 -0.700758 -0.368269
1.40013 -0.755922 -0.385176
1.69084 -0.873998 -0.487656
1.76789 -0.908894 -0.50389
1.95293 -0.950655 -0.526774
-1.47908 0.70241 -0.622269
-0.211365 0.341953 -0.758525
-0.221709 0.313086 -0.815517
-0.313308 0.449958 -0.869069
2.22102 -0.990087 -1.19773
2.29125 -1.01114 -1.20924
0.0117068 -0.335654 -1.75171
1.83777 -0.901868 -1.65612
1.43502 -0.749196 -1.70038
-0.357473 0.341979 -1.88587
1.95303 -0.886304 -1.9244
-2.55267 0.413306 -2.71996
-1.31328 0.236954 -2.62727
-1.53408 0.283392 -2.70467
-1.39944 0.228556 -2.69571
-1.263 0.263088 -2.73651
-1.28738 0.176369 -2.78905
3.80355 -1.37931 2.22053
3.57788 -1.32908 2.21542
3.41743 -1.30099 2.11125
3.55821 -1.32588 2.03545
3.57477 -1.9337 1.81859
1.46389 -0.0477012 2.40459
3.06931 -1.37163 1.86862
3.18416 -1.33166 1.81585
2.77804 -1.26819 1.9186
2.2303 -1.11381 1.99975
2.02252 -1.06251 1.9651
2.12834 -1.05984 1.85134
1.31011 1.31552 2.06508
1.26986 1.40406 2.07342
2.55616 -1.16469 1.39701
2.21204 -1.07444 1.44948
2.01537 -1.05068 1.45192
1.80575 -0.967414 1.29507
1.63121 -0.918272 1.3062
1.76823 -0.942875 1.26873
-0.298102 0.430213 1.66925
1.1959 0.00957279 1.37955
1.08301 0.0304768 1.38319
2.34533 -1.09249 0.914003
2.26225 -1.06585 0.897398
2.09489 -1.01958 0.926241
2.22162 -1.07505 0.868936
1.56634 -0.886856 0.962879
1.20794 -0.333221 0.975558
2.02991 -1.00432 0.751871
-0.475989 0.477817 1.10866
-0.505142 0.468594 1.05917
-0.581238 0.527756 1.05273
2.1784 -1.03546 0.617349
-0.474011 0.334255 0.981897
3.16655 -1.36664 0.437048
2.37884 -1.09998 0.445771
3.27551 -1.46415 0.301827
2.71258 -1.18281 0.291526
2.52628 -1.11891 0.309573
-0.236625 0.107867 0.489731
1.67173 -0.892718 0.213886
1.66319 -0.852239 0.199779
2.18971 -1.05713 0.0720968
2.72717 -1.17608 -0.0292303
2.506 -1.10405 -0.0185398
1.35787 -0.201514 0.0710728
1.78259 -0.932362 -0.214992
2.02183 -0.957377 -0.226815
0.0330151 0.160617 -0.109772
0.0104796 0.261937 -0.10628
2.10275 -0.948342 -0.511977
-1.32089 0.662097 -0.523843
-1.31231 0.630981 -0.541214
1.53516 -0.828638 -0.758961
-0.303507 0.418683 -0.683767
-0.337553 0.390938 -0.724356
0.33689 0.0538245 -0.786229
-0.325255 0.361855 -0.768436
1.52865 -0.792235 -0.999498
-0.271842 0.461633 -1.14445
-0.351036 0.447318 -1.17936
-0.275111 0.395047 -1.23421
1.38191 -0.742441 -1.41681
1.62263 -0.808119 -1.41844
-0.370462 0.646163 -1.63607
-0.608892 -0.104273 -2.26153
-1.38656 0.259538 -2.60817
-0.742497 -0.0711676 -2.7539
1.14103 -0.652872 -2.65676
1.71036 -0.775471 -2.68558
1.31016 1.58978 2.67277
1.12982 1.7804 2.61307
2.34187 -1.10842 1.95513
3.35764 -1.46696 1.4708
2.52394 -1.1734 1.6394
1.21364 0.159264 1.76696
1.20097 0.181011 1.72067
2.51246 -1.18439 1.37763
0.188173 0.298546 1.56455
0.731992 0.100722 1.45439
2.19822 -1.06336 1.10644
2.407 -1.11092 0.866162
2.04706 -1.00575 0.922082
2.35815 -1.10671 0.851693
2.63824 -1.1872 0.792283
2.32123 -1.0572 0.831295
3.22869 -1.35011 0.509656
-0.454485 0.456845 1.02471
3.09875 -1.29025 0.46557
-0.784986 0.339852 0.250268
-1.93769 0.466679 0.305273
1.37166 -0.775296 -0.0843273
-1.06243 0.444606 0.134914
1.76961 -0.926445 -0.159492
1.43405 -0.862201 -0.143394
-1.19452 0.345928 0.0574495
1.53773 -0.865362 -0.164402
-1.02967 0.37315 0.0278013
1.87317 -0.930172 -0.249284
0.00582978 -0.00611033 -0.127662
-1.37762 0.595647 -0.637166
-0.309514 0.400095 -0.793212
0.340058 -0.0141653 -1.16264
-0.236756 0.322913 -1.17779
-0.553052 -0.167853 -2.29646
0.463928 -0.435711 -2.48119
0.798732 -0.530381 -2.53245
3.46694 -1.46615 1.87539
2.35287 -1.16008 1.99099
1.83856 -1.02529 2.01864
2.65676 -1.23759 1.57505
1.94598 -0.996533 1.74008
1.16925 0.299815 1.86192
1.41419 -0.0471027 1.7914
1.21846 0.106285 1.83771
1.94108 -0.173191 1.63516
1.92227 -0.105722 1.61806
1.74193 -0.797098 1.62107
-0.0497212 0.412315 1.93613
0.283046 0.249947 1.57556
2.18329 -1.07258 1.1376
0.327923 -0.0257987 1.36839
-0.504622 0.345301 1.14671
-0.60917 0.452424 1.00053
-0.583683 0.447886 0.962394
0.736873 -0.335936 0.593133
1.53238 -0.817318 0.217116
-0.786384 0.316466 0.335537
2.79849 -1.20891 -0.053171
-1.36551 0.448829 0.0655289
-0.107569 -0.0173076 -0.0937495
-1.06377 0.358196 -0.0520232
2.21472 -1.0549 -0.289204
-0.0933104 -0.0271253 -0.168575
0.938345 -0.666122 -0.296659
-0.344664 0.3562 -0.844697
-0.258475 0.358984 -1.20704
-0.133776 0.244641 -1.2404
-0.112113 0.372344 -1.69537
-1.18181 0.703838 -1.94891
1.49664 -0.0707616 1.8619
1.72908 -0.197015 1.77121
1.24018 0.136788 1.79268
0.917174 0.0676212 1.45338
2.38487 -1.14162 1.12836
1.88954 -0.995249 1.18297
0.454792 0.00776481 1.39626
1.36188 -0.511847 1.01989
2.27323 -1.0641 0.814579
2.10306 -1.01934 0.390373
2.41808 -1.07915 0.347189
-0.32584 0.175045 0.562375
1.50838 -0.854354 0.258157
1.54941 -0.82334 0.158573
-0.82393 0.333645 0.165589
-1.21974 0.427006 0.187474
-2.04548 0.596836 0.0920041
2.63648 -1.14821 -0.35006
-0.199263 0.193661 -0.16092
1.74921 -0.834708 -1.43959
0.105376 -0.294125 -1.75992
1.21281 1.64946 2.68483
2.15323 -1.07323 1.71701
1.26161 0.0474635 1.92027
1.11171 0.315522 1.92803
0.174124 0.577895 1.94068
2.05665 -0.91915 1.19517
2.13539 -1.06578 0.932167
-1.12238 0.380525 1.27124
-0.237648 0.187036 1.10626
-0.488554 0.257222 0.696658
1.56665 -0.83008 0.143507
-0.138119 0.0646449 -0.0402326
1.55236 -0.796315 -1.40828
-0.105963 0.555069 -1.71207
-0.847742 0.407633 -2.13877
3.61335 -1.74495 1.84234
-0.594782 0.262823 1.21192
3.04639 -1.56999 0.214751
1.81767 -0.901224 -0.207351
3.78492 -1.42034 1.95838
3.15021 -1.35406 0.670438
-0.886916 0.807525 -1.70035
-1.10823 0.497373 0.890978
0.319617 -0.327355 -1.73091
-0.241895 -0.148646 -0.707268
2.56564 -1.01813 -2.68501
2.50075 -1.00438 -2.62434
0.277367 -0.378968 -2.71038
0.800959 -0.514248 -2.66462
0.566784 -0.458743 -2.6331
1.0319 -0.597107 -2.59219
1.97068 -0.865699 -2.48079
2.26346 -0.935821 -2.40958
-0.260279 -0.239075 -2.58415
2.28589 -0.946797 -2.40501
0.239004 -0.370747 -2.4402
0.854164 -0.552798 -2.37566
0.0654308 -0.326611 -2.41725
-2.74911 0.488957 -2.54642
1.30803 -0.683431 -2.32441
-3.80662 0.79341 -2.57971
1.24425 -0.674338 -2.29157
-0.690615 -0.102188 -2.34622
-3.10703 0.587517 -2.46303
-3.85527 0.794572 -2.49934
-0.683488 -0.111042 -2.33693
2.65114 -1.06853 -2.14151
-0.510203 -0.166623 -2.28509
1.2617 -0.670619 -2.19383
-2.83114 0.516988 -2.37267
1.04359 -0.6037 -2.19339
0.552432 -0.474272 -2.19636
-0.360375 0.410532 -1.99567
-4.03146 0.864655 -2.30462
-4.08415 0.858456 -2.27128
-4.11479 0.869265 -2.26546
1.93721 -0.882979 -2.01295
0.401147 -0.423607 -2.0539
0.409567 -0.428321 -2.0425
-0.172226 -0.277602 -2.0428
-0.193564 -0.268012 -2.03851
-2.87018 0.501028 -2.10913
-0.406669 -0.204839 -2.03258
-0.42031 -0.196675 -2.0259
1.95836 -0.893406 -1.95979
1.56908 -0.787514 -1.95814
0.241633 -0.380108 -1.95194
2.73135 -1.09278 -1.84899
0.530076 -0.480929 -1.87797
0.612173 -0.507761 -1.86763
1.7405 -0.821365 -1.79251
0.857336 -0.573588 -1.76461
0.0835848 -0.345351 -1.72134
0.00898771 -0.328674 -1.71741
1.88038 -0.860312 -1.67054
0.0706949 -0.345237 -1.67679
2.71525 -1.0974 -1.65917
1.13018 -0.65734 -1.64781
1.55457 -0.782043 -1.61191
0.176633 -0.387092 -1.6084
2.91659 -1.16387 -1.5996
0.610747 -0.518007 -1.53379
0.528482 -0.502031 -1.50425
2.87662 -1.15544 -1.47978
1.91572 -0.897817 -1.44138
1.56581 -0.805143 -1.40478
1.48306 -0.76954 -1.3612
1.40959 -0.767702 -1.35933
2.9302 -1.17471 -1.37414
2.02616 -0.919328 -1.32101
2.5456 -1.07735 -1.31635
2.41482 -1.03194 -1.30388
1.23477 -0.694796 -1.26513
-3.16258 0.548599 -1.12222
2.6217 -1.09879 -1.24474
-3.24431 0.568676 -1.07924
-0.318948 0.47171 -0.95037
0.474752 -0.48025 -1.07686
2.81719 -1.1463 -1.14827
1.88543 -0.915707 -1.10385
0.684159 -0.551437 -1.04638
2.68685 -1.11665 -1.07863
-1.39554 0.760511 -0.716307
0.657794 -0.541969 -0.972907
-2.86101 0.448739 -0.816535
1.06075 -0.674725 -0.988608
-1.58584 0.807909 -0.692818
-1.46941 0.790681 -0.685609
1.43102 -0.789581 -0.971067
2.36481 -1.02947 -1.01013
2.57509 -1.0905 -1.0014
3.12632 -2.15848 -1.24231
0.634591 -0.538631 -0.85521
2.35081 -1.03281 -0.87221
1.47656 -0.812963 -0.787235
2.99985 -1.21815 -0.773871
-2.13187 0.730174 -0.301734
2.99168 -1.21814 -0.764224
2.53152 -1.09049 -0.655768
-0.720172 0.328512 -0.294624
-0.596183 0.293648 -0.278533
0.0386076 -0.05364 -0.296371
2.03007 -0.969241 -0.514865
2.47145 -1.07352 -0.526786
2.04695 -0.972166 -0.490444
2.73116 -1.14725 -0.547907
3.09251 -1.2515 -0.559437
-1.97911 0.509912 -0.0104212
2.21979 -1.0161 -0.450839
1.84 -0.900946 -0.406413
0.813229 -0.624548 -0.300864
2.97237 -1.21526 -0.479501
-2.10399 0.697185 0.115343
-0.873172 0.370854 0.104013
-0.996302 0.340695 0.16473
-2.19654 0.567912 0.330127
1.78441 -0.901522 -0.131591
1.96918 -0.959089 -0.141077
-0.968483 0.353155 0.302578
-0.976337 0.336071 0.314483
2.82176 -1.18425 -0.202225
3.15013 -1.28205 -0.219765
-2.26651 0.570233 0.498403
-0.989665 0.380804 0.390494
1.79343 -0.914115 0.00218355
0.334179 -0.195944 0.234138
1.66333 -0.871803 0.0275907
2.61174 -1.13755 -0.025519
-1.89047 0.429329 0.603028
1.57909 -0.848037 0.107587
2.56381 -1.11654 -0.0156601
-0.60856 0.227434 0.471973
1.9062 -0.948498 0.0920448
2.04943 -1.00382 0.0917842
1.42937 -0.820409 0.189506
-0.069605 0.108977 0.492101
2.34938 -1.07382 0.0961146
2.35998 -1.07913 0.102005
2.3801 -1.07903 0.112438
-1.28926 0.445338 0.726239
-1.31049 0.450273 0.74061
-1.16868 0.406904 0.717748
3.16299 -1.29343 0.0403568
-1.33132 0.456396 0.750877
3.20373 -1.3014 0.072634
0.000406256 0.0765768 0.698213
3.00269 -1.25273 0.180512
0.426079 -0.109455 0.640143
-0.649593 0.210907 0.823529
-0.551669 0.477024 0.910598
2.11489 -1.03059 0.393619
1.9718 -0.979218 0.448639
2.43974 -1.10384 0.427041
2.45378 -1.10816 0.427985
2.63229 -1.1659 0.441615
-0.430182 0.375747 1.04813
-0.322922 0.28802 1.03416
1.99445 -0.996486 0.57786
2.82415 -1.22689 0.448016
-0.197195 0.117296 1.05451
-0.130989 0.0986527 1.04448
-1.07553 0.357757 1.233
1.61199 -0.892221 0.729224
1.52998 -0.872673 0.748034
2.56501 -1.13398 0.602751
2.58515 -1.14195 0.613114
-1.15649 0.38093 1.41301
2.76974 -1.20086 0.723564
0.367728 0.232696 1.52009
0.224485 0.273905 1.59497
-0.485846 0.474896 1.74952
0.81794 0.112414 1.47023
0.599022 0.175471 1.53144
1.43702 -0.0650463 1.34941
1.77088 -0.964166 1.28247
1.85693 -0.983363 1.26651
2.30991 -1.11647 1.16613
-0.764661 0.552142 1.92484
3.0538 -1.30615 1.0175
-0.784993 0.557097 1.93896
0.353591 0.233283 1.68198
-0.679557 0.52777 1.91834
1.2323 -0.00868317 1.5181
0.985258 0.053536 1.58954
1.63135 -0.732015 1.40186
1.84471 -0.981079 1.49021
1.8204 -0.979434 1.49821
2.71724 -1.22532 1.46152
1.9174 -1.02186 1.72867
1.87894 -1.00526 1.75163
1.87137 -1.00272 1.76203
2.56193 -1.18804 1.5851
1.90114 -1.01594 1.77339
2.93998 -1.29905 1.50569
1.94145 -1.03597 1.78585
3.29909 -1.38445 1.46548
2.38478 -1.13397 1.74969
0.109799 2.09302 2.47193
0.615286 1.9463 2.38052
1.8972 -1.01453 1.97809
0.991003 1.83792 2.38147
1.26662 1.4397 2.30131
0.971077 1.84384 2.42604
2.63976 -1.23257 1.94577
2.62677 -1.22552 1.95134
2.48747 -1.18007 2.00173
3.31779 -1.25834 2.04357
1.20178 1.84785 2.81263
2.3571 -0.954912 -2.84293
2.5514 -1.00375 -2.77348
2.52882 -1.0093 -2.6984
1.1326 -0.618183 -2.60462
0.568366 -0.464134 -2.58942
-1.48562 0.263511 -2.61244
0.666828 -0.489769 -2.51678
-1.51879 0.236352 -2.61213
2.20991 -0.928277 -2.39353
0.446489 -0.428491 -2.49735
0.292672 -0.390289 -2.49557
0.721155 -0.506319 -2.46281
1.5956 -0.771785 -2.37003
1.77057 -0.81101 -2.35497
0.305348 -0.393881 -2.44098
1.39022 -0.720739 -2.36089
-1.94858 0.246254 -2.5526
0.0666062 -0.319418 -2.42721
-1.90509 0.238317 -2.54513
0.441255 -0.439036 -2.40401
-3.35594 0.656891 -2.6108
0.084164 -0.323181 -2.34627
0.44412 -0.436561 -2.30546
-3.5987 0.743317 -2.50056
0.989001 -0.608032 -2.27491
-4.33685 0.943197 -2.52539
-2.50165 0.412619 -2.43083
-0.662626 -0.116594 -2.28225
2.66541 -1.06878 -2.11903
1.99542 -0.894561 -2.13766
-3.20174 0.637804 -2.35035
-3.03499 0.554846 -2.29737
2.43034 -1.0121 -2.05571
0.162375 -0.363408 -2.13427
0.282833 -0.403969 -2.12594
-0.334987 -0.211144 -2.13486
1.91375 -0.868888 -2.03964
1.93419 -0.870544 -2.02725
2.79431 -1.11616 -1.99456
0.540162 -0.468359 -2.06615
2.37283 -0.993507 -2.00331
-0.361149 -0.203681 -2.09358
0.828439 -0.558666 -2.03812
2.49472 -1.02132 -1.96905
-0.0891459 -0.29193 -2.05391
-0.0934734 -0.275184 -2.01883
0.319549 -0.407178 -1.98626
1.96461 -0.891778 -1.94256
1.09427 -0.659221 -1.96602
1.95028 -0.892115 -1.93133
-3.74217 0.771233 -2.02866
0.141961 -0.360099 -1.87268
0.625048 -0.497573 -1.84996
0.45068 -0.460396 -1.84793
0.401571 -0.451833 -1.84958
1.15299 -0.665177 -1.83347
1.99807 -0.90853 -1.79442
1.98452 -0.897534 -1.78364
0.202313 -0.385928 -1.80435
0.938546 -0.600224 -1.78406
0.121112 -0.360616 -1.79161
0.225819 -0.400378 -1.79045
0.239555 -0.407697 -1.76934
1.62804 -0.804894 -1.73593
0.602782 -0.511403 -1.72193
1.61317 -0.800588 -1.70829
2.4904 -1.02638 -1.68775
0.0887796 -0.363564 -1.56569
0.0717786 -0.349347 -1.55353
1.33436 -0.713905 -1.54814
2.11542 -0.941973 -1.47492
2.27324 -0.980226 -1.43685
2.18202 -0.97865 -1.40167
1.37152 -0.739115 -1.38217
2.83064 -1.14617 -1.38379
-0.257332 0.411293 -1.13387
0.99245 -0.632292 -1.32862
-1.199 0.671144 -1.10591
-1.34635 0.688043 -1.09156
0.686416 -0.56462 -1.18743
-3.4598 0.64686 -1.05483
-0.45101 0.494256 -0.951999
0.442115 -0.48753 -1.15919
2.14388 -0.971362 -1.20718
2.3488 -1.03278 -1.19107
1.58431 -0.810976 -1.14216
1.56377 -0.812083 -1.13556
1.973 -0.912806 -1.1141
1.03662 -0.652635 -1.07451
1.58376 -0.818692 -1.09431
1.94986 -0.914705 -1.10749
0.899793 -0.603799 -1.05459
1.71916 -0.852468 -1.08003
-1.40964 0.751658 -0.780994
-0.249896 0.41317 -0.826037
-0.24838 0.409052 -0.812198
-0.317009 0.416305 -0.812247
1.7108 -0.857207 -1.0543
-0.244219 0.24327 -0.828279
-1.56163 0.795116 -0.725018
1.43894 -0.782137 -1.00419
1.42541 -0.785211 -0.990654
1.06915 -0.676277 -0.959832
1.07664 -0.68278 -0.940835
0.824307 -0.611847 -0.847901
-1.12486 0.46459 -0.548806
1.50279 -0.801973 -0.815807
2.98042 -1.20453 -0.842453
-0.00575819 -0.0777482 -0.561075
2.64054 -1.11964 -0.696123
0.612905 -0.550952 -0.545909
0.436967 -0.508884 -0.529035
-0.940914 0.390151 -0.277895
3.03821 -1.22848 -0.674375
2.93227 -1.1995 -0.605211
3.07196 -1.23933 -0.569023
0.210786 -0.11979 -0.218578
0.713461 -0.582712 -0.284954
0.733489 -0.593447 -0.282826
0.76062 -0.605425 -0.283501
0.755933 -0.599484 -0.268182
1.46207 -0.804736 -0.332875
-2.0872 0.697972 0.101787
2.86946 -1.19709 -0.389964
3.06569 -1.24751 -0.396959
3.11923 -1.2715 -0.263866
1.94379 -0.946594 -0.128015
-2.30334 0.625958 0.432041
1.78996 -0.906383 -0.102706
3.16307 -1.28465 -0.193511
2.28824 -1.06116 -0.00737731
-0.24119 0.166885 0.408744
1.97287 -0.967856 0.055492
0.585384 -0.276978 0.311575
2.11173 -1.0103 0.112825
1.78915 -0.916741 0.158399
-0.612739 0.316431 0.576678
-0.178516 0.139255 0.509609
-0.146343 0.130965 0.513198
-0.104608 0.107864 0.508473
0.0847511 -0.139766 0.510871
0.104988 -0.148058 0.51371
-2.10807 0.464665 0.840908
0.0496958 -0.131517 0.552007
-1.38909 0.456244 0.789747
0.416049 -0.111841 0.613557
2.92572 -1.22999 0.181003
3.15992 -1.29645 0.147194
1.71758 -0.902899 0.367156
-0.66011 0.217364 0.794361
3.06685 -1.26987 0.173511
0.137892 -0.164538 0.738793
1.95702 -0.976665 0.41777
1.98708 -0.995372 0.456563
-0.488503 0.446923 0.973001
-0.520109 0.514577 0.992255
-0.489423 0.474465 1.05476
-0.358546 0.297095 1.03559
2.6772 -1.17317 0.472242
3.09763 -1.28722 0.399929
-0.105668 0.104535 1.00981
1.98621 -1.01202 0.620811
-1.1672 0.387297 1.24683
-0.23055 0.127861 1.08278
-1.30403 0.429314 1.28948
-1.76597 0.342406 1.36879
0.921675 -0.412957 0.901178
1.45352 -0.852845 0.783646
1.27814 -0.311304 0.908858
2.05766 -1.00063 0.727632
-1.11917 0.364312 1.40417
2.16441 -1.03832 0.744886
3.17143 -1.3198 0.566531
2.75252 -1.21101 0.744013
1.7697 -0.94674 0.940234
2.52544 -1.13097 0.793964
1.88965 -0.979792 0.951145
2.25681 -1.04329 0.908237
1.93164 -0.974966 0.999575
1.96619 -1.01298 1.03443
2.65717 -1.18099 0.916901
1.97347 -1.01813 1.08945
0.376521 0.231315 1.54088
0.723714 0.13537 1.49708
1.71706 -0.141441 1.28303
1.96779 -0.998561 1.20268
1.65528 -0.929843 1.27574
0.630681 0.157041 1.57465
1.87808 -0.988339 1.26052
3.01887 -1.28806 1.0183
2.72552 -1.23314 1.08951
0.625088 0.154921 1.64366
1.17962 0.00760329 1.53813
1.85264 -0.980166 1.33785
2.52035 -1.15364 1.20693
0.406631 0.214409 1.7614
1.23005 -0.016231 1.59813
1.99857 -1.01256 1.43505
1.86992 -0.995631 1.4825
1.91949 -1.00961 1.47153
2.86262 -1.24817 1.2503
2.13271 -1.07539 1.45232
2.15529 -1.07376 1.45837
2.75447 -1.22755 1.32688
3.3594 -1.39033 1.18269
2.78319 -1.24666 1.33481
2.04608 -1.0311 1.52941
2.85804 -1.26338 1.33379
2.21655 -1.08859 1.52317
2.18093 -1.08395 1.54563
2.25463 -1.09159 1.52758
2.26242 -1.10011 1.53917
2.52495 -1.16507 1.47473
2.4559 -1.15067 1.52737
2.40805 -1.13422 1.54503
2.40093 -1.13172 1.56439
1.72756 -0.951431 1.77087
1.45428 -0.0622844 1.90842
3.19051 -1.35819 1.43563
2.77377 -1.25738 1.55571
0.367185 2.01956 2.28616
0.694254 1.92965 2.25426
3.14114 -1.33924 1.57865
1.86799 -1.00003 1.96637
0.602492 1.94589 2.39606
1.38918 -0.0566462 2.15284
1.40196 -0.0509925 2.17069
0.306557 2.03406 2.54626
1.36599 -0.0585513 2.23097
2.86672 -1.2688 1.796
0.831599 1.88816 2.42108
1.1909 1.60149 2.34713
3.33198 -1.4043 1.72996
0.574145 1.95188 2.57614
1.2768 0.00188643 2.44132
1.27094 1.4827 2.44885
1.29745 1.42144 2.44442
1.30781 0.0425801 2.53567
2.74033 -1.1139 2.1524
2.75698 -1.11577 2.16356
1.17973 1.85756 2.68045
3.48336 -1.31343 2.26147
2.39692 -0.96822 -2.85094
2.39189 -0.969926 -2.83527
2.37756 -0.977029 -2.59341
0.282744 -0.356807 -2.67542
1.02016 -0.587857 -2.61328
1.41336 -0.69885 -2.57038
0.557151 -0.457774 -2.5543
-0.295181 -0.214654 -2.58659
0.634968 -0.486007 -2.51605
-1.46765 0.231524 -2.60739
1.88037 -0.840683 -2.37065
1.98221 -0.862585 -2.32354
0.0995964 -0.332045 -2.42898
-2.14553 0.319302 -2.52558
1.32609 -0.68963 -2.32939
-0.162909 -0.27035 -2.40915
0.00638972 -0.310733 -2.36454
-2.19016 0.324455 -2.47114
-2.3755 0.389475 -2.47518
-2.40352 0.381334 -2.44785
1.85362 -0.836673 -2.22745
-0.553839 0.407151 -1.93785
2.73797 -1.09307 -1.98277
-3.17619 0.607741 -2.17974
0.358913 -0.410612 -2.02981
0.385035 -0.421869 -2.00903
1.12263 -0.660612 -1.98588
0.418749 -0.429219 -1.99335
0.360594 -0.40986 -1.98657
2.12419 -0.927898 -1.92297
1.98535 -0.895713 -1.90327
0.72405 -0.545566 -1.90398
0.640808 -0.509968 -1.89736
0.456763 -0.460205 -1.83102
0.426383 -0.451368 -1.82722
1.93603 -0.888925 -1.7539
0.619272 -0.509327 -1.77008
0.923519 -0.608128 -1.76258
0.284601 -0.413255 -1.76289
-3.21491 0.600193 -1.76484
0.0237057 -0.0286894 -1.62928
0.416964 -0.457092 -1.68554
-3.43269 0.652506 -1.69683
-0.681934 0.703731 -1.43523
1.50032 -0.758414 -1.62599
1.47593 -0.762575 -1.60552
0.124414 -0.369895 -1.59009
0.0832184 -0.358976 -1.58356
2.28296 -0.983255 -1.5276
2.38468 -1.01815 -1.49268
0.745844 -0.572918 -1.40998
1.39932 -0.757043 -1.34527
1.20715 -0.703928 -1.28734
0.742986 -0.575749 -1.22345
0.748791 -0.574295 -1.20556
-0.186206 0.41761 -0.977389
2.00207 -0.929421 -1.16265
-0.335517 0.467658 -0.884046
1.74174 -0.85993 -1.07618
-0.356752 0.442553 -0.80308
0.970883 -0.636844 -1.00517
1.08881 -0.688089 -0.954722
1.94179 -0.917444 -0.991655
-1.54824 0.752811 -0.593744
0.661677 -0.565092 -0.853629
1.98146 -0.925185 -0.891234
2.37409 -1.04673 -0.881822
2.44288 -1.06885 -0.816601
0.861113 -0.620084 -0.581593
0.858551 -0.616922 -0.562161
0.420577 -0.496706 -0.513942
-0.713754 0.325675 -0.315113
-1.02135 0.413341 -0.275887
-0.0174174 -0.0312872 -0.291218
1.15779 -0.70642 -0.407101
1.20273 -0.747189 -0.392403
1.49828 -0.819639 -0.410027
1.00214 -0.661314 -0.361574
0.0627984 -0.101926 -0.213593
-0.0561667 -0.0676408 -0.19777
-1.13788 0.429536 -0.0566422
0.259538 -0.144596 -0.0470138
3.12693 -1.26864 -0.380408
1.7635 -0.898154 -0.224289
-1.04353 0.353763 0.153538
-0.149391 0.178763 0.214771
0.392475 -0.223846 0.145137
1.77623 -0.904659 -0.0507303
2.82351 -1.19599 -0.159555
2.69385 -1.16429 -0.103732
0.405774 -0.221297 0.29291
1.48075 -0.829888 0.117974
2.75639 -1.2069 -0.0435571
-1.8964 0.414986 0.626868
1.95229 -0.963398 0.112532
1.59739 -0.859075 0.19777
-1.94039 0.429515 0.751395
-0.285541 0.175088 0.556792
0.0691489 -0.135192 0.528801
3.13696 -1.28824 0.150697
3.19909 -1.30547 0.152075
2.17782 -1.02916 0.360979
0.434281 -0.153304 0.688876
2.14987 -1.0407 0.377458
-0.530739 0.46384 0.922182
2.38309 -1.1118 0.366859
-1.15105 0.388408 0.99744
1.92377 -0.977356 0.446565
2.32347 -1.08704 0.390644
2.37066 -1.1002 0.39229
-1.10133 0.382328 1.01436
-1.7327 0.366416 1.0958
-0.492562 0.47072 0.975043
2.34707 -1.09248 0.416466
2.32581 -1.07708 0.497353
2.56107 -1.13754 0.459627
2.42768 -1.09979 0.519566
-0.275687 0.27237 1.06919
-0.433847 0.417805 1.11651
0.0453334 0.0481314 1.0211
1.22356 -0.332297 0.820435
-0.714518 0.430764 1.20813
0.222507 -0.198675 1.00825
1.42074 -0.835803 0.760074
1.59044 -0.881362 0.733887
1.25982 -0.33045 0.844808
0.190233 -0.184473 1.01792
2.09784 -1.0256 0.649014
2.85986 -1.22363 0.526657
1.6878 -0.933884 0.731578
3.11128 -1.29603 0.507124
2.0519 -0.998058 0.746013
-1.1642 0.37869 1.39903
3.25198 -1.33642 0.530725
1.76359 -0.931051 0.845989
3.05431 -1.28065 0.629312
3.29417 -1.34711 0.584575
1.92653 -0.973658 0.885514
1.60331 -0.886854 0.957681
2.65444 -1.20388 0.812823
2.89486 -1.24398 0.803188
-0.0241759 0.348631 1.59205
-0.41372 0.458301 1.69754
0.197344 0.278572 1.63099
1.27189 -0.0221921 1.4837
1.06199 0.034987 1.54761
2.69367 -1.19973 1.18829
2.03409 -1.01474 1.44835
2.89404 -1.26537 1.24545
2.37751 -1.12278 1.37891
1.89391 -0.996989 1.5042
2.52514 -1.17883 1.3786
2.12174 -1.06722 1.49483
2.7682 -1.23992 1.35663
2.26991 -1.09774 1.59265
1.97401 -1.03174 1.70629
2.01789 -1.04993 1.70304
2.07895 -1.06888 1.69266
2.13329 -1.09042 1.67897
1.98487 -1.04448 1.71936
1.96504 -1.03927 1.74681
3.03107 -1.32139 1.49394
1.90942 -1.0101 1.90757
2.20227 -1.08873 1.87015
1.58781 -0.111035 2.10169
1.67917 -0.141667 2.10657
3.17616 -1.36243 1.73123
1.26783 1.4395 2.31483
1.20011 1.59193 2.3612
1.32802 1.35329 2.33163
3.33977 -1.40616 1.74517
2.72393 -1.24948 1.9517
2.94299 -1.30464 1.92008
2.97159 -1.31081 1.91456
2.98195 -1.30997 1.92777
3.63078 -2.07353 1.75987
1.99822 -0.914348 2.30064
2.71438 -1.10851 2.15091
2.72676 -1.10789 2.1631
1.46482 0.604991 2.62729
1.14869 1.86689 2.71828
3.48272 -1.28049 2.07192
1.45904 -0.733515 -2.37715
1.42167 -0.727263 -2.36558
-2.10355 0.302554 -2.52917
2.5328 -1.02706 -2.2548
0.915071 -0.58405 -2.3303
-3.90193 0.810792 -2.529
-2.9718 0.553348 -2.45981
-2.71384 0.473071 -2.37668
0.606787 -0.490827 -2.18951
2.03454 -0.903283 -2.12659
1.97646 -0.882865 -2.11236
-1.57707 0.808082 -1.99436
-1.69378 0.851989 -1.98876
-1.64836 0.816061 -1.96103
1.71585 -0.814556 -1.96344
