-1.87203 0.282664 -0.38069
-2.36517 0.418963 -0.425999
0.766752 0.159982 -0.146465
-1.802 0.23926 -0.433397
1.59434 -0.83139 -0.432984
-1.32766 0.0870772 -0.730711
-1.4661 0.112854 -0.757775
-1.32514 0.0831986 -0.764614
1.53044 -0.823059 -0.805119
1.77679 -0.898174 -0.860049
-0.127963 2.43714 3.79128
-0.247296 2.48318 3.59119
-2.01066 1.22157 3.69563
0.290446 2.20149 3.36718
-2.72057 0.659401 3.63764
-0.732427 2.14081 3.31099
0.489896 2.15134 3.2916
-0.35897 2.34096 3.17956
-2.91559 0.613017 3.34768
-3.4542 0.764262 3.30807
-3.42758 0.766518 3.31
-2.00154 1.14956 3.17083
-3.3497 0.724062 3.20015
-2.92805 0.587444 3.0274
-2.72475 0.551716 2.99548
-2.76711 0.548903 2.97595
-3.6897 0.882243 2.87484
-3.16534 0.689743 2.81483
-1.29777 0.898046 2.69446
-2.81572 0.53542 2.58526
-2.82313 0.561909 2.55794
-3.32782 0.720415 2.53918
0.465003 0.335045 2.58901
-1.06923 0.830617 2.53755
-0.499793 0.651468 2.51555
-3.61008 0.852866 2.4409
-0.548718 0.662873 2.48837
-3.17724 0.666788 2.41298
-0.378968 0.471157 2.39018
-3.9291 0.929356 2.25368
-4.03063 0.949446 2.2435
-2.73881 0.546704 2.2072
-3.31719 0.72118 2.16305
-3.64711 0.837911 2.13812
-3.11521 0.667732 2.10895
-1.97697 0.783712 2.13047
-0.502936 0.339127 1.90711
-0.140609 0.323597 1.93481
-3.04972 0.651562 1.81915
-0.248454 0.277434 1.90323
-0.327113 0.25666 1.90092
0.0879527 0.463132 1.89209
0.737442 -0.049613 1.89939
0.578282 -0.00387378 1.83349
-1.13407 0.466389 1.66606
0.0319511 0.398415 1.66959
-3.22526 0.67982 1.47978
0.0355655 0.150085 1.55641
-1.13674 0.347005 1.48742
-2.50965 0.469992 1.40153
-0.653386 0.357033 1.40688
-0.635077 0.382204 1.37211
-0.600924 0.360076 1.38807
-2.87557 0.581002 1.26016
0.604903 0.00496488 1.39876
-3.61536 0.794611 1.14177
-2.76988 0.514026 1.0977
-3.16402 0.665816 1.07272
-3.9039 0.910807 1.06125
-2.48908 0.481744 1.0893
-1.05682 0.296052 1.15605
-3.88671 0.905265 1.02867
0.653859 -0.0152263 1.14975
-2.44484 0.440949 0.79961
-1.97829 0.28361 0.830115
0.547788 0.0792037 0.961092
-2.13001 0.353421 0.754399
-1.90424 0.265857 0.785139
-3.74501 0.860856 0.670184
-1.72321 0.20513 0.545772
-2.5275 0.449857 0.497703
-2.9834 0.602776 0.471129
1.11236 -0.330405 0.632792
-3.04514 0.625128 0.455948
-0.888404 0.298227 0.545592
-0.890902 0.252018 0.488745
-0.161517 0.250186 0.518613
1.0917 -0.330168 0.483658
-3.72191 0.855944 0.209772
-1.75792 0.218349 0.28152
-0.0314626 0.177547 0.436125
-1.88281 0.264044 0.209867
-2.45138 0.456603 0.111518
-3.02975 0.623825 0.0458321
-1.16159 0.533856 0.164039
-2.30017 0.392264 0.0198826
-0.138249 0.233676 0.110919
-2.21673 0.352132 -0.0771768
-3.56372 0.810323 -0.178443
-2.00104 0.270619 -0.26583
-0.000384234 0.17238 -0.0625892
-3.30723 0.724354 -0.319514
-0.382047 0.490648 -0.151433
0.892395 0.110252 -0.19559
-2.92982 0.577245 -0.500809
-1.59899 0.180966 -0.575159
-1.2943 0.0537177 -0.619808
0.503245 2.24248 3.77935
-2.14183 1.77173 3.77703
-2.10293 1.265 3.69681
0.913585 2.03175 3.41674
-1.80412 1.10585 3.50633
-2.61621 0.546454 3.58186
-0.129683 2.35613 3.17788
-0.133973 2.35327 3.17171
-1.65343 1.01761 3.41947
-1.89424 1.10482 3.31997
-3.39723 0.76404 3.27196
0.932136 2.03383 3.05681
-2.79723 0.577311 3.17994
-2.82656 0.543455 3.01465
-3.05557 0.638362 2.80671
-3.07811 0.65934 2.80337
-0.694739 0.720089 2.62132
-0.26802 0.564591 2.63415
-0.436397 0.628492 2.48905
-2.75484 0.550979 2.4093
-2.7493 0.535546 2.2391
-3.57243 0.808214 2.11006
-1.98436 0.754194 1.99571
0.677521 -0.0476636 1.93282
0.302596 0.260287 1.93363
-0.0596932 0.372953 1.92978
0.00889311 0.449324 1.81974
-1.53175 0.470778 1.70073
-1.28875 0.398041 1.58768
0.704751 -0.0294189 1.65133
0.112332 0.28722 1.59778
-1.07796 0.358937 1.48857
-2.70883 0.524115 1.28808
-3.56192 0.803508 1.1371
-3.79761 0.859737 1.09058
-3.41638 0.753729 1.0809
-1.25604 0.346729 1.16144
-2.6604 0.512574 1.06428
-3.54801 0.791147 1.0206
1.12862 -0.335963 0.92101
-0.173905 0.1686 0.864761
-1.13899 0.373476 0.73523
0.424993 0.207593 0.823075
-3.13774 0.669835 0.323568
-1.9298 0.273265 0.242632
-1.07921 0.392601 0.273883
-0.069455 0.208102 0.151151
-2.45417 0.429437 -0.0309052
-2.09332 0.348869 -0.0781972
0.557534 0.177737 0.128188
0.105241 0.264885 0.0671203
-2.48166 0.435177 -0.261038
-3.19969 0.674764 -0.328065
-0.329221 0.4949 -0.0577884
-3.69055 0.856867 -0.377578
-1.68845 0.212773 -0.326436
-0.0686177 0.378153 -0.445344
1.56221 -0.815876 -1.1635
-2.33191 1.83391 3.78753
-0.568818 2.23091 3.40488
-1.75129 1.06091 3.50728
-0.761231 2.11226 3.1399
-1.69121 1.08812 3.18547
-1.90283 1.07969 3.13742
-3.68352 0.856287 3.09951
-3.82455 0.898934 3.05606
-2.86232 0.610373 3.00286
-1.8473 1.08162 2.73934
-2.79174 0.545394 2.78608
-1.47294 0.965564 2.43982
-1.54273 0.97543 2.44433
-2.68581 0.522719 2.43932
-2.74951 0.566619 2.41277
-0.328294 0.297256 2.15521
-3.46943 0.76654 2.03929
-2.55498 0.476535 1.81989
0.632331 -0.00716968 1.94106
-3.15667 0.651525 1.76506
-2.47179 0.456436 1.79026
-2.46734 0.471076 1.80265
-2.77604 0.541575 1.21475
-2.55242 0.435901 1.07893
0.58513 0.0322028 1.10821
0.532659 0.0581313 1.06276
-1.18685 0.328146 0.912467
1.10979 -0.375086 0.903356
0.318244 0.124689 0.821437
-2.80968 0.52567 0.283409
-1.6717 0.182038 0.282827
0.36231 0.0780659 0.187946
-3.32566 0.689836 -0.421491
-3.54211 0.771155 -0.415847
1.75646 -0.882894 -0.652106
-2.30639 1.89356 3.81275
0.565969 0.308556 2.70204
-2.6426 0.488694 2.31435
-1.9701 0.783101 2.01767
-0.484898 0.329588 1.93961
-0.17845 0.303557 1.96272
-2.57962 0.505639 1.73943
-2.6705 0.485472 1.46683
-1.1821 0.363851 1.51948
-2.68152 0.532275 1.40061
0.504302 0.19864 0.806582
0.547668 0.170119 0.289578
1.37173 -0.178494 0.0175254
0.66159 0.201771 -0.101943
-2.56472 0.483896 -0.41762
-3.46777 0.749022 -0.458737
-0.890824 0.520698 -0.311007
-1.79855 1.0873 3.00102
-3.27525 0.718723 2.83278
-0.706145 0.583086 2.35742
-0.294068 0.492294 2.34386
0.317288 0.182286 1.93558
-0.171035 0.302542 1.84608
-0.575122 0.353017 1.66524
-3.34142 0.740037 0.763232
-0.0999459 0.0103903 0.672563
1.21762 -0.326511 0.696514
-0.00394716 0.0467425 0.643364
0.286832 0.083519 0.428023
-0.113194 0.200006 0.270543
-1.19149 0.543425 0.21722
-2.16948 0.382871 0.0376918
-1.18145 0.588324 -0.0151977
0.607852 0.280759 -0.150044
1.03986 -0.146616 -0.324415
2.03523 -0.980297 -0.781778
-2.88727 0.574992 3.03674
-0.166497 0.525994 2.46434
-1.94065 0.953 2.36976
-0.603625 0.35858 1.53772
-2.67095 0.517381 1.43864
0.226894 0.149325 1.36315
-1.83219 0.231795 0.51819
-1.28934 0.630852 0.0377907
-0.755807 0.460821 -0.169965
-2.74465 0.566729 -0.358155
0.88938 0.252554 -0.713774
-0.634746 0.575059 2.39613
-1.00259 0.325872 1.7308
-2.5399 0.49162 1.6604
-2.50563 0.509726 1.59966
-0.969872 0.308017 0.702673
-3.26257 0.692432 0.452139
-0.697032 0.541489 -0.173541
1.14275 0.223613 -0.765782
-1.89624 0.718215 1.96252
-0.552707 0.369552 1.87465
-0.475558 0.230116 1.46998
-0.722259 0.358819 0.848667
-0.42154 2.27144 3.38444
-0.549043 0.32985 2.09698
-0.0173921 0.121379 1.14003
-0.418382 0.507978 -0.0536957
0.0710441 0.224919 2.01038
0.0959521 0.314384 -0.434338
-1.74519 0.22504 -0.429627
-2.86778 0.564441 -0.408679
-2.91583 0.597028 -0.409925
-3.53399 0.78015 -0.381929
-0.401517 0.53658 -0.111961
-3.58259 0.802517 -0.197405
-3.81529 0.874482 -0.16283
-2.51594 0.457377 -0.0376747
-2.38136 0.414282 -0.0696692
-2.37657 0.369547 -0.0682142
-2.43615 0.43344 -0.0365853
-2.09254 0.321787 0.23277
-3.16318 0.670948 0.27081
-1.77949 0.219311 0.244097
-3.34329 0.710621 0.274974
0.159364 0.124889 0.417795
0.242431 0.107886 0.433413
0.0176784 0.168969 0.441647
-1.80209 0.271508 0.507439
-1.90131 0.240152 0.532231
0.385818 0.189487 0.835073
-2.53441 0.474326 0.79495
-1.90503 0.282045 0.772825
-3.43684 0.767667 0.851145
-2.96202 0.617301 1.07494
-3.48358 0.768669 1.23857
-3.28082 0.692038 1.24273
-0.417754 0.328946 1.37014
-2.77811 0.503475 1.45076
-0.397843 0.305361 1.64898
-1.11909 0.432846 1.65761
-0.881789 0.251728 1.71244
-2.85947 0.587225 1.87472
-3.60257 0.821879 1.95807
-2.97349 0.628261 1.97909
-1.84363 0.763989 2.00415
-3.28881 0.731973 2.00403
-0.500154 0.322278 2.05681
-3.11814 0.627831 2.05423
-3.13696 0.664759 2.09669
-3.08047 0.64888 2.24996
-3.4794 0.792358 2.28738
-3.18561 0.68714 2.41702
-1.65893 1.01605 2.49106
-1.39437 0.921508 2.52844
-2.8625 0.582652 2.59457
-3.33859 0.74415 2.60726
-3.57622 0.804657 2.59065
0.626445 0.288046 2.5963
-0.770293 0.733409 2.59962
-0.772487 0.724768 2.5958
-0.260032 0.548312 2.64283
0.573182 0.287727 2.70591
-1.29732 0.881681 2.69036
-1.91207 1.09741 2.70359
-2.92909 0.606421 2.76028
-3.6905 0.845647 2.79174
-3.25691 0.716399 3.03007
-3.25092 0.710756 3.04039
-2.97658 0.582966 3.04725
-3.64637 0.844173 3.28879
-3.48351 0.78136 3.35445
0.395215 2.20304 3.04342
0.656318 2.1024 3.27208
0.604896 2.12097 3.25746
-1.97898 1.25458 3.60686
-0.390939 0.488318 -0.000613916
-3.26095 0.69983 0.24844
-3.08673 0.641967 0.258269
-0.293157 0.268831 0.432459
-0.204331 0.231115 0.552237
0.297813 0.083972 0.530293
-0.202811 0.223773 0.55737
0.445989 0.189412 0.822448
-1.96324 0.929277 1.22846
1.12613 -0.348608 1.25289
-2.71526 0.511383 1.42865
-1.14884 0.340031 1.47574
0.0582381 0.110549 1.46588
-2.77161 0.506647 1.61822
-2.65503 0.499553 1.75561
-2.60471 0.502792 1.81444
-2.61336 0.510865 1.83638
-3.21343 0.685474 1.84705
-0.267262 0.277874 1.94047
-0.903773 0.235356 1.95964
-0.20588 0.316422 2.05523
-1.96171 0.786982 2.04785
-3.63328 0.832151 2.12591
-2.64802 0.505817 2.20254
-3.05867 0.649561 2.40246
-2.04306 1.13529 2.46318
-1.09647 0.841536 2.50284
0.783822 0.243981 2.48516
-2.87191 0.578362 2.56892
-0.818089 0.737718 2.60215
-0.868485 0.774386 2.59182
0.380307 0.381542 2.63559
0.586492 0.301739 2.70722
-2.9775 0.601626 2.77739
-2.87379 0.586836 3.00473
-2.88677 0.553913 3.05291
-1.97206 1.13065 3.03693
-3.17357 0.673937 3.23484
-3.38689 0.76161 3.27566
-1.89788 1.09035 3.33314
-1.75338 1.06365 3.40887
0.183686 2.24412 3.19545
0.714583 2.07749 3.26804
-3.11678 0.833557 3.76478
0.869133 0.276247 -0.675941
-0.529599 0.525004 -0.419204
-2.25406 0.35531 -0.426521
-2.17294 0.333968 -0.407399
-0.483397 0.548328 -0.088553
-1.92403 0.290874 -0.247271
-0.105325 0.227173 0.147985
-0.0773438 0.200086 0.161626
0.0631057 0.176942 0.226883
-1.07844 0.363081 1.05241
0.682385 -0.0262031 1.15359
-2.70254 0.525677 1.20635
-2.69629 0.527944 1.38931
-2.92619 0.579401 1.46927
-2.47885 0.449033 1.78006
-2.45908 0.452713 1.78669
-2.47982 0.439407 1.82633
-2.7957 0.571321 1.86268
0.394178 0.188707 1.92688
-0.26098 0.37497 1.96592
-1.94593 0.774842 1.99546
-1.91294 0.858405 2.2666
-0.841454 0.525437 2.3652
-3.46558 0.789902 2.45118
-0.0230187 0.493225 2.45876
0.41294 0.34782 2.4625
-2.77503 0.550035 2.55057
-2.83159 0.550693 3.01984
-1.69632 1.05315 3.157
0.0897666 2.28955 3.02887
0.29606 2.22638 3.24112
-2.3162 0.370021 -0.408691
-0.865512 0.458468 -0.225577
-1.22461 0.369955 1.30461
-1.12079 0.376879 1.52289
-2.55851 0.493783 1.76176
-3.15927 0.660446 1.85356
-2.68808 0.525778 1.86605
-2.94492 0.590273 2.43026
0.370669 0.384072 2.49487
-2.89297 0.596304 2.80261
-3.0306 0.775025 3.699
-1.17158 0.560773 0.207351
-1.17308 0.430985 0.717533
-3.01071 0.585587 1.21295
-2.55623 0.491619 1.74705
-1.93449 0.770445 2.0246
-2.77476 0.559123 2.39372
-1.39161 0.946474 2.62906
-2.90727 0.635534 2.76523
-3.04916 0.619032 3.09602
-1.92148 1.18357 3.5563
-0.32252 2.35312 3.49655
0.674472 0.125785 0.0823156
-2.96388 0.592624 1.8184
-1.94499 0.795395 2.17036
-0.15832 0.532027 2.4478
-2.98651 0.605649 2.56042
-2.89909 0.605145 3.02223
-3.20454 0.712058 3.54827
-2.98863 0.635569 1.45902
-1.17141 0.347976 1.76467
-2.85035 0.558881 2.18962
-2.56668 0.493367 1.48788
-2.78606 0.549463 1.58065
-1.29034 0.338525 1.82028
0.80295 0.248611 2.41609
-3.54929 0.763432 -0.416362
-3.72209 0.831346 -0.0394206
-1.52882 0.158546 -0.665172
-2.66325 0.520721 0.489213
-3.81028 0.879515 1.10665
-3.2825 0.70142 1.07148
-3.5576 0.811155 1.23327
-2.08902 0.330964 0.771818
-1.09523 0.330289 0.763331
0.00250921 0.112442 0.426067
0.117374 0.130899 0.417889
0.313371 0.0882922 0.542975
-3.6577 0.840746 1.82476
-2.48544 0.439734 1.42707
-3.67158 0.831435 1.86862
-3.32978 0.716266 1.81185
0.376632 0.183139 0.826049
-1.32734 0.380395 1.33087
-2.63872 0.508637 1.84992
-2.97988 0.637715 1.95654
-3.07768 0.652707 2.11291
-1.11489 0.457615 1.61538
-3.25197 0.68819 2.27091
-3.98359 0.951678 2.59003
-3.3508 0.75164 2.39785
-3.87954 0.938982 2.58426
-3.34652 0.72211 2.41066
-2.77074 0.549549 2.25003
-3.22215 0.69135 2.55096
0.0554744 0.136172 1.53021
-0.461224 0.317764 1.76438
-2.61214 0.504438 2.42679
-3.41005 0.781538 2.76539
-1.00137 0.272413 2.0165
-2.78827 0.569122 2.55606
-2.69712 0.509336 2.56366
-3.84519 0.902517 2.99506
-2.98414 0.622502 2.69361
-3.84394 0.895559 3.05017
-0.0446691 0.412225 1.86309
-3.82837 0.895781 3.04985
-3.11464 0.667928 2.81195
0.168824 0.437362 1.80715
-2.95486 0.606813 2.76553
-1.75063 1.02386 2.52701
-3.06432 0.635704 3.03904
-2.93933 0.579919 3.05506
-2.89781 0.580614 3.04916
-3.01123 0.646442 3.31792
-1.70827 1.07977 3.1576
-0.357657 2.33755 3.32334
0.802301 2.05902 3.2849
-0.128985 2.45302 3.79003
-2.94337 0.563223 -0.5014
-2.82284 0.561388 -0.406694
-2.15878 0.339535 -0.100689
-1.90388 0.304004 -0.0411072
-0.343175 0.497635 -0.0589058
1.47477 -0.780327 -0.808154
0.0483123 0.206056 0.00694508
-0.941506 0.279177 0.368889
0.338315 0.0817042 0.187275
0.0125476 0.185163 0.383851
-2.75184 0.546005 1.24174
-1.94858 0.969945 1.23872
-3.14964 0.688863 1.85921
-0.39708 0.327188 1.14198
-2.49421 0.48453 1.81526
-3.16484 0.665335 2.07579
-3.42761 0.783046 2.43111
1.1095 -0.326475 0.947722
-2.68388 0.505974 2.29528
-2.71346 0.514993 2.32447
-2.93673 0.590793 2.58625
-2.90701 0.579818 2.56511
-2.82374 0.582861 2.55605
-3.16786 0.679695 2.77422
-0.0353822 0.338264 1.95997
-0.741328 0.456252 2.2239
-3.66834 0.829502 3.29538
-3.63615 0.864522 3.2895
-2.77888 0.565531 3.01107
-1.696 1.01712 2.76303
-1.84212 1.10677 3.0589
-3.31312 0.700813 3.51021
-0.30664 0.69472 2.77903
0.837005 0.218665 2.46857
0.727061 0.241453 2.52778
-2.15734 1.23914 3.53901
-1.74505 1.06774 3.42601
0.913321 2.02784 3.05032
-0.553557 0.483569 -0.233576
-1.84107 0.273573 -0.0405412
0.00721846 0.204281 0.0435068
0.832252 0.14428 -0.145572
-2.99428 0.626746 1.56606
0.425006 0.14166 0.753025
-2.48555 0.467782 1.77861
-2.72699 0.549243 2.42606
-2.99078 0.634446 2.5763
0.0233317 0.29271 1.95909
-0.664142 0.490828 2.23252
-1.01624 0.811381 2.4909
-2.81986 0.573255 3.00932
-0.55948 2.22912 3.39699
-1.97295 0.280307 -0.481414
-1.97585 0.274002 -0.446779
-2.024 0.322286 -0.293101
-2.51946 0.476184 0.0829601
0.674971 0.153255 0.0497331
0.590257 0.177188 0.0739135
0.0929786 0.142322 0.402088
-2.54382 0.463138 1.44419
-1.1381 0.315018 1.32965
-2.62588 0.507364 1.82868
-1.18037 0.351954 1.49225
-2.05196 0.889294 2.21029
-0.632882 0.391831 2.1646
-0.66492 0.431507 2.25735
0.55668 0.315121 2.50648
0.643128 2.09902 3.4115
-3.14754 0.645557 1.59976
-2.68189 0.509972 1.78453
-2.56271 0.489388 1.75564
-1.97971 1.13513 2.45072
-0.0109014 0.368901 1.88462
1.08297 -0.381484 1.51654
-1.82684 1.0655 3.01797
-1.12799 0.359917 0.766517
-0.512534 0.332168 1.11698
-1.90818 1.0303 2.44196
-0.809464 0.454556 2.30082
-0.352408 0.264822 1.04067
-0.144835 2.37042 2.99642
1.37852 -0.233403 -0.0340996
-0.540217 0.347761 2.09562
-2.98824 0.617745 2.87074
-1.30569 0.515637 0.741977
0.418641 0.0259085 1.53677
0.578082 -0.0751886 1.9104
-2.2519 0.988796 2.6274
-3.88073 0.885928 0.835842
-3.11548 0.648496 0.285125
-3.84635 0.864233 0.853173
-3.11094 0.643259 0.28637
-2.03325 0.315827 0.791083
-3.7455 0.860019 2.25438
-3.89299 0.925667 2.58104
-3.56358 0.833091 2.35116
-3.17516 0.680995 2.10428
-0.15644 0.226827 0.466879
-0.0195092 0.184233 0.428573
1.50905 -0.801485 -0.9035
-2.67917 0.523818 2.37407
-2.62942 0.508043 2.42111
-2.69895 0.517707 2.56184
-0.446731 0.363779 1.07206
-3.25697 0.704754 3.03092
-3.3213 0.74719 3.16435
-2.78797 0.567272 2.99741
-1.51992 0.979217 2.63046
-1.49753 0.944186 2.67127
-1.48271 0.962689 2.66165
0.656514 0.0143853 1.11473
0.665738 -0.00213142 1.08816
-3.26015 0.690622 1.07221
-1.9807 0.286154 0.781984
-0.359822 0.482285 0.00699587
-3.55275 0.792323 2.14867
-2.58909 0.504228 1.43685
-3.3496 0.738193 2.08319
-3.86147 0.905621 3.02394
-0.0759286 0.203096 0.437431
-0.191213 0.241534 0.541767
0.339778 0.102469 0.209873
-1.0907 0.322072 1.33304
1.45214 -0.768307 -0.719715
-0.434905 0.316752 1.14529
-0.643613 0.380586 1.42414
-1.88371 1.0809 2.46439
-1.573 0.463066 2.04553
-0.140448 0.217067 1.06679
0.420467 0.211771 0.820836
-3.25881 0.76118 3.55638
-2.79942 0.550567 3.33067
-2.7654 0.53893 3.3193
-0.583836 0.364717 2.06872
-1.75441 1.07779 3.12726
-0.0833253 0.352546 1.91544
0.51571 0.00180154 1.56778
-1.6401 1.05162 3.36309
0.44774 0.113434 1.87034
0.714107 -0.0556135 1.92392
-3.21974 0.659932 1.57933
-0.282016 0.48802 -0.13573
-1.96762 0.317658 0.804949
-1.22186 0.360909 0.920516
-3.85396 0.90197 2.96758
-0.126985 0.229517 0.391905
-0.110392 0.159854 0.844767
-0.500337 0.332056 1.41597
-0.589406 0.355738 1.87786
-0.736726 0.562608 2.3573
-0.257756 0.307823 2.0526
0.693756 -0.0411815 1.36036
-2.16728 0.358666 -0.276462
-3.16778 0.679811 2.11451
-2.46119 0.449565 1.98565
-0.273208 0.281279 1.9575
0.662618 -0.048232 1.23855
0.497621 0.0329543 1.36418
-2.65819 0.520179 2.40982
-1.98208 1.08415 2.41501
1.13894 -0.388677 1.29936
-0.940595 0.436602 0.0697588
-1.7035 1.00758 2.54767
-0.738355 0.306898 0.89874
-0.0254163 0.177168 0.38207
-3.01752 0.661293 2.90119
-2.6971 0.519497 0.835573
-3.36435 0.763164 2.47104
-2.72257 0.54479 2.22627
-3.00993 0.620058 2.77683
-0.100604 0.228366 0.416539
0.345855 0.0762253 0.619309
0.194564 0.125894 1.30946
1.14116 -0.361144 1.49928
-3.73744 0.851473 0.220097
-3.40442 0.760877 0.267448
-3.37146 0.763924 2.06476
-2.62998 0.494554 1.82537
-2.67262 0.516921 2.2091
-1.09821 0.319798 1.31066
-1.85948 1.10571 3.35532
0.720649 0.169737 -0.127143
-0.11447 0.194743 1.04046
-0.435361 0.305904 1.89995
-0.448737 0.335293 1.92373
0.00203619 0.436293 1.80581
0.552171 0.0311881 1.39825
0.654304 -0.0321083 1.79505
0.725262 -0.0527648 1.66474
-3.60638 0.81637 2.20053
-3.82523 0.89226 2.93142
-3.40793 0.767918 2.46738
-3.38154 0.758522 2.50612
-1.54532 0.973087 2.63275
0.0593329 0.193734 0.787768
-0.141976 0.239054 1.11391
-0.570626 0.356875 1.88755
0.551841 0.322814 2.46195
-0.148333 0.235685 1.07213
-2.05782 0.882752 1.17527
-2.66283 0.514713 2.42205
0.578525 0.00996976 1.93026
-3.72236 0.784382 -0.0668099
-1.19306 0.572908 0.544512
-1.76667 1.06587 3.17675
-2.09837 0.854823 2.13893
-0.269689 0.18328 1.79836
-0.168332 0.123971 1.59032
-3.702 0.832927 -0.159997
-3.29474 0.724638 0.0204393
-3.3509 0.758429 2.45824
-2.45008 0.443637 -0.00498937
-2.66976 0.533035 2.18566
-2.6671 0.508222 2.14948
-1.91214 0.24674 -0.440513
-2.74143 0.666006 3.63019
-1.55944 0.97848 2.5677
-0.52579 0.330543 1.2818
-0.191218 0.232996 0.220014
-0.206929 0.246213 0.517977
0.214027 2.25389 3.19977
0.661868 -0.00622458 1.34886
-3.73296 0.866901 0.173737
-3.5995 0.807966 2.15417
-3.55094 0.822388 2.40451
-3.19748 0.657945 1.80045
-1.33904 0.11025 -0.663838
-1.76983 1.05374 3.21744
-1.38365 0.391069 1.34968
-1.19656 0.329533 1.93811
-0.553426 0.348569 1.34793
-0.569219 0.337256 1.95244
-0.527472 0.330832 1.80175
-0.451754 0.303816 1.88195
0.133485 0.152252 0.809144
0.400634 0.0981369 2.10168
0.545196 -0.00389476 1.94718
0.665641 -0.0348835 1.8726
-3.57226 0.811525 2.14413
-2.42174 0.443901 0.0070066
-2.14941 0.341908 -0.250063
-0.530009 0.340384 1.41541
-0.459609 0.329001 1.39639
-0.578193 0.369793 1.89182
-0.376828 0.297518 1.61334
-0.37769 0.289298 1.876
0.078519 0.484034 2.43634
0.655198 -0.0288496 1.21076
-0.287991 0.257587 0.589205
-0.523517 0.338738 1.97265
-0.480151 0.33732 2.02087
0.61719 0.00936608 1.1295
0.611907 -0.0219516 1.95144
0.620776 -0.021161 2.03422
-3.24154 0.722323 2.8833
-1.78604 1.0743 3.16937
-0.247817 0.481369 -0.191763
1.02879 -0.333514 0.88965
-3.5625 0.815878 -0.199316
-2.06665 1.12749 2.54989
-1.1874 0.52828 0.274154
-2.81031 0.568331 1.45249
-2.54756 0.474812 1.7348
-0.311303 2.42956 3.49461
-1.94302 0.879683 2.14261
1.56947 -0.276103 0.229531
-2.173 0.563431 1.53618
-3.59285 0.811222 2.20085
-3.35957 0.750383 2.20113
-3.30358 0.727314 -0.0309493
-3.31043 0.712611 0.0770857
-3.27061 0.684712 0.982022
-3.11489 0.660272 0.452686
-3.03813 0.625094 1.15374
-3.03365 0.653133 0.102371
-2.01228 1.14264 2.56345
-2.41608 0.43949 0.765833
-2.29288 0.391596 0.0883707
-2.29701 0.380549 0.143733
-2.11994 0.340652 -0.177297
-1.95142 0.282424 0.715842
-1.37429 0.388836 1.33811
0.00422964 0.341538 1.9215
0.63111 2.12951 3.17397
0.460984 0.026434 1.13693
0.605285 -0.0187034 1.39968
0.578898 -0.0256185 1.94172
1.01683 -0.116878 -0.0999317
1.72115 -0.862456 -1.11631
-3.7072 0.849228 -0.24011
-3.69825 0.835649 -0.223914
-3.48041 0.759209 1.22164
-3.302 0.737826 0.0030799
-3.08681 0.661346 0.284635
-2.76028 0.567023 2.89631
-2.03193 1.12971 2.5106
-2.17821 0.32721 -0.176499
-1.55075 0.991476 2.57372
-1.53116 0.960863 2.57007
-1.20446 0.339299 1.22665
-0.770638 0.577071 2.4201
-0.387668 0.288567 1.91507
-0.366702 0.287658 1.61505
1.741 -0.872172 -0.717259
-3.73404 0.851824 0.1742
-3.29627 0.704163 0.807708
-1.91831 1.13173 3.35376
-1.8727 1.10734 3.36105
-2.01555 0.812469 2.1403
-2.18982 0.346406 -0.0696721
-1.32171 0.0647593 -0.525058
-0.540921 0.350219 1.42746
-0.538657 0.357612 1.8711
-0.427327 0.522095 -0.139758
-0.485951 0.331358 0.706309
0.633964 0.234255 0.197243
0.587691 0.000243233 1.79972
0.567609 -0.00736136 1.41885
0.692576 0.0411988 0.709842
1.08685 -0.252235 1.60875
1.39512 -0.11827 -0.0708458
1.94278 -0.944222 -0.534886
-3.67714 0.865571 0.172346
-3.19242 0.669531 0.323844
-1.70601 1.01564 2.5482
-0.501256 0.553676 -0.0553102
-0.380649 0.497113 -0.0893445
-0.296508 0.277897 0.427231
0.56413 0.0619059 0.687845
0.674366 -0.0178823 1.47683
-1.92886 0.275305 0.696158
-0.261023 0.253427 0.550812
-0.239602 0.252032 0.548578
-1.58016 0.977217 2.57554
-1.29842 0.372273 1.64171
-0.241673 0.465118 -0.115895
0.754313 -0.0602893 2.00429
-2.03093 1.12237 2.72791
-2.01416 1.13647 2.56814
-3.42804 0.772363 2.04159
-2.5507 0.487895 1.75769
-2.06986 1.15219 2.68095
-1.99753 0.794683 1.73272
0.444139 0.0637513 1.24017
-0.764941 0.321151 0.892122
-0.318023 0.242488 0.832873
0.256341 0.197038 1.4645
-2.06003 1.18055 2.8918
-0.237136 0.173227 1.48208
0.267215 0.0513325 1.44926
-3.58235 0.805635 2.35428
-3.60865 0.820396 2.139
-3.87046 0.899345 1.03984
-3.70627 0.843681 0.233467
-3.14995 0.650741 0.502932
-3.30585 0.700965 0.0257894
-3.13874 0.660117 0.480528
-3.04413 0.617386 0.0609018
-2.56288 0.456106 -0.0862877
-2.29825 0.401001 0.124242
-2.30099 0.366611 0.0970928
-2.27821 0.380971 0.122139
-1.14563 0.442694 1.66427
-1.8774 0.246353 -0.430443
-1.91543 0.244755 -0.585166
-1.90429 0.241015 -0.629883
0.626361 2.13876 3.28425
0.634435 2.11176 3.24961
-0.00103273 0.352172 1.93557
0.956568 2.02307 3.07495
0.0887443 0.435057 1.71825
1.06511 1.96745 3.09599
0.047185 0.169381 0.832346
0.509494 0.0271121 1.36763
0.476968 0.179551 -0.482856
1.07447 -0.341171 1.52051
1.1224 -0.326879 0.705912
1.01075 -0.121166 -0.166265
1.70528 -0.871658 -1.11736
-3.54704 0.810179 2.19256
-3.40638 0.742337 2.2059
-3.50096 0.764495 1.18112
-3.43102 0.753696 0.508402
-2.80359 0.532479 1.51006
-3.03919 0.62673 0.102395
-2.30503 0.389859 0.154678
-1.94739 0.273483 0.784973
0.294122 2.21136 3.37326
-0.398618 0.460813 2.37676
-0.564086 0.348832 2.01694
-0.512074 0.32257 1.85314
-0.634753 0.364677 1.15052
-0.301013 0.266841 1.87222
-0.424283 0.504798 -0.0467908
0.388377 0.0960551 2.10151
0.519189 0.0176583 1.41459
0.490661 0.0510436 1.06535
0.566421 0.0672102 0.718087
-3.41296 0.786614 2.40745
-3.72115 0.834033 -0.184251
-3.27687 0.69317 0.831405
-2.00207 1.13438 2.57798
-2.61954 0.50649 1.66387
-2.7657 0.518245 0.860196
-2.44841 0.400091 0.0174167
-1.90027 0.261576 0.737366
-0.517863 0.335667 1.99031
-0.550736 0.343365 1.55126
0.589816 0.000694321 1.56543
0.566722 -0.000611259 1.39766
0.534226 0.193669 0.219392
-3.16692 0.675709 1.66468
-1.9755 0.269981 0.544703
0.548431 0.0107298 2.01444
0.694942 -0.0285759 1.97448
0.539523 0.0202742 1.22846
0.680599 -0.045371 1.63325
1.0796 -0.369326 1.10459
1.95222 -0.930076 -0.594285
2.16191 -1.00842 -1.16791
-3.85907 0.883509 0.964348
-1.91771 1.1215 3.05382
-2.00989 0.945166 1.33139
-0.515473 0.335955 1.25814
-0.00926103 0.17638 0.218726
1.03551 -0.366968 1.10044
-2.75216 0.555756 0.894319
-1.82307 0.813896 1.18562
-1.26571 0.413103 1.68863
-0.332942 0.289028 1.87738
0.773895 0.23948 2.55142
-0.657882 0.363439 1.1974
0.845977 -0.183867 1.08932
-1.51863 0.94448 2.5499
0.941048 -0.33009 1.17773
-0.505595 0.510567 0.112392
0.072568 0.278362 0.251347
0.0176536 0.103137 0.7499
-3.61764 0.819972 2.25553
-3.61702 0.833178 2.13669
-3.4903 0.766362 1.15297
-1.53037 0.978948 2.50888
-1.44051 0.939095 2.54503
-2.98677 0.582839 0.784984
-3.14653 0.635574 0.509836
-3.15215 0.669427 0.287212
-3.10964 0.632395 0.301845
-1.37249 0.408275 1.75252
-2.84792 0.569885 -0.460066
-2.80627 0.530989 -0.417877
-2.77098 0.519571 -0.427491
-1.89263 0.28332 0.790389
-1.08907 0.43137 1.61088
-0.421355 0.31225 2.06719
0.00695525 0.36407 1.89812
0.1181 0.320635 -0.441103
0.476833 0.201386 -0.499501
-2.01421 1.10669 2.5753
-1.5215 0.9717 2.52768
-2.71637 0.55189 1.39068
-1.35284 0.397737 1.77666
-1.00698 0.28132 2.0034
-1.93639 0.30275 0.79301
-1.9452 0.270033 0.728549
-2.49265 0.440759 -0.0786056
-1.08035 0.312776 1.47969
-2.39498 0.423276 -0.279168
-1.18349 0.324247 1.30337
-0.503245 0.327255 1.87993
-0.636752 0.364999 1.65398
-2.25561 0.363385 -0.487056
0.746899 -0.0618362 2.10912
0.547107 -0.00122352 1.6723
0.536204 0.0136099 1.3775
0.563602 -0.00596995 1.40291
0.265018 0.106514 0.141665
0.776558 0.178314 -0.129856
1.9337 -0.932173 -0.53382
-3.40611 0.749662 2.15865
-3.37536 0.745146 2.18772
-3.48553 0.755929 1.21461
-3.50676 0.766614 1.16508
-1.95512 1.0828 2.65828
-3.47291 0.761506 1.12354
-3.21639 0.6933 1.04402
-1.34111 0.900899 2.67025
0.140002 2.26254 3.119
0.201154 2.26049 3.19575
-3.15851 0.644351 -0.0900888
-1.82434 0.935117 1.24344
-1.9638 0.32067 0.549908
1.00464 1.99148 3.11888
-0.481236 0.325875 1.89409
-0.519458 0.333259 1.54294
0.285316 0.39247 2.57073
-0.54025 0.352633 1.39679
-0.493869 0.320928 1.39131
0.712288 0.266277 2.45287
0.759928 0.248735 2.54278
0.431018 0.0374909 1.1212
0.719065 -0.0389728 1.38683
1.43422 -0.764397 -0.66304
1.90461 -0.92835 -0.798218
-3.57245 0.774489 1.44031
-2.02557 1.11392 2.61176
-0.576987 0.335692 2.02176
-0.419993 0.306791 1.61295
0.186366 0.440821 1.80694
0.277274 0.322042 1.91465
0.754256 0.240155 2.50105
0.46136 0.0286656 1.36701
0.975632 -0.303851 1.78987
0.146361 0.308993 -0.377172
-3.63773 0.830411 2.14671
-3.50807 0.779056 2.19391
-3.55244 0.807798 2.09153
-3.32767 0.712601 0.902492
0.532189 2.14688 3.27122
-0.393586 0.333651 2.1148
-0.512042 0.326737 1.34484
-0.451234 0.529503 -0.089638
1.3667 -0.132937 -0.00491618
-1.74176 1.03924 3.40888
-3.46546 0.763549 1.16135
-1.26724 0.359526 1.11652
-0.906104 0.438356 -0.183198
0.601016 -0.00932403 1.85499
0.463992 0.0433455 1.14867
-1.56968 0.990942 2.55688
-0.203336 0.294775 0.129652
-0.0155858 0.198217 0.312529
-1.18072 0.466798 0.541704
-0.0688256 0.322598 1.77501
-0.0564279 0.23683 1.47716
0.419423 0.209586 -0.228358
0.544593 0.0213576 1.64807
0.533305 0.0149031 0.765367
1.12528 -0.354079 1.41009
-3.82559 0.894679 3.02862
-3.67171 0.83247 3.07412
-3.47193 0.803101 2.61702
-1.93194 1.10138 2.67685
-1.90245 1.08597 2.63402
0.219709 2.23294 3.25775
-3.80311 0.876304 1.10625
-1.50191 0.933226 2.47549
-1.27049 0.875053 2.6399
-3.19239 0.695535 1.46168
-3.47021 0.769973 1.16124
0.72026 2.10042 3.19694
-3.01218 0.616098 1.21599
-3.70772 0.844879 0.615609
-3.28728 0.69882 0.827343
-1.89186 0.972154 1.29755
-3.084 0.63283 0.35117
-3.17549 0.671758 0.287312
-2.68013 0.528404 0.507057
-2.72194 0.538642 0.474787
-2.67717 0.519667 0.496251
-2.05064 0.314813 0.808386
-1.96174 0.279979 0.67503
0.0344935 0.328686 1.91834
-2.88149 0.585337 -0.240257
-2.44599 0.428144 -0.0337415
-0.413888 0.307641 1.37281
-0.390967 0.313811 1.11432
-2.4462 0.400263 -0.380261
-2.26671 0.367089 -0.438233
-0.5241 0.52781 -0.427445
1.10152 -0.331968 0.690045
0.888467 0.176967 -0.164823
0.457448 0.204775 -0.518529
-3.29655 0.729104 2.87918
-2.75943 0.555166 3.1833
-3.01835 0.61354 2.1695
-2.83861 0.554208 2.23191
-4.00953 0.939999 0.984756
-3.88503 0.905459 1.06325
-3.78462 0.861165 1.11267
-3.86727 0.902266 1.02826
0.226459 2.25566 3.03792
-3.14148 0.657585 0.296058
-2.79763 0.569075 0.465937
-0.348845 0.307653 1.94584
-3.24774 0.692779 -0.303694
-0.0392922 0.377928 1.90533
-3.19955 0.683095 -0.422376
-0.613282 0.39815 1.07584
0.698076 -0.0609817 1.66407
0.546351 0.0175782 1.354
0.581008 -0.0232429 1.37534
0.61041 0.023819 1.08411
0.722912 -0.0449199 1.12881
0.452132 0.220895 0.833913
1.96478 -0.920629 -0.628886
-3.52654 0.807071 2.41616
-3.42994 0.773337 2.31487
-1.89703 1.08169 2.70242
-2.80554 0.554846 2.2349
-3.15863 0.644665 1.83289
-3.24045 0.687704 1.78867
-3.14447 0.650753 1.82321
-3.57985 0.801592 1.28676
-1.15759 0.866085 2.46019
-2.70244 0.518823 1.38561
-3.09585 0.666026 0.500187
0.356155 0.361624 2.63462
-0.432095 0.319507 2.07415
-0.31919 0.263147 1.95883
-0.943053 0.269113 1.41564
-0.126595 0.323225 1.96251
-0.4061 0.296352 1.54904
-2.39964 0.40563 -0.281849
0.615947 0.203427 -0.0550613
0.770288 2.47501 3.8399
-0.1249 2.36342 3.17504
0.255942 2.24235 3.3822
-2.76681 0.550133 2.27146
0.121411 2.27827 3.10009
-3.87363 0.905452 1.10281
-3.84485 0.880604 1.07231
0.558921 2.15523 3.31912
-1.15568 0.844373 2.49164
0.710611 2.09526 3.17677
0.929879 2.00931 3.06249
-1.93474 0.92006 1.35707
0.359443 0.358472 2.62625
0.324609 0.388499 2.48168
-0.562093 0.341544 1.76755
-0.632327 0.394265 1.61246
-0.924773 0.283878 1.42939
-0.502833 0.310725 1.6141
-0.413529 0.297607 1.38634
-2.44564 0.440391 -0.286028
0.548129 -0.0190429 1.76171
-2.18226 0.350282 -0.258143
0.547837 0.0127154 1.43743
0.503921 0.0222493 1.2189
0.573642 0.0255146 1.24289
-0.900069 0.479861 -0.415739
1.17563 -0.401099 1.12191
0.184579 2.23806 3.16631
0.982859 2.00343 3.10504
-0.109549 0.519926 2.64558
0.0980235 0.438504 2.50221
-2.31718 0.408079 0.837616
0.67522 0.273418 2.50402
0.581752 0.0163746 1.32007
0.483386 0.0466767 1.09241
-2.69319 0.52306 1.35604
-0.0116567 0.51569 2.7039
-1.43013 0.402622 1.77391
0.595296 0.0147744 1.0402
1.13648 -0.360084 1.23247
1.52399 -0.791267 -0.692948
-1.76669 1.04772 2.49979
-1.0576 0.828351 2.54131
0.057664 0.140314 0.832051
0.224465 0.263866 1.96211
1.11499 -0.323244 1.4187
-3.903 0.917002 3.02285
-3.80605 0.85995 3.05473
-3.20028 0.69167 3.21964
-0.341569 2.3279 3.33748
-3.37467 0.740324 3.05203
-3.3204 0.748473 3.03919
0.295516 2.23622 3.37314
0.702983 2.0996 3.28731
-3.03992 0.633292 2.38543
1.05195 1.98787 3.10484
-1.73998 1.05599 2.5161
1.02112 1.99259 3.04639
-1.64097 1.01266 2.49837
-1.51923 0.962456 2.52788
-1.3066 0.887927 2.43506
-3.27056 0.700044 1.80207
-3.20232 0.684734 1.80276
-2.94413 0.607376 1.7038
-3.22395 0.688076 1.52637
-4.00344 0.932498 1.07504
-1.03549 0.275371 2.02739
-2.73908 0.553088 1.38144
-3.53915 0.789279 1.11694
-2.68936 0.544751 1.3863
-1.41932 0.412895 1.70052
-2.62125 0.496082 1.29372
-3.86206 0.895201 0.831963
-3.79785 0.859928 0.837329
-1.12289 0.416488 1.65894
-0.210887 0.277343 1.91737
-1.0998 0.449205 1.61379
-3.73337 0.845192 0.67509
-3.69467 0.838755 0.626983
-0.677466 0.364958 1.6357
-3.73345 0.863833 0.556593
-3.75581 0.853421 0.535274
-1.47548 0.446825 1.25036
-3.81542 0.869217 0.381543
-3.19065 0.680283 0.519262
-1.47426 0.466752 1.0768
-0.534606 0.366151 1.38899
-2.59363 0.455083 0.506787
-2.22888 0.362389 0.520571
-2.7866 0.527199 0.267653
-3.68879 0.831541 -0.0637998
-3.68703 0.834625 -0.0751316
-2.4273 0.431124 0.230046
-2.10505 0.322171 0.324205
-3.49424 0.780694 -0.130208
-3.09943 0.645314 -0.0356893
-3.14672 0.655163 -0.075659
-3.6595 0.834059 -0.305291
-2.30329 0.382165 0.0219655
-0.884683 0.245376 0.492598
-2.05002 0.307031 -0.0305359
-2.62154 0.488586 -0.305954
-0.164103 0.229164 0.531657
-0.506639 0.561282 -0.145112
-0.410237 0.543742 -0.140798
-1.3575 0.0916968 -0.761464
0.560294 0.238026 -0.0550401
0.691044 0.195644 -0.0362377
-0.109258 0.368084 -0.441606
-3.46395 0.77064 3.2875
0.265004 2.22753 3.39495
0.291968 2.21464 3.40276
-0.176307 2.38103 3.21475
-3.30879 0.746277 2.88612
-2.93333 0.605728 2.76527
0.723013 2.0777 3.19156
-3.8281 0.887696 2.23922
-3.10586 0.664917 2.33291
-2.77954 0.549566 2.42443
0.923331 2.02309 3.03389
-1.6866 1.01914 2.53814
-3.80682 0.874455 1.80813
-0.396855 0.481801 2.39073
-3.48682 0.755491 1.14938
-3.4673 0.770601 1.12024
-2.67868 0.50215 1.273
-2.83969 0.576126 1.20312
-0.428924 0.297631 1.91161
-3.77805 0.861836 0.797066
-3.38683 0.726956 0.634004
0.678019 -0.0550403 1.9476
-2.29823 0.394122 0.819303
-1.24539 0.358744 1.14185
-0.41709 0.309896 1.37224
-0.502847 0.367393 1.09091
-3.58769 0.809124 -0.0705604
0.710743 -0.0438861 1.3665
-1.89422 0.265153 0.245533
0.725955 -0.0392561 1.07615
-2.17115 0.345133 -0.0781705
-2.24893 0.378208 -0.1234
-2.40607 0.429061 -0.424768
-0.550784 0.522729 0.0181472
0.397464 0.0536595 0.203227
0.584493 0.166395 0.0174489
0.208421 0.310525 -0.456922
1.43503 -0.778867 -0.763483
1.76593 -0.902495 -0.754723
1.84302 -0.902937 -0.988248
1.77828 -0.897005 -1.11313
-3.22715 0.683772 2.58135
-1.95944 1.11553 2.66633
-3.077 0.611345 2.42247
-2.93394 0.597622 2.27971
-1.39959 0.938165 2.63379
-2.76597 0.534071 2.27778
-0.54223 0.653671 2.50693
-3.24501 0.706133 1.58814
-3.16464 0.677479 1.58407
0.596454 0.305221 2.70191
-3.53461 0.768194 1.13757
-0.490113 0.28462 2.0879
-3.01685 0.603394 1.23842
-2.71213 0.546454 1.2687
-0.305802 0.293089 1.95239
-0.374181 0.291217 1.88134
-0.00405588 0.353198 1.92161
-2.65628 0.501585 1.04005
-1.14822 0.348171 1.48221
-0.491652 0.329378 1.55506
0.525056 0.00738244 1.73373
-2.02488 0.310184 0.790423
-3.01385 0.622494 0.465577
-2.72864 0.504246 0.516676
-3.07476 0.626853 0.277658
-2.26854 0.428808 0.552849
-0.41882 0.322176 1.15351
-0.574304 0.380357 1.06818
-2.12264 0.323882 0.528
-3.30071 0.713521 -0.0598383
1.09051 -0.358455 1.28159
-1.69599 0.199554 0.279945
-1.77099 0.238853 0.233105
-2.27811 0.396474 0.0249392
-1.90839 0.287783 -0.0334618
0.444964 0.195629 0.838613
-2.87951 0.585857 -0.383822
-2.08597 0.318523 -0.400613
0.397786 0.209023 -0.400234
1.69259 -0.874613 -0.778052
1.74138 -0.871749 -0.890042
-2.81046 0.541425 2.87242
-1.37016 0.930584 2.63098
-2.79366 0.535643 2.21755
-1.55001 0.974586 2.46423
-1.97445 0.817491 2.09004
-1.06107 0.334727 1.74062
-0.106929 0.335985 1.96084
0.0283309 0.305887 1.96434
-0.615775 0.370985 1.09186
-2.19973 0.354825 -0.260651
0.147122 0.307441 -0.401386
-2.72893 0.553031 1.63703
-0.0143765 0.362729 1.89422
-1.11265 0.364267 1.51472
0.559907 0.00426011 1.14117
0.736758 0.144201 -0.0139737
-0.426772 0.650182 -0.681812
-3.30805 0.749758 3.29191
0.183433 2.24881 3.18059
-2.76254 0.529618 2.29833
-2.71605 0.505511 1.7901
-2.8529 0.619697 1.52462
2.22588 -1.03349 -1.15493
-3.84141 0.996555 3.0233
-3.91853 0.923842 2.95323
0.618758 2.12979 3.39519
-1.97381 1.04075 2.39252
-0.776662 0.378392 0.741118
0.301725 0.0816527 0.240404
-1.18879 0.854563 2.44328
0.010316 0.511128 2.73925
-0.440867 0.292025 1.50262
-1.00201 0.332287 0.7104
0.222079 0.156858 0.190695
1.85827 -0.930407 -0.810662
-2.93519 0.588096 -0.433664
-3.01056 0.612498 0.21121
-2.83116 0.534352 0.475461
-3.13802 0.663326 0.482193
-2.1683 0.332952 0.828468
0.698551 -0.00905032 1.06861
-3.28091 0.703561 1.05104
-3.62845 0.816167 1.11868
-2.88945 0.572503 1.1733
-3.60589 0.826999 1.21013
-3.19115 0.687506 1.21376
-3.39075 0.725699 1.48256
-3.21978 0.694258 1.49961
-3.34366 0.706314 1.49799
-1.23526 0.401462 1.54574
0.118541 0.413501 1.71317
-3.13257 0.654705 1.81225
-3.50108 0.765615 1.8357
-2.81164 0.558715 2.00671
-3.13269 0.670548 2.09292
-3.27522 0.699743 2.26242
-3.74189 0.860869 2.28771
-3.19295 0.689369 2.433
-3.27093 0.700769 2.53657
0.399022 0.350742 2.50972
-3.26723 0.706046 2.55279
-3.29195 0.696721 2.58876
-3.22629 0.688796 2.58036
-3.10037 0.604911 2.5937
-0.163747 0.547558 2.61655
-0.85493 0.753441 2.62114
-0.853337 0.75557 2.64061
-1.31376 0.908592 2.68351
-1.34762 0.922174 2.70262
-3.37157 0.760832 2.82573
-2.90647 0.571207 3.02516
-2.91353 0.570854 3.02835
-3.09749 0.65032 3.05019
-1.95464 1.13419 3.19735
-1.93769 1.1274 3.31256
0.712825 2.07895 3.25115
-3.20841 0.870579 3.76464
-3.09535 0.829451 3.7576
0.729368 2.53781 3.79674
-1.95499 0.301065 -0.466478
-2.25291 0.3911 -0.423951
-2.39654 0.381426 -0.389682
0.924805 0.0578385 -0.177791
-3.47399 0.71885 -0.289723
-3.23875 0.70673 0.614941
-1.10352 0.334299 0.76639
-1.91964 0.277825 0.920461
-2.67825 0.492713 1.09073
1.07022 -0.351466 1.27533
-2.69027 0.527005 1.2589
-3.53351 0.781695 1.40236
-2.69603 0.529902 1.39392
1.06971 -0.349813 1.5381
1.0427 -0.301231 1.56662
-1.96866 0.814248 1.56735
-2.83933 0.544967 1.60629
-2.48898 0.482615 1.77874
-1.95203 0.769313 2.04896
-2.79104 0.520715 2.23084
-2.58667 0.486939 2.29656
-2.66456 0.5103 2.28073
-2.83121 0.570671 2.32731
-0.82307 0.560542 2.39081
-0.391822 0.511495 2.39964
-2.06185 1.14462 2.45629
-0.474605 0.640811 2.48765
-3.15714 0.642975 2.59908
-0.0735349 0.514687 2.67957
-3.23301 0.681434 3.32391
-3.02143 0.626741 3.35994
-0.0416001 2.30465 3.28729
0.700893 0.326742 -0.684997
-1.18639 0.566753 0.197946
-1.82846 0.252742 0.218066
-2.89295 0.550101 0.468208
-1.92762 0.907338 1.22913
-2.79045 0.54003 1.82736
-2.69685 0.524358 1.83168
-2.67177 0.507501 1.83644
-2.61289 0.491939 2.00489
-2.71547 0.515013 2.27763
-2.79213 0.532395 2.56598
-1.92814 1.11435 2.69102
-2.90155 0.566314 2.7981
-2.96756 0.766629 3.69946
0.278539 0.0672703 0.468938
-1.02137 0.334222 0.787531
-2.84297 0.531005 1.45081
-2.66881 0.483316 1.45918
-2.80787 0.580578 1.79646
-2.75659 0.5407 2.37689
-2.98183 0.581837 2.41282
0.148025 0.448695 2.43245
-3.58712 0.820809 3.05891
-2.04254 1.23036 3.51515
-1.95253 1.16715 3.52604
0.256951 2.23558 3.26153
0.269912 2.24814 3.37768
0.348077 0.145792 0.785642
-2.59874 0.481465 1.22098
-1.90471 0.771912 2.12025
-2.96042 0.627242 2.57193
-2.90535 0.605721 3.02237
-3.22509 0.697876 3.55635
0.545966 2.14889 3.2425
1.00416 -0.0510292 -0.323983
0.704199 0.104504 0.117076
0.595021 0.0996418 0.78295
-0.199771 0.250084 1.11975
-2.5925 0.508607 1.25898
-0.541175 0.335967 1.8911
-2.03097 1.2092 3.5573
-0.483231 0.228053 0.745959
0.0422736 0.156428 0.925669
0.223004 0.0878602 1.48562
-0.489814 0.322397 1.70543
-0.0595292 0.47611 2.41983
-0.413264 0.413194 -0.150641
0.278014 0.192601 0.838367
0.352906 0.094245 1.04182
0.91251 -0.174083 0.81135
-2.54338 0.433585 0.231299
-1.15279 0.502616 0.176277
-2.19357 0.343797 0.8227
0.146752 0.154557 0.415649
-3.55233 0.775731 1.26179
-3.03398 0.623029 1.28049
-2.70433 0.503051 1.28685
-0.00680818 0.176787 0.827109
-0.536559 0.36845 1.11958
-0.0826901 0.189287 1.03678
-3.6058 0.778665 2.05691
-3.11258 0.648906 2.11124
-3.22993 0.696702 2.28002
-3.34161 0.738528 2.39068
-2.68945 0.508095 2.28262
-0.899962 0.250601 1.96869
1.06176 -0.328347 1.52666
-1.83341 1.10373 2.47542
-0.199084 0.302804 2.04469
-2.91891 0.594478 2.65308
-3.23416 0.714933 2.7723
-3.85727 0.886716 2.95929
-3.89067 0.915509 3.01909
-3.82725 0.886585 3.05688
-3.43645 0.76323 3.04891
-0.373874 0.478949 2.40681
-3.40161 0.755469 3.05662
-2.9681 0.607522 3.04356
-2.89487 0.548795 3.04864
-0.469169 0.636246 2.54352
-3.60773 0.810609 3.31918
-1.83853 1.1025 3.03544
-2.98788 0.605144 3.32429
-1.97851 1.13843 3.19209
-3.26709 0.725785 3.52511
-2.96349 1.5506 3.76233
-0.142367 2.33712 3.26488
-2.82316 0.552317 1.08825
-1.20576 0.357084 0.873594
-2.55233 0.479853 1.38761
-2.53675 0.460545 1.44731
-2.46893 0.441165 1.79338
-2.48165 0.469913 1.81306
0.145328 0.187223 1.33093
-3.59903 0.826096 2.12207
-2.58752 0.469886 2.28004
-2.7004 0.541973 2.30054
1.04576 -0.318118 1.55865
-2.74946 0.560784 2.40644
-2.93636 0.595992 2.57367
-2.90397 0.590379 2.57693
-2.83072 0.547931 2.56239
-1.30787 0.897871 2.47103
-0.625001 0.685838 2.45423
-3.00572 0.620996 3.04653
-1.91163 1.12588 3.3146
0.840105 2.42287 3.7973
-1.73015 0.188437 0.24804
-2.5978 0.498401 1.42164
-2.48485 0.490047 1.59843
-3.32219 0.717123 2.43837
-1.97922 1.11773 2.47194
-0.639087 0.373685 2.16503
-0.931434 0.742962 2.65857
0.771406 2.5008 3.78663
-0.117419 0.188648 0.832438
0.961955 -0.294966 0.69566
-1.70614 1.01341 2.54212
-1.23972 0.548339 0.566121
-2.51965 0.502985 1.77617
-3.07115 1.63726 3.75973
-1.07807 0.372574 0.638819
-0.993506 0.288791 1.75018
-0.555026 0.291497 1.87485
-2.80146 0.552806 2.40798
0.19449 0.155375 0.355048
-2.60656 0.53873 1.42486
-2.80204 0.589144 3.08235
0.294791 0.371454 2.49506
-0.265189 0.240633 0.493605
-2.31457 0.760191 2.15093
-0.724629 0.567953 0.319313
-2.94891 0.56093 -0.517629
-2.69229 0.493832 0.818751
-1.97846 0.325611 0.815115
-2.53243 0.471562 1.40264
-2.50399 0.475235 1.81557
-3.32412 0.730502 2.43353
-2.69391 0.514254 2.56574
-0.904315 0.749844 2.64561
-1.84351 0.241781 -0.0410373
-2.72206 0.514675 0.845084
-0.953996 0.250712 0.388398
-3.24353 0.680897 1.60336
-2.59055 0.487844 1.44131
-3.83935 0.897772 2.49325
-0.42314 0.301139 1.09048
-2.65506 0.503656 2.27714
-2.7804 0.540383 3.01565
-2.92344 0.603624 3.31232
-0.730845 0.558856 2.3582
-3.35844 1.80138 3.78033
-2.54146 0.460323 1.43204
-0.125583 0.166167 0.838077
0.0883399 0.174036 0.779864
-3.44256 0.775344 2.42746
-2.45192 0.469785 2.00163
-3.05239 0.631838 2.58945
-1.98893 1.13357 2.44903
1.13985 -0.276054 0.909755
-0.0908803 0.37985 1.86501
0.0124408 0.425263 1.84378
-2.17253 0.352161 -0.289075
1.43939 -0.795949 -0.785973
-0.809497 0.399633 0.771916
-0.137505 0.0463181 1.60996
-2.89046 0.585778 3.05911
-0.805076 0.400001 0.729642
-1.93332 0.663665 1.96528
-2.03224 1.21934 3.52606
-3.20069 0.724005 2.18411
-0.136948 0.157738 1.58832
-0.0495347 0.269258 0.364706
-1.87421 0.688008 2.05371
-2.69872 0.536383 2.19228
-0.287103 0.567185 2.63673
0.708594 -0.0205993 1.86691
-3.3951 0.750363 2.2026
-3.47715 0.783527 2.2919
-3.55339 0.810929 2.35734
-2.6161 0.495419 1.82973
-0.887078 0.254674 1.70553
-0.403298 0.300035 1.659
0.637998 -0.0125322 1.7938
0.52399 0.00477891 2.0714
-2.74843 0.552038 1.43663
-2.47475 0.455054 1.99293
-2.64423 0.510412 2.40959
1.43487 -0.785092 -0.764103
-0.939633 0.420125 0.05394
-1.11945 0.539655 0.211447
0.0110465 0.182851 0.911422
-3.38298 0.737024 2.1984
-3.35685 0.771349 2.44667
-3.24251 0.705534 3.04149
-0.272572 0.27897 0.445873
-2.17593 1.23042 3.52388
-0.354087 0.304501 1.15849
-0.53543 0.352354 1.52801
0.00534353 0.135695 1.53142
-0.108104 0.267346 1.75139
0.0163165 0.425872 1.81984
0.486665 0.0539303 1.37409
0.756346 -0.0448875 1.15429
-2.58445 0.494598 2.38435
-1.99101 0.934229 1.19516
1.13037 -0.335653 0.951307
-1.35528 0.389855 1.34675
0.0956126 0.14993 1.50287
-0.0256547 0.210397 0.354224
-1.77382 1.07745 3.15385
0.0181457 0.165589 0.345771
-2.8373 0.579943 1.45164
-0.142978 0.112746 1.61737
-3.59583 0.854275 2.35918
-3.53543 0.816006 2.36242
-1.7657 1.08227 3.18661
-0.46161 0.318647 1.67985
-0.092019 2.3588 3.24878
0.579579 0.0161791 1.3387
0.908109 -0.313865 1.29423
-2.71573 0.524051 0.900741
-3.39803 0.765658 2.49426
-0.540778 0.3426 1.85677
-0.540122 0.351699 1.95186
0.56883 -0.0118513 1.86232
-3.01629 0.621716 2.21544
-2.01755 0.931115 1.22014
0.0346843 0.20627 0.836372
0.587001 0.00972943 1.40526
0.551351 -0.00142188 1.5104
-3.41356 0.800148 2.47724
-1.6823 1.0218 2.51742
0.596383 -0.0133886 1.29009
-1.77353 1.07524 3.17485
-0.75299 0.525662 2.33489
0.197038 0.148423 0.735944
-0.933171 0.469426 -0.0482826
-2.08831 0.844448 2.11533
-1.60385 0.669563 1.25729
-0.641654 0.611026 -0.277903
-3.71893 0.840848 -0.165311
-3.72437 0.861247 0.0136964
-3.57307 0.788051 2.21493
-3.56604 0.798415 2.26411
-3.57152 0.81132 2.37383
-3.38536 0.76734 2.37606
-2.57973 0.48483 -0.109105
-2.47724 0.452331 1.70338
-1.90022 0.273729 -0.454887
-0.0700253 0.198923 0.45316
0.584674 0.0157576 1.88713
0.754065 -0.0533714 1.40653
-3.16386 0.676351 1.58176
-2.67837 0.533835 1.08123
-1.91949 0.265402 -0.376961
-1.31839 0.0777417 -0.633246
-0.544621 0.332984 1.47113
-2.74087 0.519373 0.977258
0.525205 0.00643163 2.05148
-1.662 0.22523 0.464934
-0.457309 0.519189 -0.0722415
0.611058 -0.0153904 1.25716
0.662105 -0.0215473 2.07199
-3.66288 0.84317 2.1889
-2.06588 1.12467 2.70461
-2.0421 1.13086 2.71675
1.35476 -0.190232 0.265616
0.956103 -0.310791 1.26267
-3.45719 0.79615 2.25708
-3.3975 0.77604 2.03185
-2.53902 0.492808 1.75848
-0.276906 0.325689 0.452116
-1.95928 0.823764 2.18557
-2.16994 0.585109 1.55563
-3.70718 0.839652 0.242853
-3.57632 0.822336 2.34498
-3.37092 0.741899 2.18183
-2.28839 0.380404 0.121205
-0.530942 0.325145 1.8216
0.466487 0.0401144 1.16808
0.960072 -0.326771 0.411533
-3.73818 0.849516 0.18383
-3.7021 0.848411 0.247328
-3.40512 0.76078 2.19986
-3.13161 0.666984 0.408208
-1.21598 0.332395 1.97458
-0.367467 0.275377 1.62003
0.0455428 0.178219 0.859807
0.750979 -0.0558061 1.6047
1.26997 -0.230619 0.219828
1.95535 -0.959455 -0.5811
-3.87899 0.88144 0.938024
-3.53112 0.790132 2.14801
-2.84124 0.542845 0.463313
-0.511664 0.597519 0.210367
0.717776 0.0340558 0.681572
0.901532 -0.308207 1.33917
-3.43794 0.786059 2.33874
-3.15853 0.662983 0.265198
-3.14976 0.654696 0.301252
-2.61433 0.519222 1.69999
-0.278336 0.233723 0.543164
-3.64459 0.825615 2.18548
-1.90688 0.278908 0.703676
0.551675 0.0263186 1.60078
-0.613402 0.456575 0.909674
0.491819 0.055523 0.914591
-1.20006 0.562241 0.427992
-0.327462 0.266013 1.71488
-0.134835 0.274785 1.20704
0.438863 0.0597058 1.23348
-0.334575 0.248873 0.863397
0.987794 -0.350168 1.81948
-0.247523 0.177856 1.47623
-3.56538 0.807624 2.3631
-3.56416 0.810311 2.17112
-3.50429 0.809411 2.29539
-3.39042 0.758783 2.36553
-3.72703 0.830293 0.231149
-3.69142 0.840247 0.230906
-3.5048 0.745012 1.17188
-2.43776 0.457657 0.216249
-2.43383 0.41075 0.00954623
-2.2771 0.366051 0.155184
-2.28287 0.395265 0.124539
-0.596164 0.332852 1.91714
0.206657 0.111564 0.452878
0.520663 0.268382 -0.131904
1.77714 -0.898329 -0.758776
1.87742 -0.929913 -0.833913
-3.13205 0.641636 0.27484
-3.14198 0.665821 -0.181775
-2.85485 0.55162 -0.45436
-0.437945 0.286303 1.92524
0.498147 0.0222588 1.11276
0.735026 -0.0616855 1.61816
1.01508 -0.342862 1.66908
-3.87907 0.879574 1.05827
-3.58912 0.820307 0.573402
-3.17374 0.665621 1.651
-3.13587 0.678231 1.73688
-2.74029 0.512468 1.06249
-2.14066 0.342034 0.275352
-1.20952 0.336829 1.95336
-0.654904 0.363425 1.61098
0.504605 0.0199137 1.1805
0.640849 0.182849 -0.0405814
-3.8781 0.88087 0.957505
-3.24218 0.725093 2.86363
-2.62734 0.505844 1.71866
-2.7233 0.529668 0.943662
-0.57569 0.5616 -0.192305
0.563754 0.229291 -0.133127
0.660647 0.190031 -0.0525849
1.02432 -0.326485 0.973269
1.0655 -0.333408 1.01206
-2.7536 0.558345 0.907092
1.03049 -0.344009 1.09368
2.18778 -1.01413 -1.18525
-0.665143 0.36808 1.17088
0.19181 0.104117 1.27471
0.5139 0.183676 -0.0522408
0.980239 -0.284514 1.46323
-3.54468 0.81825 2.20403
-3.38668 0.776587 2.37595
-3.87578 0.890174 1.01341
-3.46916 0.759655 1.21669
-3.48305 0.761537 1.16859
-3.72432 0.858443 0.232438
-3.7213 0.836258 0.233737
-3.14982 0.660551 0.484657
-3.1457 0.650736 0.267296
0.187808 2.25104 3.057
-1.95051 0.261093 0.785647
-2.12603 0.358524 0.28814
-2.18883 0.332419 -0.0551185
-2.29572 0.378344 -0.454692
-1.01957 0.271286 2.02847
-1.90864 0.254648 -0.445744
-1.90406 0.247322 -0.59331
-0.486508 0.334754 1.86035
-0.248006 0.468822 -0.131187
0.597852 -0.000204041 1.8332
0.595603 -0.00514502 1.54831
-3.52666 0.79737 2.40346
-3.48101 0.797673 2.29318
-3.94784 0.906635 0.501245
-2.45566 0.420954 0.208441
-0.910979 0.776701 2.6067
-0.430617 0.297105 1.92407
-0.608203 0.359749 1.39654
-0.547622 0.340644 1.41075
-0.628974 0.378772 1.12402
0.96665 2.00319 3.11039
0.487918 0.0373526 1.05644
1.28302 -0.125552 -0.0145965
-3.27726 0.730435 2.84815
-3.23872 0.688326 1.00639
-3.3955 0.758884 0.499039
-3.01709 0.639443 0.162643
-0.559379 0.331458 2.00222
-1.19754 0.541695 0.560511
