-2.95453 0.673704 0.865203
-2.87063 0.652605 1.36715
-2.23513 0.442105 -0.500757
-2.12653 0.412305 -0.0777974
-2.08743 0.400005 0.295703
-2.30203 0.480704 1.56887
-2.47253 0.523705 2.77218
-2.25973 0.461405 2.09263
-1.26763 0.441505 1.82897
-0.258626 0.320005 1.19638
-0.0441254 0.263405 0.931598
-0.130626 0.288005 1.33301
-0.0437248 0.262605 1.34094
-0.0941265 0.275005 1.72429
0.873574 0.178405 0.0198126
1.03377 -0.0628955 1.15402
-3.16083 0.750304 0.907444
-2.92943 0.670605 0.866033
-2.42093 0.501505 0.785503
-2.38043 0.502105 2.01365
-2.04443 0.396005 0.952375
-0.893826 0.340705 0.788752
-0.213326 0.334905 0.916232
0.932874 -0.0347955 1.24568
0.943174 -0.0461947 1.34768
1.07357 -0.0830953 1.20223
0.943574 -0.0462949 1.8678
1.61407 -0.177695 -0.308587
1.41847 -0.296695 1.3513
-1.80293 0.313505 -0.404197
-1.87333 0.336905 0.691082
-0.171826 0.318505 0.924382
1.05617 2.28136 3.58685
-3.26313 0.787605 0.340563
-3.09153 0.736605 0.161083
-0.558125 0.430005 -0.389487
0.969875 0.179105 -0.378707
0.320773 0.132505 0.776452
0.633575 0.354405 2.32738
-0.870727 0.339105 0.846043
-0.909926 0.335904 1.26308
-3.30683 0.796805 1.89279
-3.27253 0.787405 0.337833
-2.84403 0.647804 1.31338
-2.08103 0.404305 0.434803
-2.21063 0.444205 -0.329707
-1.90843 0.346005 0.787522
-1.31842 1.0055 2.97302
-1.40493 1.0139 2.29656
-1.95103 0.349105 -0.0528173
-1.96743 0.358105 -0.235587
-0.840026 0.424705 1.43745
-0.293425 2.17104 3.1906
-0.322825 2.15109 3.03537
-0.282525 0.556905 -0.298827
0.349475 0.366505 1.4782
-3.30253 0.792005 1.971
-3.37093 0.827105 7.26143e-05
-3.37383 0.820605 -0.0358474
-3.28453 0.791905 0.342033
-3.11143 0.732405 0.232503
-2.84093 0.645405 1.34673
-2.84923 0.646705 1.28696
-2.95923 0.675705 0.665323
-2.65173 0.587005 0.567302
-2.82303 0.635305 -0.309097
-2.47463 0.523805 1.34175
-2.72383 0.610305 -0.0568274
-2.44373 0.504705 1.16338
-2.30633 0.478405 1.49812
-2.53163 0.542005 0.150523
-2.50863 0.531505 0.136833
-2.13523 0.417205 1.0721
-1.68603 1.0952 2.38003
-2.01953 0.378105 0.881153
-2.15463 0.409005 -0.00297735
-2.09963 0.398205 -0.277517
-1.83953 0.332005 -0.141377
-1.08143 0.384005 1.4772
-1.01583 0.362005 1.12488
-0.898927 0.334205 0.917776
-0.711526 0.275305 1.08199
-0.187627 0.311605 1.67846
-0.614226 0.478504 -0.493357
-0.247827 0.334705 1.15232
-0.187026 0.316005 1.14885
-0.0696266 0.336005 0.508942
1.41537 -0.352695 0.358443
1.41417 -0.350795 0.288173
-3.37603 0.828505 2.66497
-3.17823 0.756905 3.12546
-3.54613 0.860705 0.828212
-3.23143 0.782705 2.01335
-3.09573 0.729805 0.157293
-2.82233 0.631705 0.0890827
-2.83593 0.638205 -0.333407
-2.28523 0.476105 2.16094
-2.71753 0.611305 -0.215917
-2.11993 0.415505 1.08316
-1.61203 1.0972 2.8491
-2.08123 0.398505 0.294453
-1.43243 1.0336 2.85311
-2.10483 0.409505 0.0062727
-1.88663 0.343105 0.777262
-1.39673 0.480905 1.57866
-1.81623 0.319405 -0.320037
-1.55693 0.230705 -0.638197
-0.969626 0.360405 1.39294
-0.893725 0.337905 1.27479
-0.898026 0.322005 0.944291
-0.0584267 2.28949 3.15538
-0.00642662 0.560405 2.33618
-0.340226 0.537305 0.570523
-0.232427 0.508004 -0.186397
-0.0726249 0.469105 -0.0915173
0.526775 0.0880054 0.255933
0.965274 0.127405 -0.681488
-3.28443 0.800905 2.18961
-3.28343 0.791905 1.97293
-3.07673 0.730905 1.86146
-3.39123 0.822105 -0.0298774
-3.25243 0.788005 0.322463
-2.86713 0.652605 1.33759
-2.95133 0.674505 0.865753
-2.26983 0.465405 2.59619
-2.20733 0.440505 1.04448
-1.60623 1.0728 2.42178
-2.12083 0.406705 0.292923
-2.08163 0.402405 0.375713
-2.19383 0.444705 -0.445997
-1.64263 0.761205 1.85761
-1.17883 1.22845 3.58507
-0.865926 0.319405 1.70026
-0.304026 0.347405 1.33568
-0.306327 0.355305 0.900579
-0.305825 0.368905 0.840053
-0.310426 0.386605 0.792783
-0.069125 0.280905 0.902815
-0.121325 0.486605 -0.222997
0.911275 0.271705 2.44055
0.868774 -0.0141952 1.33057
0.985374 -0.0649955 1.44326
1.02567 -0.0546948 0.934046
-3.30173 0.793804 1.95686
-3.27163 0.792205 0.327133
-2.85283 0.639005 1.60812
-2.81673 0.648404 1.32299
-2.64583 0.594905 1.51609
-2.80263 0.629805 0.0304727
-2.47083 0.512705 1.21188
-2.09243 0.418505 1.1025
-2.04933 0.399805 0.890263
-1.88983 0.324505 -0.326067
-0.483626 0.718605 2.41739
-0.244025 0.320905 1.87608
-0.102626 0.283105 1.814
0.00677416 0.561905 2.39031
1.04207 -0.091295 1.86614
0.697774 0.205805 -0.659837
-3.33443 0.802805 1.91031
-2.88333 0.653805 1.54475
-2.36173 0.493005 2.1045
-2.50053 0.528005 1.22797
-2.23573 0.431005 -0.506207
-1.88483 0.345905 0.762892
-1.23833 0.454305 1.66333
-0.884326 0.336405 0.829133
-0.036126 2.30726 3.05603
-0.168025 0.302105 1.23277
0.365174 0.162205 0.0902227
-3.58553 0.876305 0.692773
-2.99133 0.700404 0.712183
-0.911826 0.535505 0.342663
-0.334025 0.355005 1.15605
-2.53063 0.548205 2.64792
-0.636025 0.253605 1.0948
-0.331426 0.360005 1.58003
-0.262626 0.433705 0.120273
0.318774 0.186805 -0.182907
-1.18573 1.06741 3.46513
0.181974 0.215905 0.963983
-0.457026 0.349305 -0.301427
0.885074 0.0479052 0.146303
0.785073 0.155205 -0.280947
0.649274 0.0913051 -0.297367
-0.917325 0.358105 1.18271
-0.693326 0.321505 1.66644
-3.04923 0.732105 2.79815
-3.02193 0.716805 2.81858
-3.28413 0.790304 1.94737
-2.88983 0.672605 2.21372
-2.78093 0.633105 1.86398
-2.25943 0.474805 2.30126
-3.22853 0.780405 0.260453
-1.44553 1.01631 2.44237
-2.10903 0.413205 1.2236
-2.12713 0.413705 1.11608
-0.987826 0.879405 2.44235
-2.37283 0.490305 0.580003
-0.289225 2.17147 3.07232
-2.02733 0.381805 0.919238
-2.79283 0.621905 -0.305277
-2.50243 0.528905 0.0738227
-2.27923 0.457105 0.296303
-2.06743 0.404005 0.483503
-2.55573 0.565805 -0.195877
-2.08173 0.402105 0.433493
-2.22993 0.437105 -0.324867
-0.603625 0.239605 1.73494
-1.63473 0.254605 0.332273
-2.26953 0.436805 -0.511827
-2.20413 0.440705 -0.481237
-1.76303 0.297205 0.0807627
-1.86713 0.313705 -0.293307
-1.82573 0.317005 -0.254737
-0.024226 0.378505 2.04122
-1.77483 0.312705 -0.282207
-1.81643 0.319305 -0.355677
-1.69813 0.279405 -0.252027
-1.79003 0.313605 -0.395007
0.825975 2.12929 2.97745
-0.208627 0.319405 1.12708
-1.49443 0.215105 -0.664308
0.299874 0.342305 1.51338
-1.31293 0.172505 -0.823468
-1.31333 0.173305 -0.883708
-0.598826 0.467205 -0.440037
0.824674 -0.00209493 1.10662
0.313773 0.321005 -0.729278
0.841474 0.218105 -0.327517
-3.26793 0.793804 2.69627
-3.01333 0.694305 1.75027
-2.79803 0.638905 1.87761
-2.73573 0.597805 1.83562
-3.24863 0.759805 1.02699
-1.49683 1.05901 3.07918
-1.43763 1.0377 3.14463
-2.86643 0.650005 1.34111
-2.27553 0.467705 1.95847
-3.04363 0.718505 0.668422
-3.24973 0.789105 0.340573
-1.36453 0.992405 2.27313
-2.62093 0.573304 0.572042
-2.97613 0.686805 0.00533262
-2.72333 0.618205 0.223793
-1.01133 0.888005 2.41135
-2.79173 0.623005 0.0724527
-2.01313 0.379205 0.913086
-2.02373 0.377905 0.882443
-1.26973 0.439905 1.82897
-2.72363 0.615505 -0.259807
-1.88853 0.331405 0.595922
-2.10163 0.421105 -0.0272074
-0.207526 0.622705 2.43922
-2.47673 0.532005 -0.541427
-1.56343 0.245905 0.578292
-0.956826 0.360105 1.33204
-2.11463 0.405705 -0.194927
-2.12093 0.401905 -0.249307
-2.06993 0.411105 -0.215437
0.225875 0.500905 2.40789
-1.82333 0.315305 -0.307887
-1.81043 0.317505 -0.410967
-0.0418251 0.256505 1.60593
-0.134227 0.328105 0.840303
-0.608525 0.485105 -0.460797
1.34387 -0.347395 1.33755
0.563375 0.096105 -0.0888073
-3.48463 0.861904 2.82742
-3.52073 0.873805 2.27677
-3.31653 0.808505 2.46943
-3.01953 0.719705 2.0887
-3.12573 0.773305 1.90708
-3.21593 0.756005 1.16633
-2.12413 0.425605 2.46858
-2.84333 0.652704 1.24346
-2.66283 0.596405 1.44097
-2.99963 0.701505 -0.00175737
-1.06893 0.893705 2.37545
-2.12623 0.424905 0.692693
-1.60323 0.253905 0.498662
-0.586825 0.229805 1.75905
-0.218226 0.640805 2.24492
-0.806726 0.349905 1.29643
-0.578126 0.230505 1.45596
0.571473 2.21071 2.83255
-0.662425 0.276105 0.510632
0.307174 0.353305 1.71149
-0.285926 0.348205 0.935255
0.310474 0.355705 1.54141
-1.17703 0.129705 -0.627907
-0.199225 0.502005 -0.183197
0.597574 0.0734046 0.270763
0.977275 0.117805 -0.672988
-2.72433 0.605205 3.03865
-3.35642 0.793104 1.81953
-2.38533 0.516305 3.21217
-3.06193 0.737305 2.14946
-3.39273 0.822505 1.65801
-3.22683 0.767705 1.09578
-2.68953 0.598105 1.83971
-2.82923 0.633105 1.59091
-2.84983 0.646304 1.41076
-1.63163 1.0827 2.43762
-3.25463 0.795105 0.318623
-2.24493 0.445005 1.0393
-2.38833 0.508105 0.807943
-2.52323 0.508805 0.264893
0.00287364 2.3292 3.12436
-1.10683 0.388905 1.48128
0.180774 2.33736 2.97041
1.04747 2.30895 3.58128
-1.46603 0.209805 -0.308687
0.616975 0.363705 2.40491
-1.37723 0.191605 -0.518197
0.907775 0.157305 -0.191087
-3.16763 0.751205 3.08734
-3.13363 0.750805 2.8248
-2.75763 0.619805 1.86734
-1.58203 1.08981 3.15539
-2.66183 0.592905 1.52948
-2.63383 0.590005 1.5243
-1.70053 1.1044 2.34347
-2.44683 0.530105 1.29642
-2.94443 0.672205 0.593372
-2.47583 0.504705 1.21123
-3.34193 0.820005 -0.0189173
-1.73333 0.796005 1.34175
-1.32233 0.449004 1.7508
-0.116526 2.26652 3.06967
-2.08273 0.392505 0.532092
-1.18193 0.461105 1.67519
-1.87743 0.357704 0.775622
-0.444325 0.568505 2.18878
-0.869826 0.318105 1.08923
-0.249427 0.317205 1.85631
-1.92333 0.348905 -0.460517
-0.547326 0.213005 1.26519
0.280275 0.359305 1.60525
0.042474 0.222705 0.512442
0.873874 -0.0138947 1.38428
0.861974 -0.0155951 1.32889
0.915275 -0.0253951 1.11261
0.745174 0.0354045 0.228353
0.189674 0.360705 -0.640768
0.705875 0.206704 -0.641747
1.66737 -0.153095 -0.317857
-2.09003 0.419105 1.09966
-0.0781257 2.27428 3.15093
-1.93163 0.299505 -0.525957
-0.0111263 0.276905 1.91093
-1.88793 0.336605 -0.566917
1.63457 -0.194295 -0.283177
-2.63683 0.587505 1.38784
-2.88283 0.643905 0.0927527
-2.45343 0.505005 0.651212
-1.14433 0.398305 1.49391
0.394374 2.24511 2.80315
-0.893327 0.312605 0.865233
-1.84713 0.331905 -0.390497
-1.04693 0.593605 -0.101667
-2.44203 0.516705 2.01497
-1.72863 1.13417 2.54391
-3.12863 0.741605 0.575102
-0.955226 0.924905 2.50939
-0.937427 0.335904 0.902031
-0.633426 0.243005 1.10307
-1.71583 1.1256 2.49508
-3.32143 0.802805 2.4567
-2.63323 0.575605 2.54997
-3.36353 0.821705 1.7332
-2.76263 0.619205 2.05829
-0.290425 2.17263 3.07399
-3.32413 0.794405 1.62228
-0.258826 2.18611 2.99801
-2.25313 0.463705 2.19083
-3.03063 0.686505 1.60643
-3.00943 0.683905 1.60485
-2.87713 0.661005 1.47755
-2.93473 0.664805 1.26716
-2.91553 0.659305 1.26473
-3.04363 0.716905 1.13019
-1.62573 0.760505 1.83354
-1.60273 0.744505 1.78087
-3.34283 0.812104 0.813183
-3.40643 0.829505 0.742743
-3.35642 0.809605 0.660522
-2.40053 0.505605 1.14433
-3.41662 0.834905 0.573913
-2.69443 0.593205 0.946797
-2.44743 0.523805 1.05996
-2.14013 0.409605 1.21415
-3.09883 0.727605 0.716143
-3.07393 0.728105 0.721882
-3.33043 0.810105 0.533903
-2.12793 0.413905 1.11478
-2.39913 0.511105 0.974039
-2.93443 0.679705 0.643203
-3.29493 0.800505 0.379323
-2.36493 0.503605 0.838763
-3.40523 0.833305 0.302053
-2.26133 0.468905 0.767102
-1.98603 0.377205 0.899639
-2.65183 0.584805 0.556913
-3.28233 0.792005 0.198063
-1.58213 0.941105 1.05779
-2.03523 0.404205 0.612532
-1.88613 0.336805 0.610213
-2.71843 0.616104 0.194913
-2.48433 0.526205 0.256693
-1.69213 0.285805 -0.0182074
-2.05913 0.398505 -0.198537
-1.99693 0.382705 -0.193157
-2.10483 0.400305 -0.268627
-1.95753 0.352905 -0.245527
-1.98923 0.361805 -0.263347
1.41757 -0.394795 0.983344
-3.34983 0.816005 2.85759
-3.52053 0.873405 2.23187
-2.88223 0.662205 2.59245
-2.86513 0.657205 2.58938
-2.46303 0.527305 2.75767
-2.43453 0.526605 2.77225
-2.97413 0.695705 2.35184
-2.62593 0.575105 2.5649
-2.97073 0.696405 2.3307
-3.04653 0.735705 2.12113
-2.72863 0.621005 1.69594
-2.97813 0.692405 1.36746
-3.01913 0.712905 1.32104
-0.831925 0.821605 2.44042
-2.57233 0.562205 1.51137
-2.23133 0.453405 1.59025
-2.48133 0.530105 1.31502
-2.84533 0.644705 1.04163
-1.26693 0.451505 1.77888
-2.17823 0.433905 1.1921
-3.13993 0.741005 0.665953
-3.33423 0.810405 0.493973
0.646474 0.354505 2.29633
-0.218026 0.317105 1.8263
-2.10803 0.407305 0.859433
-2.05893 0.396405 0.871863
-1.96773 0.374105 0.853133
0.303075 0.197505 1.90796
-3.39153 0.823105 -0.0184274
0.101774 0.253005 1.6996
0.237874 0.338405 1.62898
-2.93313 0.688005 0.0248627
-1.62553 0.259805 0.514502
-2.44903 0.506805 0.0344927
-2.67323 0.602305 -0.155857
-2.58793 0.563005 -0.289557
-2.15113 0.424705 -0.106417
-2.76793 0.625605 -0.388497
-2.14383 0.404405 -0.255297
-2.26853 0.456105 -0.319397
-1.63683 0.268105 -0.412717
-1.97333 0.359405 -0.705077
0.629773 0.0643046 0.289303
0.311673 0.165505 0.0624027
0.865474 0.175205 -0.00988732
-3.35403 0.817605 2.87035
-3.19573 0.775005 2.50764
-2.47003 0.527805 2.73074
-2.31433 0.481205 2.11118
-2.96903 0.689305 1.55887
-2.33623 0.499705 1.75214
-2.59353 0.579705 1.49246
0.398475 2.27401 2.81009
-0.328425 0.666704 2.48405
-1.21743 0.431705 1.83136
-2.78373 0.630904 0.928094
-2.84483 0.659305 0.858543
-2.09053 0.393305 1.22622
-1.72963 0.789604 1.33662
-3.11643 0.743105 0.545012
-0.790727 0.412305 1.40848
-0.911826 0.365305 1.32787
-1.91923 0.339405 0.605193
-1.82873 0.334305 0.646993
-1.95123 0.366205 0.581342
-0.846227 0.316605 1.06215
-2.77513 0.627305 0.111953
-0.845527 0.304105 0.998837
-3.02243 0.709405 -0.0680374
1.04067 -0.0748956 1.89284
-1.60023 0.257805 0.496713
-2.10293 0.414505 0.259123
-0.100825 0.281805 1.17233
0.936074 -0.0263955 1.60233
-2.70683 0.613105 -0.183267
-2.26523 0.456205 0.0116227
-2.91533 0.668505 -0.296447
0.187074 0.201305 0.883133
-2.06233 0.408205 -0.211617
-0.411626 0.504504 0.609252
-1.80103 0.330405 -0.123557
0.708675 0.155905 0.607442
-0.583026 0.456305 -0.415777
-0.244126 0.546604 -0.368897
0.182473 0.366705 -0.662747
-0.136925 2.25188 3.09033
-2.71143 0.606105 1.94352
-1.72163 1.1029 2.23404
-2.90983 0.672405 1.24745
-2.01583 0.384905 0.912702
-2.11153 0.414805 0.839633
-2.00703 0.388105 0.873643
0.263274 0.354405 1.68579
-3.01423 0.710204 0.00317265
-2.76433 0.613705 -0.257327
-0.140826 0.316405 0.890483
-0.591327 0.257605 0.527933
-0.354825 0.520905 0.608752
-2.41103 0.503205 -0.515477
0.809175 0.188005 0.608232
-2.72703 0.608805 2.83889
-0.495026 2.07694 3.12069
-2.72263 0.601205 1.80598
0.820575 2.13508 3.05576
-2.52213 0.526905 1.22241
-0.415326 0.547205 2.13891
-3.01743 0.700805 0.699952
-0.134425 0.440205 2.15102
-2.10073 0.418905 1.08421
-3.03893 0.704505 0.594553
-2.07873 0.396505 0.942331
0.156574 0.301005 1.68239
0.262874 0.363405 1.61437
0.373275 0.419005 1.63405
0.291875 0.382705 1.57578
-0.191127 0.503305 -0.208317
-0.248425 0.554304 -0.515867
-3.30553 0.799305 2.52664
-2.60513 0.576804 1.65487
-0.156125 0.619905 2.27926
-1.01793 0.357905 1.41393
-0.325526 0.342405 1.51732
-0.896626 0.339505 0.869783
-0.864326 0.408505 0.812143
0.264074 0.247905 1.12482
0.794074 0.0127051 1.01297
-2.21463 0.482104 2.10294
0.270175 2.31243 3.00602
-1.14703 0.935205 2.35181
-1.69073 0.793705 1.31984
0.764474 0.357805 2.33258
-0.294825 0.337805 1.31379
-0.179826 0.516505 -0.572567
1.47387 -0.186095 -0.123937
-1.59383 0.236605 -0.595467
-3.31863 0.782305 1.82877
-1.21433 0.385205 1.46
-1.29293 1.0623 3.4927
0.569074 0.0977052 0.0139127
0.256774 2.38279 3.24174
-1.21153 1.18034 3.56474
-2.94403 0.711405 3.31972
-2.97133 0.706704 3.31673
-0.291926 2.17083 3.07374
0.515474 2.22417 3.07153
-3.38783 0.829905 3.07571
-3.35222 0.824105 2.81795
-2.46253 0.524705 2.76009
-3.44113 0.850505 2.63752
-3.49383 0.856605 2.5681
-3.25623 0.788105 2.50323
-1.09483 0.900805 2.47766
-3.17023 0.752805 2.39054
-3.14463 0.752205 2.38944
-2.67513 0.603805 2.37627
-2.97933 0.691304 2.35071
-3.00663 0.689305 2.34998
-2.64373 0.579905 2.36458
-3.47883 0.857905 2.26385
-1.21833 0.942905 2.30082
-3.52963 0.879005 2.22044
-2.93343 0.674505 2.18316
0.645774 0.352305 2.31531
-3.03113 0.721005 2.10797
-2.72793 0.621005 2.11975
-2.35773 0.510705 2.13321
-2.95663 0.687705 2.07424
-3.42553 0.832805 2.05714
-2.98843 0.690105 2.06589
-3.48703 0.856905 2.03556
-2.99193 0.691405 2.04383
-2.70393 0.596705 2.04286
-2.98463 0.687005 2.0328
-0.0339249 0.465904 2.11213
-2.48753 0.542905 2.02366
-2.37023 0.509605 1.9888
-2.99653 0.706505 1.93103
-1.27403 0.438505 1.85539
-2.21533 0.445405 1.79404
-3.54893 0.881604 1.74577
-3.37053 0.817505 1.70264
-2.45943 0.534704 1.698
0.0948747 0.266105 1.69809
0.160674 0.316805 1.69558
0.222774 0.346005 1.67701
-2.51163 0.550605 1.6033
-2.42693 0.525505 1.59871
-2.81093 0.637405 1.58448
-3.09073 0.723105 1.57472
-1.17123 0.488705 1.60826
0.241374 0.367805 1.63549
0.264875 0.369305 1.61797
-2.87603 0.662405 1.47751
0.381074 0.424705 1.5409
0.381475 0.359405 1.45177
0.356475 0.344705 1.44092
-2.81413 0.641905 1.35979
0.334775 0.110405 1.35361
0.436374 0.252505 1.36389
-2.86713 0.654505 1.32038
-3.05943 0.717105 1.28712
-2.87543 0.648404 1.27826
-3.33953 0.784905 1.27038
1.39137 -0.388495 1.15926
1.40067 -0.390196 1.14089
-2.09493 0.419605 1.08729
-2.24953 0.447604 1.05008
1.41547 -0.394396 0.985625
-3.02093 0.698304 1.02983
-2.93923 0.667404 1.02411
-2.97283 0.684605 1.02829
-3.06123 0.714005 1.02105
-1.57713 0.939904 1.0491
-2.37553 0.504805 0.969166
-2.68993 0.598005 0.948768
-3.01303 0.708305 0.930702
-1.98183 0.374605 0.899179
-2.74653 0.609104 0.916177
-1.94803 0.368905 0.881343
-3.19183 0.749405 0.903039
-3.05423 0.709605 0.896403
-1.94023 0.366405 0.863933
-2.60283 0.561205 0.869023
-2.61023 0.569905 0.862233
-2.42873 0.496804 0.831493
-2.98983 0.698705 0.737563
-3.39492 0.822405 0.736563
0.239474 0.156505 0.647693
-3.15463 0.751105 0.661783
-2.37723 0.489805 0.588192
-2.93213 0.674105 0.610453
-2.58453 0.544905 0.585302
-2.63853 0.576205 0.576332
-3.41732 0.834405 0.573943
-3.38093 0.826005 0.433003
-2.96793 0.685505 0.404403
-2.12313 0.405605 0.311623
-3.48943 0.861005 0.387933
-2.29183 0.439605 0.286263
-2.61983 0.562705 0.283513
-3.40113 0.834005 0.303943
-3.35583 0.816905 0.273083
-3.28503 0.788204 0.194003
-1.31853 0.152305 0.0359727
-2.43433 0.507405 0.0495427
-1.98083 0.365705 0.0110326
-3.09783 0.738905 0.0756426
-2.13403 0.413105 -0.0133973
-0.303426 0.484305 0.0116626
-0.828826 0.513604 -0.0297574
-3.17813 0.764505 0.0164726
-2.62823 0.581505 -0.0449873
0.196473 0.201305 -0.170047
-2.32633 0.488405 -0.110317
-2.49843 0.538505 -0.121367
-2.02073 0.384705 -0.205787
-2.02733 0.365305 -0.261007
-2.20223 0.438805 -0.315867
-3.12823 0.749905 -0.306377
-1.46613 0.208205 -0.503527
-1.22863 0.128605 -0.622397
-2.28613 0.471705 -0.519207
-1.02843 0.0533049 -0.679957
-1.55293 0.232705 -0.626317
-1.68743 0.286105 -0.630418
-1.13183 0.109205 -0.880138
1.39447 0.202405 -0.972888
0.0729745 2.45163 3.56775
-2.04363 1.21639 3.56516
-2.80073 0.839504 3.55749
0.824674 2.12762 2.97942
-3.35243 0.814204 2.87334
-3.23473 0.782305 2.73692
-3.24153 0.783605 2.7226
-2.46783 0.529505 2.74419
-3.13123 0.757905 2.60893
-3.10523 0.743505 2.53099
-1.06843 1.00161 2.55831
-2.63323 0.581004 2.52982
-1.44873 1.0164 2.44442
-3.15373 0.775005 2.37052
-2.47273 0.526805 2.37063
0.847875 0.276205 2.47306
-3.51403 0.873904 2.27318
-1.21093 0.943005 2.28761
-2.91593 0.674105 2.21471
0.651674 0.349705 2.30071
-2.23013 0.468205 2.11801
-3.30373 0.796205 1.75387
-0.715526 0.258205 1.77809
0.256374 0.361405 1.6685
0.398374 0.399405 1.65602
-2.95853 0.685004 1.53918
-2.73283 0.623305 1.50878
0.334174 0.377905 1.53468
-1.07053 0.385205 1.48865
0.345174 0.108605 1.36663
-3.09003 0.725704 1.33015
-2.84633 0.646105 1.29094
-2.85023 0.644204 1.27681
-2.46233 0.523005 1.27073
-3.17993 0.748505 1.24078
-2.42093 0.509805 1.05139
-2.71173 0.610405 1.04793
-2.06243 0.384505 1.02944
1.44377 -0.394895 0.994806
-1.54743 0.916905 1.08542
-2.07333 0.400605 1.01285
-3.09923 0.711805 1.02759
-2.67603 0.591905 0.988865
-1.99493 0.378005 0.875073
-3.44313 0.826905 0.906642
-2.78803 0.623405 0.882283
-2.99093 0.683905 0.883063
-2.05423 0.398905 0.854253
-2.84863 0.639605 0.874223
-3.04043 0.716105 0.725723
-1.11183 0.455705 0.676762
0.216973 0.154105 0.637002
-2.03223 0.389505 0.561193
-0.627727 0.263604 0.353783
-1.37283 0.185605 0.306333
-2.13483 0.417105 -0.0258074
-2.52083 0.549005 -0.0543273
1.73797 -0.123495 -0.299407
-1.55483 0.247005 -0.336177
-1.38473 0.173205 -0.486167
-0.925826 0.0286048 -0.637477
-1.30253 0.157905 -0.656077
1.01777 2.46211 3.57982
-0.136426 2.24919 3.06947
-2.23583 0.461905 3.19035
-3.14153 0.761805 2.62302
-2.69863 0.601205 2.37532
-1.08713 0.902005 2.38064
0.922774 0.305905 2.44994
-2.70483 0.612405 2.15775
-3.31253 0.786405 2.07873
-3.30113 0.789005 2.02544
-3.33853 0.806205 1.98845
-3.32123 0.789705 1.85812
-3.01023 0.696805 1.75246
-0.0204266 0.256505 1.70782
0.325174 0.369505 1.51595
-2.87363 0.662405 1.39429
0.412975 0.0490048 1.31493
-3.14133 0.739305 1.23492
-2.44503 0.507205 1.18975
-2.44213 0.512305 1.09532
0.197774 0.217105 1.10748
-2.96363 0.683604 1.01485
-3.31383 0.796405 1.01277
-3.19983 0.773005 0.744033
-0.413125 0.503505 0.612393
-2.71243 0.590705 0.420943
-0.632426 0.288805 0.374993
-3.35423 0.810605 0.208003
-2.89013 0.659205 0.0355927
-1.88083 0.316005 -0.291977
-2.26303 0.456405 -0.374967
-1.27033 0.149805 -0.474327
-2.11473 0.417305 -0.536677
-0.305526 2.16214 3.19217
-2.71173 0.603005 3.11093
-0.0271252 2.32362 2.82181
-2.93643 0.682605 2.65697
0.254773 0.488005 2.47084
-2.36553 0.475305 2.3714
-2.40363 0.491804 2.35304
-3.24583 0.795105 2.23716
-1.72703 1.107 2.24184
-2.70083 0.602005 2.17577
-3.34403 0.808305 2.01236
-1.72493 0.887105 2.02866
-2.33403 0.471005 1.96057
-2.78253 0.610605 1.83758
0.0571739 0.306805 1.82306
0.0564739 0.321405 1.75583
0.165674 0.304505 1.68759
0.280873 0.430805 1.62982
-2.52593 0.555405 1.56096
-2.06633 0.393605 1.22689
0.945274 -0.0396955 1.20363
1.47657 -0.396295 1.03765
-2.69823 0.581704 1.0116
-2.00123 0.386805 0.944257
-2.02783 0.387705 0.883553
-3.29413 0.777605 0.898826
-1.86703 0.338705 0.644462
0.202974 0.154505 0.628903
-2.56503 0.509605 0.246923
0.987774 0.142205 -0.174107
0.0199749 0.488405 -0.275957
-0.0391262 0.481905 -0.297197
-1.31203 0.131505 -0.502657
-0.574925 0.450705 -0.415437
-1.32273 0.182805 -0.503127
-2.46793 0.533105 -0.539237
-2.19483 0.590605 3.42929
-2.53893 0.542505 2.55563
-2.27503 0.470705 2.20854
-0.560326 0.252205 2.03863
-0.546225 0.234705 2.01776
0.249173 0.306905 1.71425
0.249574 0.345605 1.64467
-2.86393 0.655205 1.32437
-0.836625 0.313705 1.25487
-0.897025 0.314705 1.13716
-2.10573 0.432905 1.08399
-0.925326 0.314905 1.0682
-2.01453 0.381305 0.917461
-2.14553 0.420405 0.874893
-0.368127 0.537605 0.575453
-1.18003 0.197905 0.360683
0.517074 0.0729049 0.255453
0.532274 0.101405 0.212673
-2.74013 0.615905 0.0182127
-2.17853 0.416305 -0.149327
1.69247 -0.179695 -0.349647
-0.910426 0.626505 -0.207597
-1.90883 0.348705 -0.462037
-1.13083 0.089105 -0.598507
-1.19713 0.102305 -0.607237
-1.16993 0.117005 -0.628517
0.700475 0.402505 -0.896038
-1.76653 1.20655 2.69437
-1.12043 1.03031 2.58288
-2.16553 0.424205 2.38652
-2.18273 0.427805 2.35655
-1.64753 0.768305 1.82273
-0.302827 0.362905 1.67312
0.366275 0.433805 1.61987
0.448175 0.377905 1.57767
-2.08833 0.441705 1.51535
-2.21893 0.447805 0.907576
-3.17063 0.740305 0.271563
-2.04533 0.384205 -0.0266373
1.64687 -0.209795 -0.371127
-0.217027 0.519405 -0.489327
-1.21233 1.09761 3.54036
-0.508527 0.459604 2.14767
0.475974 0.394805 1.5314
-2.25103 0.450005 1.03577
-3.08223 0.731005 0.0728627
-2.66253 0.603605 2.35161
0.210475 0.460904 2.428
-2.18353 0.488705 2.10193
-0.156325 0.302005 0.992912
-0.162726 0.367005 0.698732
-0.524627 0.435405 -0.578547
-1.71833 0.758004 1.27527
1.14057 0.124205 2.20117
-1.56033 0.683505 1.84994
0.685374 0.00100451 0.539052
-0.782025 0.419905 0.325773
-0.0518253 0.461004 -0.669578
-0.100726 2.28395 3.2858
-1.07213 1.17334 3.30557
0.0210736 0.526905 -0.0473573
0.277574 2.36859 3.28637
2.25657 -0.967195 -1.00691
-1.94423 0.349305 -0.221747
-1.97743 0.356105 -0.215347
-2.61153 0.569505 0.0441226
-1.78903 0.308305 0.112093
-2.43173 0.500105 0.286223
0.457873 0.125305 0.168543
-3.36393 0.819505 0.423213
0.423675 0.131905 0.180733
0.497375 0.104505 0.172533
0.241975 0.186505 0.215723
-3.05123 0.725505 0.439223
-1.65803 0.275405 0.523453
-1.67633 0.272105 0.581882
-1.63883 0.262204 0.588083
-1.66793 0.277705 0.597172
-1.44693 0.203005 0.584993
-3.43683 0.840505 0.778123
-2.43353 0.525105 0.832353
-2.91113 0.657005 0.871273
-3.01673 0.713804 0.931181
-2.85503 0.645305 1.02752
-2.25073 0.452705 1.05014
-2.50093 0.533605 1.08695
-1.03953 0.365505 1.13247
-3.16993 0.739205 1.25126
-3.33913 0.789604 1.27116
-2.72543 0.617905 1.343
-0.789725 0.413005 1.38774
0.322873 0.353505 1.46597
0.373174 0.368205 1.46705
-2.98673 0.691005 1.57097
-2.94143 0.676805 1.57302
-2.42003 0.494805 1.57759
-2.73083 0.612105 1.59402
-3.03653 0.696605 1.60489
0.343475 0.408205 1.63278
-0.158225 0.304505 1.68659
-2.70233 0.602205 1.8137
-2.99023 0.670204 1.81964
-2.68383 0.582205 1.82385
-2.66393 0.597805 1.84963
-0.173825 0.305905 1.85082
-2.48603 0.543205 2.02361
-2.96483 0.677005 2.03967
-2.99053 0.686305 2.05563
-2.95893 0.679205 2.06495
-2.86483 0.665205 2.09953
-3.01633 0.711305 2.11669
-3.26483 0.798405 2.34096
-2.66003 0.584405 2.35664
-2.47663 0.532205 2.36963
-3.41423 0.825705 2.39173
-0.584525 0.742405 2.41526
-3.27743 0.796005 2.45138
-2.60843 0.582005 2.52505
-2.97763 0.698505 2.56878
-3.23263 0.780205 2.73722
-2.63443 0.582905 3.12166
1.00567 2.07546 3.03853
-2.26293 0.507505 3.33123
0.530574 0.285705 -0.651567
-1.68183 0.271805 -0.469357
-1.98033 0.364905 -0.324687
-1.59163 0.249105 -0.249467
-2.17323 0.424505 -0.118097
-2.76763 0.613105 0.0517427
0.459474 0.120305 0.191463
-2.18033 0.439605 0.555683
-1.79143 0.325205 0.607852
-2.87763 0.651805 0.870143
-2.96293 0.686505 1.01604
-1.58353 0.906005 1.02639
-2.12493 0.422205 1.0231
0.860274 -0.00339479 0.933206
-2.38793 0.500705 1.21115
-2.96483 0.670005 1.26113
-0.836026 0.309405 1.23906
-3.08473 0.725105 1.3296
-2.50143 0.520805 1.40157
-2.23633 0.451405 1.6083
-2.47363 0.534605 1.62195
0.228975 0.347705 1.63084
-2.51613 0.548805 1.70643
0.178874 0.306105 1.71179
0.0960744 0.267104 1.73773
-1.59543 0.751805 1.81881
-1.26493 0.437105 1.83503
-2.48773 0.534205 2.03567
1.15257 0.199405 2.2512
-0.729026 0.797205 2.25414
0.922074 0.276405 2.28735
-2.22833 0.440805 2.35648
-0.836625 0.825805 2.4428
-0.360026 0.674905 2.47405
-0.933726 0.856905 2.48148
-3.23843 0.782305 2.7232
-1.37913 1.02411 3.20668
-3.01393 0.792404 3.3648
-0.178626 0.531405 -0.259527
-1.32903 0.146505 -0.261767
0.951074 0.187305 -0.250207
-1.62203 0.256105 0.314343
-0.609527 0.245805 0.547273
-0.358525 0.511805 0.611963
-2.10523 0.411305 0.839873
-2.05363 0.402805 0.837513
-2.22023 0.428305 1.37468
-2.13393 0.408605 1.38364
-2.08003 0.396605 1.60133
0.244674 0.315205 1.71324
-2.17673 0.441905 1.79786
-2.80133 0.642505 1.87576
-2.36233 0.480805 2.09478
-2.69293 0.609605 2.15791
0.670375 0.357305 2.26459
-3.20933 0.749305 2.24178
-2.76763 0.608705 2.36334
0.760074 2.1513 2.81923
-0.0267265 2.32272 2.82093
0.197974 2.32675 3.04102
0.971374 2.09217 3.15793
2.29667 -0.976795 -0.802618
-3.27773 0.779104 1.0348
-0.927627 0.370705 1.33088
-2.02483 0.372005 1.3666
-0.939826 0.377505 1.40174
0.339873 0.376505 1.51094
-0.643926 0.242504 1.79093
-1.57203 0.758505 1.83086
-1.47393 0.695805 1.88398
-3.30603 0.812804 1.9163
-0.445426 0.378205 2.0424
-2.35223 0.506105 2.10936
-2.65103 0.573705 2.18788
0.503774 0.403205 2.19545
-1.66753 1.09281 2.24862
-2.41083 0.503804 2.35244
-0.0955265 2.26882 2.92649
-0.563826 0.217205 0.440203
-2.40063 0.510705 0.587332
-2.23183 0.438505 0.879673
-2.13953 0.410305 0.874193
-2.14263 0.398404 1.22426
0.139875 0.274005 1.7746
-2.17683 0.449405 1.79772
-2.29393 0.468905 2.37698
-0.202025 0.498705 -0.534367
-1.62063 0.787105 1.89962
-1.73833 1.17343 3.30972
0.591974 0.144505 0.578642
-2.50393 0.534105 1.22256
-2.22583 0.463305 1.4195
-1.23063 0.984005 2.79633
-0.157025 0.537205 -0.241687
-0.284926 0.464504 2.09426
-1.63003 0.820705 2.07849
-2.22083 0.453904 0.958722
0.400775 0.162805 1.20199
0.0957749 0.458005 0.0711228
1.09337 -0.0848949 1.76832
-1.27173 0.147505 -0.474967
-1.59373 0.248005 0.580642
-3.09373 0.726305 1.22621
-1.99253 0.385905 0.856583
-2.29863 0.479605 1.57887
-2.19433 0.453505 1.57088
-2.46033 0.530905 1.7111
-2.80993 0.635104 1.86294
-2.85823 0.662005 1.89086
-2.67913 0.593805 1.84474
-2.99133 0.692905 2.04744
-3.27893 0.799705 2.16205
-2.95413 0.683705 2.07479
-3.02083 0.716705 2.11496
-2.73513 0.602405 2.05219
-2.73023 0.605005 2.06238
-2.42243 0.509905 2.02568
-2.96813 0.691205 2.3392
0.341575 0.109705 1.36497
-2.59453 0.572005 2.52576
0.290673 0.392505 1.61322
0.229375 0.356605 1.67053
0.350774 0.411405 1.6323
-2.65143 0.578204 2.79943
-2.46833 0.529605 2.7465
-2.21723 0.457105 2.69079
-2.73623 0.611305 3.00987
-2.67903 0.597005 3.13518
-2.64973 0.592304 3.1345
-2.54173 0.564405 3.1402
-2.69793 0.752005 3.44074
-2.61433 0.730604 3.43856
1.38087 1.9585 2.87516
-1.94293 0.346005 -0.267197
-1.89083 0.315805 -0.289907
-0.991027 0.582005 -0.418387
-1.57693 0.241705 0.00421263
-0.0262249 0.482305 -0.337357
-3.08723 0.737005 0.918718
-2.07393 0.402905 1.01303
-2.72063 0.588505 1.83202
0.913175 0.0017045 1.15843
0.306474 0.363805 1.54434
-0.178626 0.306805 1.72227
-2.92713 0.689505 2.66068
-0.00552636 0.353605 1.99187
-2.44493 0.534905 2.95977
0.399574 2.2602 3.19952
-1.63903 0.920805 1.03946
-3.31103 0.800205 2.1852
-2.30083 0.462105 2.37988
-3.35603 0.811105 2.87911
-2.99883 0.706905 2.79558
-2.20623 0.604105 3.43144
-1.53263 1.0876 3.28982
1.12617 2.26765 3.57538
-1.09083 0.0900053 -0.643028
-2.12203 0.405805 0.0046127
-0.233327 0.526405 -0.248097
0.166475 0.214905 0.320783
-2.32733 0.485405 1.5095
-2.35033 0.481304 2.2205
-2.68893 0.589504 2.35851
-0.205426 0.310505 1.65714
0.0679734 0.300405 1.82935
0.0758736 0.548105 2.41107
-0.511025 2.06327 3.11739
-3.10723 0.758305 2.22394
-1.74723 0.911505 2.08187
1.46717 -0.389895 1.03932
-0.0908249 0.258105 1.83293
-2.13413 0.434705 2.55002
-1.52643 1.0469 2.52837
-1.14813 1.0124 2.62856
-1.62903 0.932005 2.13836
-2.16113 0.436305 2.34925
-2.19473 0.446305 2.5871
-2.25873 0.523005 3.35254
1.11937 2.33529 3.57715
-2.14253 0.437905 2.09022
-0.688827 0.718305 2.23284
0.407273 2.2892 3.04542
0.297774 2.36834 3.40127
-0.303626 0.240305 1.09021
-1.27593 0.148705 -0.473747
-2.75243 0.617205 2.00778
-3.03863 0.694005 2.36126
0.173974 0.201705 0.235353
-2.67623 0.590105 2.56082
-2.26443 0.468505 2.58601
-2.65663 0.589205 3.01729
-2.21843 0.454604 2.69134
0.208074 0.216705 1.0881
1.46557 -0.347595 0.721223
0.230575 0.358305 1.67141
0.256274 0.370505 1.68871
-0.0201252 0.375505 2.03957
-1.74613 0.291305 0.0676927
-1.96873 0.372405 0.912627
-3.04763 0.724905 2.01511
-2.65713 0.582205 2.81594
0.215074 0.180905 0.805513
-0.0181263 0.256105 1.67821
0.246074 0.370905 1.64802
0.919475 0.269805 2.21837
-1.86323 0.330005 -0.494337
-1.13413 0.102005 -0.634607
-2.02543 0.370705 1.33519
-3.06793 0.721504 2.37555
1.60247 -0.012695 -0.943868
-0.0919254 0.279505 1.13647
0.994174 -0.0646951 1.14694
0.365674 0.389505 1.62926
-1.09843 0.0963052 -0.633847
-3.54343 0.882905 2.73814
-2.85063 0.653205 2.57158
-0.318026 0.352705 1.14971
-0.881825 0.544105 0.300553
-0.226827 0.328904 1.17769
-2.18563 0.463405 2.59165
-1.12653 0.566605 0.473282
-0.219226 0.331704 1.89189
-1.83823 0.264005 0.654722
-1.84193 0.555804 1.2503
-3.24113 0.782105 1.95721
-1.97773 0.363805 0.00714269
-1.76903 0.293305 0.0957326
-1.64693 0.265605 0.520103
-2.65573 0.589105 3.01736
-0.935225 0.678105 -0.289927
-0.231326 0.326104 1.69944
-0.142726 0.296805 1.84903
0.263274 0.295005 1.51616
0.324174 0.366905 1.50613
0.265674 0.364704 1.63452
0.864974 -0.00769491 1.15904
1.43857 -0.386095 1.1002
-3.27453 0.794305 2.43941
-2.26383 0.473305 2.16834
-1.60183 1.074 2.23687
-0.0928257 0.280605 1.6606
0.0538742 0.291705 1.84878
-0.0343254 0.472805 2.14512
1.41567 -0.386395 0.971746
1.02457 -0.0699956 1.84666
-2.95163 0.678305 0.606163
-3.18073 0.745505 0.999239
-2.06313 0.400005 1.01978
-1.66713 1.1133 2.20012
-1.28353 1.0838 3.50864
0.792274 0.0121053 1.16555
-1.67993 0.898504 1.00393
-1.03033 0.363505 1.13627
0.972875 -0.0275952 1.52621
-2.91823 0.682105 2.66074
-0.942426 0.352505 1.33341
-0.448127 0.374705 -0.240427
-2.83473 0.638805 -0.338297
-1.82093 0.318805 -0.371287
-2.65583 0.590105 3.01707
-1.99323 0.379005 0.955317
-1.28513 0.159405 -0.484837
-0.912625 0.536104 0.316513
0.265775 0.398805 1.66489
0.375474 0.375905 1.48794
0.781274 0.317305 2.51959
-2.79983 0.636105 0.235543
-2.39853 0.501605 0.795433
-2.13593 0.414505 1.08589
-2.27293 0.474505 2.1485
-1.26663 0.441005 1.83832
0.121175 0.228405 0.371463
0.255174 0.181105 0.207373
-3.16813 0.738805 0.957891
-2.82293 0.640105 0.273173
-2.82623 0.640004 1.58692
-2.08433 0.398305 0.300243
-0.948926 0.360905 0.763482
-0.109425 0.286105 1.38091
-0.0922249 0.266305 1.72747
0.983375 0.168705 -0.258827
0.922275 -0.0233952 0.989367
2.28747 -0.969095 -0.818188
-3.38033 0.823005 0.0240526
-2.95463 0.673605 0.857923
-2.97103 0.675505 0.922108
-2.93183 0.671604 0.868163
-2.41993 0.500304 0.783913
-2.35333 0.486505 0.576522
-0.963925 0.360504 1.36831
0.361474 0.114205 1.34065
0.912173 -0.0180947 0.924234
-3.27823 0.771905 1.23221
-2.95433 0.677805 0.617332
-1.12313 0.101005 -0.586977
0.265075 0.127305 1.29323
-0.412227 0.586305 2.12727
-0.915526 0.329505 1.25049
-1.64543 0.918804 2.08905
1.73567 -0.299095 0.115383
-3.21933 0.787905 2.16594
-3.09823 0.730105 0.233943
-2.73093 0.598905 2.97818
-2.66703 0.583705 0.567683
-2.58853 0.560605 1.72628
-2.51643 0.532005 0.161893
-2.51453 0.531605 0.199263
-2.50933 0.530405 0.133853
-2.34223 0.493405 1.89223
-2.27213 0.474005 2.14875
-2.07643 0.391505 0.323933
-0.210826 0.320605 1.13782
-0.185025 0.317205 1.15054
-0.293225 2.17073 3.19102
-0.036826 0.268105 1.16657
0.309573 0.367405 1.54322
0.404275 0.440905 2.22936
0.738275 0.209005 -0.716778
0.907775 -0.0208947 1.14352
1.42667 -0.291095 1.42081
1.61017 -0.252695 -0.0165473
-3.31593 0.803905 2.46845
-3.07173 0.727205 1.85839
-2.73113 0.605705 0.936315
-2.42113 0.520305 1.07486
-2.13653 0.410405 1.14042
-2.12693 0.412105 -0.0671273
-2.07863 0.398105 0.293333
-2.07213 0.385705 -0.571787
-1.69663 1.1003 2.33594
-1.68603 1.09491 2.38648
-1.81993 0.321805 -0.317777
-1.63153 0.257705 0.501102
-1.36333 0.183605 0.290723
-1.25483 0.440505 1.81795
-0.835225 0.308505 1.07241
-0.773927 0.289305 0.957755
-0.306725 0.384905 0.785042
-0.202226 0.316105 1.10194
-0.070626 0.459905 -0.231067
0.584575 0.0868047 -0.0162973
0.592874 0.0815051 -0.181677
0.597274 0.0916046 0.00659266
1.34747 -0.362796 1.36373
-3.30133 0.787805 2.02126
-2.10923 0.410305 0.346613
-2.10833 0.401705 0.298363
-1.95633 0.354105 -0.666967
-0.553725 0.217405 1.49215
-0.195126 0.313705 1.57257
1.07617 -0.0927951 1.73121
1.07677 -0.087795 1.85516
-2.87063 0.656105 1.37943
-2.71953 0.581905 0.898945
-2.36723 0.507905 0.781113
-1.86873 0.339505 0.706503
-1.40333 0.483505 1.61472
-1.01223 0.879504 2.25585
-0.308926 0.350305 1.47
0.115274 0.227205 0.376113
0.858773 -0.00739546 1.03939
0.894475 -0.000494667 0.902513
-3.24853 0.783105 0.327653
-3.09513 0.729805 0.166673
-3.07063 0.724705 0.128933
-2.50633 0.529205 0.131303
-1.84303 0.314005 -0.310557
-1.64643 0.913105 1.02465
-1.28023 0.156805 -0.420857
-1.19053 0.938105 2.34535
-0.950126 0.343805 0.863543
-0.889026 0.332005 0.806973
-0.290326 0.336205 1.62967
-0.260926 0.333605 1.20945
0.0595734 0.229605 0.444043
0.886575 0.169905 -0.0534774
1.06547 -0.0117948 0.474252
-2.86483 0.665205 1.29955
-2.69733 0.592605 0.462713
-2.15753 0.418105 -0.0292674
-1.75783 1.14767 3.18545
-1.20463 0.962305 3.14563
-0.831925 0.374505 0.837303
-0.175925 0.306505 1.25895
0.318174 0.183505 -0.0722674
0.779374 0.0192044 1.20541
-1.79173 1.16515 3.17707
-0.338326 0.375805 0.438243
0.0624744 0.277605 1.78005
-0.292626 0.405705 0.456993
0.269075 0.216605 1.16112
0.0743745 2.37458 3.28912
0.882375 0.0183051 -0.0854673
1.37087 -0.325795 1.46096
0.676774 0.0567048 0.0408726
1.57597 -0.224395 -0.131097
-3.00513 0.696705 2.16954
-2.84943 0.646805 1.28681
-3.11253 0.734905 0.265883
-2.34913 0.494405 1.95343
-2.34123 0.493205 1.94157
-2.29843 0.475905 1.5633
-2.22603 0.454305 1.04269
-2.12433 0.413705 1.12185
-2.13583 0.419405 1.07141
-1.97783 0.372105 0.00666264
-1.87663 0.325705 -0.467687
-1.71093 0.284805 -0.626337
-1.37483 0.186705 -0.486427
-0.207526 0.624905 2.43799
0.112274 0.225705 0.417923
-0.214526 0.494505 -0.673448
0.374173 0.0741046 0.190253
0.910474 0.208605 -0.0214174
1.63597 -0.242195 0.351203
-3.24773 0.796805 2.13926
-2.73723 0.602305 1.86052
-2.96743 0.679404 0.635182
-2.81133 0.629005 -0.286247
-2.80483 0.623305 -0.302997
-2.11163 0.407405 0.327643
-2.22173 0.440505 -0.418037
-1.64343 0.259305 0.512262
-0.859925 0.314205 1.14672
-0.717425 0.407105 -0.0513874
-0.294326 0.340205 1.14652
0.303575 0.196305 1.89365
0.327174 0.383005 1.54796
0.545774 2.21392 2.84153
0.593374 0.0843051 -0.0629973
-2.86653 0.649605 1.34157
-2.86493 0.653005 1.29681
-2.69683 0.595305 0.952689
-2.28283 0.480405 1.53982
-2.42663 0.507805 0.588943
-2.08423 0.398505 0.294493
-2.19343 0.446005 -0.447597
-2.21263 0.438905 -0.503757
-2.12463 0.401905 -0.271947
-1.46903 0.208305 -0.651308
-0.266126 0.334605 1.20548
-0.0840252 0.273605 1.67261
-0.139626 0.286505 1.43855
-0.311227 0.386505 0.793693
-0.0852249 0.276205 1.14446
-0.239226 0.538904 -0.269707
0.857274 -0.00529547 1.10772
1.01687 -0.0577952 1.16653
1.03407 -0.0629947 1.15098
0.759673 0.0237048 0.223583
0.739774 0.201805 -0.639397
1.43717 -0.354195 0.743613
-3.24033 0.767905 1.1111
-3.15343 0.732605 1.00996
-2.87553 0.656204 1.38028
-2.93893 0.673105 0.929901
-2.25563 0.447805 -0.450217
-0.172326 0.311905 1.23114
-0.265326 0.357605 0.873003
-0.089526 0.279405 0.935742
-0.590426 0.447105 -0.669178
0.360173 0.434805 1.56916
1.05327 -0.0788953 1.88272
0.929174 -0.0340955 1.30083
1.33097 1.97109 2.92808
1.63507 -0.190895 -0.303757
-3.30303 0.792105 1.95088
-2.93313 0.693205 2.64833
-3.23923 0.780805 0.477953
-2.82583 0.629605 -0.315127
-0.542725 0.218705 1.51181
-0.0216263 0.260805 1.17049
0.786574 0.0122044 1.15401
0.746574 0.0914053 0.537272
-1.03213 0.582305 -0.201347
-0.333926 0.352905 1.67354
1.68517 -0.300595 0.393793
-1.73973 0.849705 1.14964
0.174875 0.230205 0.976095
-1.72973 1.14098 2.93531
0.205274 0.232405 1.54685
-0.246125 0.417205 0.167303
-2.71583 0.603105 1.85965
-2.33903 0.494805 1.94444
-3.27683 0.790405 0.202993
-2.30663 0.478205 1.52139
-3.02023 0.709105 -0.149137
-2.15943 0.424405 1.05379
-2.42153 0.501004 0.609512
-2.02253 0.376505 0.883243
-0.212926 2.21407 2.97359
-2.13223 0.409705 0.286293
-2.09713 0.408205 0.317003
-2.14003 0.406705 -0.252587
0.305175 0.198405 1.90485
0.353173 0.376905 1.50678
-2.47243 0.522704 1.0571
-1.01693 0.888905 2.40719
-2.69643 0.599005 0.0491226
-2.34443 0.489805 0.412713
-1.73393 0.284305 0.585302
-0.947125 0.359205 1.35958
0.223973 0.500304 2.40697
-0.0559261 0.271705 1.1779
-3.32143 0.808305 2.71364
-2.41663 0.640205 3.40844
-3.06353 0.738405 2.14954
-3.08633 0.735305 1.97219
-1.59773 1.0698 2.46248
-2.27393 0.484005 1.54001
-2.34823 0.502705 0.821853
-2.10983 0.414305 0.882643
-2.08073 0.396005 0.538252
-0.0503262 2.28797 3.16896
-0.0815265 2.28249 3.1025
-0.736726 0.260505 1.11361
-1.83183 0.316705 -0.426677
-0.284226 0.345105 0.979917
0.387975 0.403005 1.5227
0.947374 -0.0521953 1.38707
1.42797 -0.316595 1.35548
-3.31163 0.798505 2.4787
-3.32273 0.795605 1.69738
-2.77203 0.616804 2.16259
-2.46163 0.517605 0.268963
-0.363227 0.669005 2.43603
0.0297749 0.557705 2.35928
-0.867126 0.316505 1.01107
-0.0926254 0.281205 1.66639
0.899274 0.272605 2.43894
0.964074 -0.0371949 1.12504
0.999774 0.138805 -0.627647
-2.71353 0.606205 3.056
-3.09623 0.744405 2.09241
-2.94583 0.674505 0.595472
-0.257626 0.330805 1.54317
-0.316926 0.354405 1.12011
0.663175 0.353305 2.36617
-0.143725 0.296805 1.2558
0.698875 0.205405 -0.654588
-3.27463 0.790405 2.06027
0.606374 0.367905 2.30902
0.796674 0.013305 0.881353
0.195874 0.216205 0.00361265
-0.898126 0.313405 0.862813
0.507674 0.413105 2.33046
-3.34403 0.770105 1.80299
-3.00743 0.684005 2.34877
-2.96873 0.697305 2.33362
-3.38493 0.805405 1.64196
-2.80133 0.620205 2.04097
-2.78083 0.629405 1.86453
-2.27823 0.464805 1.95876
-2.89213 0.666605 1.3254
-2.69373 0.608905 1.34514
-3.37933 0.815805 0.789343
-3.38442 0.814305 0.739653
-1.00053 0.871804 2.44487
-3.38473 0.817805 0.684893
-2.84293 0.644705 1.04387
-2.95133 0.667505 0.879153
-3.32763 0.804005 0.522233
-2.36733 0.487305 1.227
-3.37013 0.821305 0.421713
-2.47403 0.530305 1.05848
-3.32453 0.800705 0.362243
-3.29563 0.799205 0.379943
-3.32003 0.802305 0.252043
-2.20343 0.448805 1.06619
-3.22953 0.777405 0.259913
-3.28223 0.789105 0.198033
-2.11313 0.416705 0.859743
-1.98253 0.371005 0.900892
-1.55473 0.922304 1.09095
-2.17823 0.433506 0.567402
-2.82323 0.624505 0.0515527
-2.41443 0.502805 0.277793
-2.25953 0.454505 0.300163
-2.91683 0.659605 -0.279297
-2.68643 0.607505 -0.123117
-1.44403 0.202605 0.585322
-2.12723 0.415805 -0.0505273
1.12937 0.224005 2.24515
-2.02193 0.387005 0.0084826
-2.01163 0.391605 -0.00277732
-2.27713 0.462205 -0.506137
-0.197427 0.503605 -0.182407
-2.36383 0.483705 2.07537
-0.00572663 2.32597 2.95922
-3.41323 0.827805 0.423533
-2.09313 0.399905 1.22763
-3.07433 0.737604 0.432903
-3.26523 0.781605 0.186263
-2.85333 0.655405 0.298893
-2.36433 0.488605 0.273963
-2.58273 0.547505 0.0343527
-2.06313 0.397805 0.322183
0.032674 0.243705 1.72467
-1.83193 0.322305 0.281443
1.15747 0.200705 2.27908
0.345575 0.379405 1.54246
-1.95173 0.358905 -0.0991173
0.406774 0.377205 1.474
-0.411126 0.505904 0.609503
1.41907 -0.313095 1.34946
-0.227826 0.501405 -0.202367
0.184875 0.364004 -0.666467
-2.85793 0.667005 3.00854
-3.30033 0.778205 1.86894
-1.62903 1.1031 2.83335
-0.300626 2.16175 3.18884
-0.333125 2.15192 3.13784
-3.27643 0.777905 1.02873
-2.60433 0.574105 1.51818
-3.20913 0.755305 1.02251
-2.43793 0.491505 1.21778
-3.14413 0.743205 0.224413
0.0599739 0.547505 2.41626
-0.858827 0.344205 1.27691
0.053775 0.250205 1.67944
-0.140725 0.280205 1.4293
-2.16223 0.404205 -0.265597
-2.40813 0.638705 3.40899
-2.76093 0.613605 2.84908
-3.22833 0.777505 2.38045
-2.98273 0.675905 0.597142
-2.16873 0.429005 1.08931
-1.50943 0.221905 -0.812768
-0.187825 0.495105 -0.214107
0.395875 0.285905 -0.639728
-3.23993 0.793804 2.19719
-3.23543 0.790605 2.05492
-2.83263 0.643605 2.09475
0.257974 2.32014 3.00366
-2.94963 0.684005 0.591573
-1.36193 0.477505 1.70879
-0.325526 0.340905 1.5041
-1.01973 0.564505 -0.0889173
0.174575 0.373905 -0.632237
-0.985726 1.13221 3.37131
-3.16523 0.745105 1.01976
0.204173 0.270205 1.59734
-1.11753 0.377505 1.42222
-1.05923 0.360805 1.38956
-0.676227 0.275205 1.08779
-1.34883 1.0157 2.94604
-0.513226 2.06621 2.96031
-2.97333 0.690405 2.35125
-2.97903 0.693705 2.3398
-2.69643 0.601205 2.35929
-3.01653 0.699704 2.06713
-2.73783 0.587605 2.07121
-3.05113 0.722204 1.94604
-2.24793 0.460405 2.19296
-2.48693 0.543505 2.0234
-1.62223 0.758805 1.83558
-2.66093 0.592605 1.47727
-3.20573 0.763405 1.27462
-3.02973 0.699905 1.26647
-3.06963 0.718704 1.24877
-3.20723 0.751004 1.19523
-2.72603 0.620805 1.3425
-2.93523 0.659405 1.26568
-2.48523 0.526605 1.28324
-3.24773 0.770405 1.0083
-3.06683 0.710904 1.01625
-2.91393 0.669705 1.0205
-2.82773 0.645905 1.02539
-2.77743 0.626004 1.03571
-3.22853 0.767905 0.884893
-3.42393 0.835605 0.744693
-3.40763 0.822505 0.740303
-2.94723 0.674505 0.858243
-3.44063 0.831704 0.691602
-3.55763 0.862604 0.641813
-2.24913 0.459905 1.02986
0.230973 0.345305 1.64654
-2.13423 0.420405 0.869093
-2.10603 0.403305 0.871763
0.371774 0.386305 1.48166
0.394475 0.380105 1.46604
-3.36723 0.811105 0.312783
0.549773 0.293205 1.46299
-2.96533 0.689105 0.405143
-3.33263 0.806805 0.297533
-2.22663 0.453904 0.559823
-1.94293 0.364505 0.620062
-3.35903 0.812205 0.211213
-1.76613 0.297105 0.585093
-2.57623 0.560704 0.278313
-2.47183 0.515505 0.257363
-2.55223 0.555804 0.163123
-1.94173 0.356505 0.287163
-2.82193 0.636305 0.0526827
-2.83813 0.642005 0.0416727
-1.67353 0.283705 0.322743
-2.58183 0.553805 0.0354027
-2.58453 0.554905 0.0183627
-2.48933 0.536104 -0.135397
-2.93053 0.668305 -0.315707
-1.54803 0.232205 -0.0118474
-2.08403 0.405805 -0.253257
0.311275 0.172304 0.169973
-2.03313 0.387605 -0.604537
-1.28423 0.152505 -0.494187
-1.30483 0.167805 -0.502557
0.427974 0.295105 -0.649568
0.0723736 2.44955 3.56663
-1.44383 1.03931 3.14049
-3.19593 0.777305 2.50623
-2.99933 0.705105 2.3155
-3.29973 0.791305 2.02524
-2.86573 0.637904 2.06744
-3.24593 0.773504 1.88889
-2.36023 0.486405 2.07602
-3.33673 0.797905 1.6827
-0.319325 0.681105 2.48576
-2.57013 0.567505 1.51353
-2.58733 0.572405 1.4937
-2.83513 0.644805 1.38016
-1.21303 0.430905 1.83495
0.691274 0.354005 2.30192
-3.13083 0.735005 0.993925
-2.84653 0.645505 1.04107
-3.39103 0.810205 0.786572
-2.17923 0.423605 1.07989
-2.11783 0.408005 1.03899
-2.05323 0.406805 0.930987
-2.13323 0.411905 0.690912
-2.04893 0.383405 0.588863
-3.15133 0.734605 0.226873
-2.22543 0.454005 0.136623
-1.79303 0.311705 0.0971427
0.898574 0.00880461 0.853293
-2.12913 0.410505 -0.0519974
-2.11313 0.394705 -0.257977
-1.73383 0.275705 -0.491607
-1.41183 0.186605 -0.658288
-1.17393 0.109804 -0.622987
0.753274 0.192605 -0.658577
-3.13703 0.757304 2.79851
-0.018626 2.32933 2.82303
-2.37833 0.490404 2.20316
-3.23343 0.770505 1.82819
-3.29953 0.785705 1.71767
-3.12293 0.726105 1.25149
-0.470425 0.419305 2.08816
-0.550626 0.271805 2.01659
-2.13323 0.407605 1.38911
-3.19623 0.775604 0.928806
-2.72883 0.611405 1.04067
-2.37753 0.494805 1.00576
-2.01313 0.383205 0.913886
-2.00533 0.384005 0.873493
-2.13313 0.421205 0.587482
-0.840726 0.317305 0.953312
-2.20563 0.449305 0.291163
-2.97803 0.684605 0.0107327
-1.78403 0.303805 0.0774926
-2.91773 0.671305 -0.296597
-0.0919254 0.490805 -0.261557
0.987674 0.142805 -0.175577
0.936673 0.133905 -0.655797
2.29817 -0.969595 -0.870188
-3.32573 0.804805 2.54497
-0.0985248 2.26174 2.9294
-2.77243 0.617305 2.17565
-3.04803 0.720005 1.89576
0.315074 0.475205 2.49503
-2.16783 0.436905 1.08669
0.660074 0.180305 1.72975
-2.52913 0.506604 0.271283
-1.79703 0.314305 0.0570727
-3.24553 0.760305 2.0682
-1.64813 0.775205 1.89167
-0.930627 0.375705 1.40764
-3.03133 0.702805 0.696903
-2.09003 0.423305 0.944158
0.819774 0.00660448 1.13892
-0.236827 0.534805 -0.240907
-0.211625 0.550905 -0.422537
-1.77093 1.23004 2.65295
-2.70953 0.600605 1.94792
-3.20243 0.757205 1.55785
0.0618736 0.501805 2.17989
-2.35763 0.484104 0.865653
-0.546826 0.219605 0.482093
-0.378825 0.447905 -0.388347
-2.20113 0.468105 2.10488
-2.23723 0.436205 0.826293
1.65727 -0.265595 -0.155397
0.355775 0.130505 1.31873
0.624374 0.118105 1.11903
-0.0166252 0.295405 1.85999
0.585874 0.0402053 0.0535627
0.0794747 0.328904 0.251583
-0.455525 0.487205 -0.308497
0.0204746 0.495005 -0.647278
-1.42993 1.16435 3.46657
-0.0519264 0.493105 -0.371227
-1.65773 0.266905 -0.251467
-3.24203 0.784004 0.165833
-1.90233 0.345105 0.289583
-0.618526 0.270505 0.356483
0.519874 0.0928052 0.502503
-2.45853 0.520105 0.858793
-2.40013 0.513905 0.973856
-2.94413 0.673905 1.25352
-2.24303 0.445105 1.22822
-2.79163 0.614704 1.25379
-2.84773 0.645005 1.26846
-3.16413 0.744505 1.59217
-2.72893 0.612405 1.59413
-2.52083 0.552204 1.64808
-2.46093 0.531505 1.70942
-2.75623 0.616305 2.01264
-2.71273 0.600704 2.0649
-0.0675266 0.450705 2.11196
-2.72503 0.617805 2.1095
-1.07043 0.897305 2.31099
0.899474 0.277205 2.47639
-2.59653 0.592304 2.52628
-3.17953 0.769005 2.7767
-3.00583 0.711905 2.80498
-2.85133 0.664405 3.01695
-2.54773 0.560505 3.14097
-2.26593 0.511905 3.33117
-0.0322254 0.483605 -0.269077
0.324273 0.165005 0.150543
-2.16083 0.421605 0.568223
-1.85943 0.332205 0.609542
0.817775 0.00790529 1.1551
-2.06343 0.391605 1.22665
-2.94833 0.653404 1.27571
-2.37823 0.483805 1.38009
-2.50983 0.525805 1.40299
-2.45003 0.494905 1.39976
-0.748425 0.402305 1.38557
-2.32623 0.490505 1.97878
-0.0501259 0.420405 2.09023
-0.0871265 0.588405 2.2505
-1.69093 1.09781 2.48154
0.521474 2.22349 2.97262
1.19307 2.01728 3.0423
-1.84683 0.293005 -0.448137
0.447873 0.146505 -0.213947
-2.08073 0.412705 0.941938
-2.57133 0.562405 0.982247
-2.76943 0.599205 1.0298
-2.02813 0.369905 1.36736
-1.03583 0.360504 1.487
0.368274 0.432205 1.61759
-1.62753 0.746305 1.78086
-1.60153 1.06461 2.21957
-2.15203 0.410905 1.2254
-1.56103 0.749105 1.34473
-0.593625 0.285005 1.99116
